# .PCD v0.7 - Point Cloud Data file format
VERSION 0.7
FIELDS x y z
SIZE 4 4 4
TYPE F F F
COUNT 1 1 1
WIDTH 1434
HEIGHT 1
VIEWPOINT 0 0 0 1 0 0 0
POINTS 1434
DATA ascii
-1.0017337 4.2711587 -0.55611753
-0.27679265 1.6546795 -0.53161561
-1.0813781 4.5594735 -0.49867985
-0.27486491 1.6479869 -0.51301491
-1.0790144 4.5521331 -0.41525719
-0.29017931 1.7031472 -0.52143371
-1.076668 4.5448585 -0.33172727
-0.54126978 2.6046257 -0.86333942
-1.0092051 4.3024931 -0.25084415
-0.56490386 2.6900673 -0.85423815
-0.59371465 2.7941608 -0.84760273
-0.99995226 4.2712703 -0.098448984
-0.78731042 3.4904771 -1.0231242
-0.9988907 4.2685246 -0.022412783
-0.83132082 3.6495695 -1.0072469
-0.9925819 4.2468128 0.051791236
-0.86557525 3.7736831 -0.97470748
-1.5105908 6.1212115 0.36904794
-0.96118885 4.1497416 -0.99572289
-1.0467052 4.4617314 -0.98582029
-0.24255176 1.5353737 -0.53894758
-1.036989 4.4275417 -0.89585578
-0.98743248 4.2483659 -0.78399324
-0.98744875 4.2494864 -0.70718789
-0.25321281 1.5745111 -0.52017951
-0.98488081 4.2411914 -0.62973189
-0.26850188 1.6300638 -0.5348233
-0.98817098 4.25423 -0.55442274
-0.27245393 1.6445899 -0.52655864
-1.0649501 4.5350151 -0.49694529
-0.27344173 1.6483788 -0.5130204
-1.068958 4.5507593 -0.4151319
-0.28024584 1.6732531 -0.50854182
-1.0682309 4.5492592 -0.33179533
-0.53828216 2.6093237 -0.86478555
-0.56070119 2.691226 -0.85425436
-1.2766353 5.3118601 -0.14304671
-0.5897454 2.797225 -0.84824777
-0.78149611 3.4940639 -1.0237319
-0.99175072 4.2746291 -0.022139259
-0.82254028 3.6439979 -1.0051183
-0.98550802 4.2528911 0.052157581
-0.85646361 3.7681532 -0.97275984
-1.5070506 6.1592488 0.37341392
-0.96128201 4.1860795 -1.0038267
-1.0510577 4.5173988 -0.99714077
-0.24306388 1.5422947 -0.54314709
-1.0559672 4.5365872 -0.91590667
-0.98583537 4.2795181 -0.788697
-0.98173082 4.2654276 -0.70907986
-0.25274974 1.5783105 -0.52203941
-0.97504455 4.2418118 -0.62954676
-0.26599425 1.6270306 -0.53305721
-0.97622186 4.2471614 -0.5535934
-0.27228034 1.6502755 -0.52909601
-0.27279192 1.6523547 -0.51462924
-1.0425504 4.4937472 -0.41268772
-0.2878049 1.7076352 -0.52296364
-1.054395 4.5385222 -0.33159971
-0.53326607 2.6087556 -0.86408699
-1.2378519 5.2165413 -0.24473126
-0.55692583 2.6961601 -0.8556155
-1.2652837 5.3190985 -0.14297336
-0.58366942 2.794945 -0.84701097
-1.5149713 6.2423511 0.009881299
-0.77432132 3.4960208 -1.0237583
-0.81441921 3.6442161 -1.0046079
-0.97576374 4.2534852 0.051924739
-0.8367871 3.7273154 -0.96143186
-1.5005327 6.1939425 0.37728462
-0.95758301 4.2112999 -1.009241
-1.047161 4.5471106 -0.91737425
-1.0433809 4.5340939 -0.82982409
-0.97434241 4.2776823 -0.71044135
-0.25125894 1.5787122 -0.52204454
-0.96878213 4.2579112 -0.63111627
-0.26248282 1.6205482 -0.52951896
-0.96480668 4.2440448 -0.55310965
-0.26867634 1.6437345 -0.5257268
-0.96602798 4.2495556 -0.47792751
-0.2710703 1.6528184 -0.51463532
-0.28158039 1.6920638 -0.51614177
-1.023487 4.4660783 -0.33033746
-0.53090286 2.6190636 -0.86767983
-1.2229356 5.2122731 -0.24482837
-0.55186409 2.6975229 -0.85563302
-1.2604016 5.353539 -0.14206685
-0.57977831 2.8018928 -0.84891319
-1.5118576 6.294898 0.012481829
-0.7701937 3.5110006 -1.0278674
-1.501654 6.2583194 0.13448885
-0.81385088 3.6742902 -1.0127158
-0.96445197 4.2503481 0.051294152
-0.84757298 3.8006818 -0.98022604
-1.4934521 6.2307949 0.38139969
-0.93386716 4.1550865 -0.99536836
-1.0211914 4.4848399 -0.98914778
-0.24140768 1.5462649 -0.54525316
-1.0340556 4.5343099 -0.91454458
-0.23851478 1.5355904 -0.52481341
-1.0404446 4.5594091 -0.83358955
-0.96753925 4.2856483 -0.71126497
-0.24910253 1.5756187 -0.52019382
-0.97835636 4.3273635 -0.63881886
-0.25835827 1.6105134 -0.52420747
-0.96935934 4.2943816 -0.55745554
-0.27286407 1.6651371 -0.5358572
-0.95678788 4.2478848 -0.47770163
-0.26869124 1.6496592 -0.51303697
-0.95909417 4.2574997 -0.40274191
-0.5254432 2.6147194 -0.8655473
-0.95826614 4.2562051 -0.25135285
-0.54861099 2.7022889 -0.85699046
-0.96280748 4.2742691 -0.17542334
-0.57430869 2.7994184 -0.84767234
-1.5050176 6.3235884 0.013818443
-0.76283449 3.5090003 -1.0267217
-1.4984889 6.300436 0.13749604
-0.80160779 3.6556249 -1.0068126
-0.95428234 4.2448196 0.05047214
-0.85537887 3.8587706 -0.99506426
-1.4883157 6.2650275 0.38528082
-0.92519134 4.1614013 -0.99629498
-1.0249002 4.5426083 -1.0008687
-0.23827757 1.5400445 -0.54106236
-0.99478048 4.4286618 -0.89420331
-0.23715742 1.5359478 -0.52481771
-1.0340497 4.5794787 -0.83642542
-1.015787 4.5107293 -0.74208236
-0.24852242 1.5794363 -0.52205336
-1.0256306 4.5492635 -0.66385269
-0.25539759 1.6057303 -0.52155447
-1.0188885 4.5244703 -0.57787371
-0.2692537 1.658587 -0.53248727
-0.95451355 4.2794442 -0.47962937
-0.26511496 1.6430211 -0.5098362
-0.9517526 4.2697635 -0.40317309
-0.94095325 4.2293496 -0.32622895
-0.52110958 2.6177912 -0.86627734
-0.54496521 2.7090919 -0.85902131
-0.56892449 2.8008356 -0.84768891
-1.4973332 6.3607178 0.015573661
-0.75567597 3.5128634 -1.0273288
-1.4913899 6.3394217 0.14019164
-0.79399639 3.65962 -1.0073769
-0.94403702 4.2454581 0.050243117
-0.81517214 3.7410927 -0.963485
-1.4793236 6.2961307 0.38866481
-0.91169095 4.1447735 -0.99183607
-1.0112952 4.5299544 -0.99767256
-0.23877184 1.5469546 -0.54526103
-1.0106128 4.5282393 -0.91246128
-0.2381243 1.5446174 -0.52986574
-1.0203393 4.5667143 -0.83396316
-1.0186701 4.5611844 -0.74874592
-0.24630195 1.5763519 -0.5202024
-1.0150005 4.5479198 -0.66344213
-0.25580055 1.6130366 -0.52510262
-1.0108366 4.5327401 -0.57841957
-0.26907104 1.6642554 -0.53502345
-1.0091598 4.527154 -0.49571967
-0.26545447 1.6505065 -0.51304674
-0.99799263 4.4848742 -0.41201302
-0.9372763 4.250968 -0.32658795
-0.51541793 2.6134815 -0.86414397
-0.9361726 4.2475162 -0.25150016
-0.53948212 2.7066247 -0.85769117
-0.56556523 2.8075957 -0.84958649
-0.93365204 4.2394037 -0.10118158
-0.75223202 3.5275958 -1.0314317
-1.4808946 6.3586349 0.14136979
-0.79065233 3.6764112 -1.0117074
-0.9358716 4.2496367 0.050416782
-0.82427871 3.8068101 -0.98029816
-1.4739332 6.3344479 0.39303792
-0.8982926 4.1280923 -0.98737514
-0.98561931 4.4698062 -0.98439777
-0.23328744 1.5307808 -0.53477693
-1.002461 4.5364308 -0.91356003
-1.0057297 4.5500708 -0.83087564
-1.0084989 4.5617523 -0.74850678
-0.24277736 1.56811 -0.51556897
-1.0024159 4.5388398 -0.66215229
-0.25527042 1.6168752 -0.5268786
-1.0007718 4.5332704 -0.57827294
-0.26389551 1.6506081 -0.5282768
-1.0085208 4.564415 -0.49802265
-0.26210684 1.6437993 -0.50984454
-1.0014545 4.5376306 -0.41412234
-0.49436417 2.5487657 -0.87810934
-0.99440283 4.5108933 -0.33105257
-0.51300496 2.621815 -0.86701679
-0.93141472 4.2652588 -0.25141957
-0.53542167 2.7096138 -0.85837519
-0.92594171 4.2446141 -0.176633
-0.56311524 2.8180289 -0.85273874
-0.92448729 4.2396965 -0.10131137
-0.75108641 3.5515938 -1.03845
-0.78243709 3.6745458 -1.0106497
-0.92276812 4.2345119 0.048604373
-0.8335011 3.8744771 -0.99760461
-1.4688345 6.3746972 0.3976582
-0.88876772 4.1285009 -0.98694968
-0.96595305 4.4343791 -0.97636151
-0.9902885 4.5314016 -0.91215587
-0.99061918 4.5335259 -0.827788
-0.99043894 4.5336156 -0.74428546
-0.23835003 1.5564365 -0.50908041
-0.99026388 4.5337224 -0.66130066
-0.25462902 1.6207385 -0.52865458
-0.99011189 4.5339227 -0.57812595
-0.26093501 1.6457474 -0.52574921
-0.99338305 4.5476665 -0.49678347
-0.26050708 1.6442056 -0.50984859
-0.98983222 4.5343971 -0.41390762
-0.48728821 2.539108 -0.87356734
-1.0029438 4.5871263 -0.33234742
-0.50706613 2.617543 -0.86488223
-0.92356551 4.2734427 -0.25140414
-0.53060037 2.7108388 -0.85838735
-0.92207944 4.2682838 -0.17600261
-0.55704176 2.8156533 -0.8514961
-0.91624993 4.2459116 -0.10112234
-0.74514669 3.5590234 -1.0402185
-0.91342866 4.2354522 -0.026761105
-0.77047598 3.6596985 -1.0058203
-0.91116321 4.2271943 0.047587376
-0.82187539 3.8634326 -0.99416816
-1.4587249 6.3997936 0.40031669
-0.88397151 4.14779 -0.99100673
-0.96834296 4.4862905 -0.98686516
-0.97720051 4.5225129 -0.91003478
-0.97752982 4.5245876 -0.82594335
-0.97495496 4.5150194 -0.74138927
-0.23830079 1.5619297 -0.51186574
-0.97381842 4.5112038 -0.65847242
-0.25222299 1.6176445 -0.52688599
-0.9780091 4.5287409 -0.57745838
-0.26152825 1.6549461 -0.5299722
-0.97980249 4.5366678 -0.49592155
-0.2575714 1.6392748 -0.50744772
-0.97581899 4.5214305 -0.4132899
-0.48431692 2.5455766 -0.87585402
-0.99894631 4.6149302 -0.33280587
-0.5029698 2.6204965 -0.86560833
-1.1425366 5.1917434 -0.24528697
-0.527147 2.7175314 -0.86041403
-1.4851285 6.5673294 -0.10566731
-0.55236834 2.818783 -0.85213602
-0.91039711 4.2617922 -0.10040081
-0.68256599 3.3400161 -0.97082043
-0.90713263 4.2493672 -0.025867682
-0.75534123 3.6317227 -0.99721825
-0.90441781 4.2391448 0.048559733
-0.81408131 3.8673854 -0.9946816
-1.4542341 6.447988 0.40592027
-0.87820369 4.1612663 -0.99371588
-0.96493089 4.5133719 -0.99212587
-0.96712857 4.5229812 -0.90969765
-0.96841097 4.5288825 -0.82627559
-0.96682858 4.523159 -0.74220622
-0.23617189 1.5588057 -0.5100137
-0.96619654 4.5212851 -0.65937042
-0.24992618 1.6145194 -0.52511692
-0.96844834 4.5311098 -0.57747877
-0.2582469 1.6482866 -0.52660012
-0.96784586 4.5293498 -0.49530941
-0.96821982 4.531548 -0.41363099
-0.4806779 2.5483837 -0.87662137
-0.99444973 4.6387072 -0.33319449
-0.49823162 2.6197455 -0.86490226
-1.1321419 5.1984377 -0.24528539
-0.52258718 2.7186611 -0.8604238
-1.4690101 6.5672054 -0.10581865
-0.54798305 2.8218257 -0.85277414
-1.4665016 6.5581121 0.025150226
-0.57534337 2.9329877 -0.84250116
-0.75328761 3.6540592 -1.0031599
-1.4550672 6.5138378 0.28223339
-0.80954403 3.8824871 -0.99815559
-1.4456583 6.4766965 0.4090763
-0.87405246 4.1863604 -0.99911642
-0.95043749 4.5007839 -0.988922
-0.95679218 4.5275354 -0.9100765
-0.23041515 1.5412099 -0.52685392
-0.9557389 4.5238481 -0.82505071
-0.23177315 1.5468767 -0.516608
-0.95559049 4.5238695 -0.74196184
-0.23684475 1.5677624 -0.51465392
-0.95403945 4.5181193 -0.65873325
-0.24619666 1.6062021 -0.52068961
-0.95580274 4.5259995 -0.57680833
-0.25395799 1.6381357 -0.52153993
-0.95616186 4.5280991 -0.49507725
-0.25526664 1.643616 -0.5090574
-0.95890391 4.5399995 -0.41389257
-0.47563744 2.5477123 -0.87587166
-0.49517673 2.6281846 -0.86777318
-1.1169901 5.1918516 -0.24537523
-0.51790011 2.7217472 -0.86110544
-1.4656401 6.6277156 -0.10412943
-0.54387635 2.828696 -0.85466874
-1.4551557 6.5855622 0.026390649
-0.57271063 2.9474177 -0.84659588
-1.4510493 6.5696502 0.15628538
-0.73243278 3.6036403 -0.98808992
-1.4438885 6.5411577 0.28458515
-0.80761123 3.9128885 -1.005582
-1.4392878 6.5232115 0.41443804
-0.86856312 4.2017221 -1.0022708
-0.94134176 4.5049973 -0.98934197
-0.94763762 4.5317712 -0.91045082
-0.94522619 4.5223217 -0.82444477
-0.23258656 1.5556812 -0.52145195
-0.94508898 4.5223269 -0.74144757
-0.23638043 1.5715203 -0.51651084
-0.9444949 4.5204253 -0.65875018
-0.24563381 1.6100271 -0.52246428
-0.94764656 4.5341191 -0.57734382
-0.25373983 1.6437845 -0.52407432
-0.94382113 4.5187578 -0.49433449
-0.25461954 1.6475422 -0.51066315
-0.9460746 4.528708 -0.41334793
-0.47111532 2.5469019 -0.87511992
-0.98243481 4.6807318 -0.33386895
-0.49086499 2.6292257 -0.8677808
-1.1047051 5.1907043 -0.24542116
-0.51244688 2.7191882 -0.85976994
-1.4601072 6.6722407 -0.10290907
-0.53811932 2.826179 -0.85342133
-1.4492857 6.6280713 0.028486412
-0.56885475 2.9542539 -0.84835529
-1.4433699 6.6043296 0.15869795
-0.7262814 3.6090901 -0.98917997
-1.4390794 6.5873618 0.28893006
-0.80286574 3.9279904 -1.0090532
-1.4335968 6.5654259 0.41931531
-0.8601957 4.207725 -1.0031826
-0.92620438 4.4864535 -0.98492336
-0.92923498 4.4997458 -0.9040308
-0.22869171 1.5451753 -0.52887607
-0.93413007 4.5209069 -0.82383776
-0.93400502 4.5208945 -0.74093258
-0.2349935 1.5718513 -0.51651311
-0.93205345 4.5131736 -0.65766883
-0.24371713 1.6086414 -0.52158046
-0.93471497 4.5249128 -0.57632244
-0.25087991 1.6388745 -0.52154517
-0.93462861 4.525054 -0.49460354
-0.2534321 1.6497095 -0.51146734
-0.93364269 4.5214005 -0.41296265
-0.46677318 2.5479367 -0.87512684
-0.97555995 4.6988177 -0.33415318
-0.48455414 2.6230502 -0.86492646
-1.0912639 5.1877413 -0.24547893
-0.50890291 2.7258434 -0.86179316
-1.4510595 6.7072792 -0.10198467
-0.53339261 2.8292584 -0.85405743
-1.4408453 6.664989 0.030264858
-0.56198549 2.9499912 -0.84661365
-1.4359294 6.6450553 0.16156906
-0.73389417 3.6745965 -1.0075109
-1.4271094 6.6086302 0.29069287
-0.79306561 3.9243507 -1.0075845
-1.4244479 6.5982161 0.42296773
-0.84977841 4.2001672 -1.0009513
-0.91728634 4.4885535 -0.98493576
-0.90951705 4.4558711 -0.8954618
-0.92244315 4.5114813 -0.82198167
-0.22726056 1.5443549 -0.51467693
-0.92413199 4.5191479 -0.74041402
-0.23417407 1.5738645 -0.51744235
-0.92175817 4.5094705 -0.65702295
-0.24280554 1.6106977 -0.52246845
-0.92303538 4.5153804 -0.57529759
-0.2494794 1.6392043 -0.52154708
-0.92250222 4.513557 -0.4937298
-0.2507486 1.6446939 -0.50906444
-0.92472583 4.5235004 -0.41297504
-0.46293944 2.5488393 -0.87513208
-0.97576743 4.7419105 -0.334869
-0.48265925 2.6330907 -0.86850917
-1.0783533 5.1805081 -0.24555846
-0.50632763 2.7341914 -0.86448646
-1.0728216 5.1574192 -0.14938559
-0.53012788 2.8358796 -0.85594761
-1.4386885 6.7208962 0.033109784
-0.55928987 2.9604533 -0.84953749
-1.4283727 6.677567 0.16383566
-0.72885346 3.6836982 -1.0096755
-1.4246415 6.6623702 0.29583889
-0.78340048 3.9166718 -1.005125
-1.4174745 6.6324873 0.42687088
-0.84041059 4.2043467 -1.0014117
-0.90878367 4.5005875 -0.98696434
-0.91044712 4.5081825 -0.90477133
-0.91036063 4.5082059 -0.82106006
-0.22706167 1.5497913 -0.51758385
-0.91203707 4.5158534 -0.73963022
-0.23349732 1.5776603 -0.51929927
-0.9106009 4.5100236 -0.65681624
-0.23757501 1.5953467 -0.51449525
-0.91366827 4.5236955 -0.57582915
-0.24779779 1.639595 -0.52154911
-0.91181135 4.5160422 -0.49374264
-0.25070417 1.6522291 -0.51227295
-0.91446888 4.527936 -0.41306812
-0.45917022 2.5535152 -0.87665546
-0.9702391 4.769886 -0.33531779
-0.47779292 2.634222 -0.86851478
-1.064719 5.1795716 -0.24559964
-0.49987179 2.7298901 -0.86247706
-1.0561317 5.1428275 -0.14993504
-0.52462828 2.8371582 -0.85595417
-1.4297111 6.7619438 0.035104681
-0.55383158 2.963686 -0.85012794
-1.4208875 6.724349 0.16716833
-0.71806192 3.6743436 -1.0064523
-1.4172091 6.7090473 0.30018908
-0.77186322 3.9074163 -1.0021721
-1.4110267 6.6828928 0.43273398
-0.8303808 4.2006483 -1.0000749
-0.89748865 4.4951386 -0.98536134
-0.9026379 4.5180488 -0.90621114
-0.90169418 4.5142484 -0.82169271
-0.90204412 4.5161109 -0.73937428
-0.23335814 1.5831461 -0.52208292
-0.90063709 4.5102701 -0.65660632
-0.23859897 1.6061492 -0.51981342
-0.90412223 4.5258846 -0.57583857
-0.24791652 1.6470091 -0.52492642
-0.90274483 4.5201707 -0.49387878
-0.24999043 1.6561525 -0.51387787
-0.90271878 4.520381 -0.41267651
-0.45424125 2.5508492 -0.87514186
-0.96538156 4.7956204 -0.33572978
-0.47263274 2.6315732 -0.8670882
-1.0529573 5.1802182 -0.24562389
-0.49653494 2.7364533 -0.8644973
-1.0458218 5.1492949 -0.14982751
-0.51931334 2.8364296 -0.85533106
-1.4215738 6.7986426 0.036892533
-0.54816175 2.9630249 -0.84954965
-1.4141958 6.7668033 0.17020109
-0.71595132 3.6985412 -1.0129254
-1.408796 6.7436442 0.30335209
-0.75706428 3.8789968 -0.99427664
-1.4057761 6.7309375 0.43835714
-0.81929058 4.1971617 -0.9987371
-0.88718939 4.4994764 -0.98577321
-0.89055812 4.514729 -0.90514708
-0.89050454 4.5147524 -0.82139003
-0.88999373 4.5127411 -0.73858654
-0.23068534 1.5783007 -0.51930165
-0.88905317 4.5088148 -0.65617621
-0.23702137 1.6065061 -0.51981461
-0.89206648 4.5224848 -0.57532871
-0.24939352 1.6615472 -0.53167939
-0.88940799 4.51091 -0.49312782
-0.24544229 1.6440315 -0.50826776
-0.89027017 4.5150018 -0.41236421
-0.44963169 2.5518923 -0.87514532
-0.95778155 4.8157935 -0.33604047
-0.4685913 2.636317 -0.86852312
-1.0384704 5.1752944 -0.24568605
-0.49093211 2.7357898 -0.86382949
-1.0327661 5.1502004 -0.1498971
-0.51339543 2.8358221 -0.85470772
-1.4130105 6.8435812 0.039106093
-0.54394317 2.9718251 -0.85188794
-1.4053061 6.8097057 0.17323522
-0.70433575 3.6853712 -1.0086216
-1.4008586 6.7903309 0.30770865
-0.75039148 3.8904419 -0.99675357
-1.3944004 6.7620025 0.44177493
-0.81015974 4.1972036 -0.99829412
-0.87976116 4.5111709 -0.98779488
-0.87757176 4.5014982 -0.90229237
-0.8796578 4.5111017 -0.82046127
-0.87916255 4.5090656 -0.73779571
-0.22974469 1.5803263 -0.52022994
-0.8782438 4.505116 -0.65552366
-0.23600651 1.6085696 -0.52070165
-0.88079864 4.5168333 -0.57464302
-0.24469158 1.6477344 -0.52492869
-0.87861586 4.5071816 -0.49275386
-0.24750932 1.6604664 -0.51548338
-0.88034415 4.5151691 -0.41228983
-0.44633326 2.5564201 -0.87666571
-0.9535228 4.845427 -0.33651572
-0.46466127 2.6391084 -0.86924124
-1.0267324 5.1758647 -0.24570595
-0.48754507 2.7423365 -0.86584795
-1.02198 5.154655 -0.14984469
-0.51015222 2.8443272 -0.85722256
-1.4048837 6.8822289 0.041005831
-0.53826165 2.971132 -0.85130787
-1.3964218 6.8443813 0.17566407
-0.69913799 3.6963978 -1.0113202
-1.3928984 6.8288093 0.31127468
-0.74211866 3.8903027 -0.9962647
-1.3878095 6.8061819 0.4469136
-0.80257225 4.2068558 -1.0000923
-0.86832452 4.5076714 -0.98658991
-0.86617422 4.497962 -0.9012239
-0.86908549 4.5114069 -0.82015419
-0.86818683 4.5074215 -0.73726916
-0.23022458 1.5892925 -0.52486813
-0.86729264 4.5034556 -0.65508902
-0.23259333 1.6001415 -0.51627159
-0.86982566 4.5151687 -0.5743016
-0.24385239 1.6516321 -0.52661729
-0.86768484 4.5055008 -0.49250501
-0.244293 1.6536698 -0.51227748
-0.8694036 4.5134854 -0.41213375
-0.44156736 2.5555747 -0.87590873
-0.94887716 4.8771648 -0.33702287
-0.4600473 2.6401234 -0.86924326
-1.0121562 5.1667857 -0.24578874
-0.48262596 2.7434192 -0.86585021
-1.0087662 5.1514225 -0.15002784
-0.50371528 2.8399122 -0.85534084
-1.3981034 6.9328027 0.043544509
-0.53225875 2.9704945 -0.85072684
-1.3897631 6.8948536 0.17931467
-0.69506937 3.7150435 -1.016173
-1.3845891 6.8713946 0.31524068
-0.72963476 3.8732064 -0.99132812
-1.3791471 6.8467064 0.45156389
-0.79561639 4.2143507 -1.0014397
-0.85811079 4.5038762 -0.98538268
-0.85640895 4.496057 -0.90051091
-0.85929525 4.5094895 -0.81953359
-0.85841757 4.5054855 -0.73674011
-0.22783105 1.5843728 -0.52208591
-0.8575446 4.5015054 -0.65465248
-0.23243026 1.6056814 -0.51893044
-0.86005837 4.5132117 -0.57395792
-0.24280047 1.6537163 -0.52746165
-0.85795498 4.5035295 -0.49225399
-0.24014811 1.6414447 -0.50666642
-0.85797769 4.5036974 -0.41165444
-0.43888515 2.5618382 -0.87818646
-0.94452828 4.9047122 -0.33746064
-0.45439669 2.6337066 -0.86638236
-0.99947011 5.1593084 -0.245856
-0.47589734 2.7333143 -0.86181998
-1.4027566 7.0277028 -0.093114451
-0.49912179 2.8409097 -0.85534203
-1.3913864 6.9751363 0.045662433
-0.52772832 2.9734366 -0.85131156
-1.3827333 6.9351544 0.18220678
-0.68612999 3.7071304 -1.0134805
-1.3788865 6.917438 0.31960756
-0.71904641 3.8596396 -0.98737824
-1.3722498 6.8867955 0.45621791
-0.78915143 4.2296886 -1.0045801
-0.84876728 4.5098848 -0.98618972
-0.84506041 4.4924517 -0.89943886
-0.84832793 4.5077982 -0.81891119
-0.84623677 4.4979601 -0.73541331
-0.22640513 1.5846782 -0.52208602
-0.8466261 4.4997792 -0.65421426
-0.23355357 1.6182764 -0.52513337
-0.84994739 4.515378 -0.57395864
-0.23928156 1.6451981 -0.52324176
-0.84705663 4.5017819 -0.49200147
-0.24084374 1.6525395 -0.5114764
-0.84834057 4.5078068 -0.41173545
-0.4344984 2.5627789 -0.8781867
-0.93080401 4.8953824 -0.33726043
-0.45174256 2.6438255 -0.86996007
-0.98667336 5.1579599 -0.24588265
-0.47492585 2.7527881 -0.86853909
-1.392774 7.0666451 -0.092047378
-0.49509805 2.8475978 -0.85722625
-1.3836561 7.0237718 0.048101112
-0.52332175 2.9802501 -0.85306203
-1.3763777 6.9895434 0.18616824
-0.56610054 3.1813161 -0.86260819
-1.3696867 6.9580793 0.32338059
-0.68095112 3.721133 -0.95082414
-1.3660374 6.940908 0.46259055
-0.78460032 4.2545547 -1.0099611
-0.83818918 4.5101175 -0.98578513
-0.83535564 4.4965119 -0.89979517
-0.83737808 4.506074 -0.81828725
-0.83573556 4.4981523 -0.73514652
-0.22316132 1.5763085 -0.51744819
-0.83572513 4.4980187 -0.65377414
-0.23386545 1.6273735 -0.52956378
-0.83696872 4.5038652 -0.57274699
-0.23321252 1.6242418 -0.51311421
-0.83617634 4.5 -0.49174699
-0.23846631 1.6492958 -0.50987303
-0.83745605 4.5060205 -0.41157371
-0.43124801 2.5691383 -0.880463
-0.93027496 4.9486322 -0.33812988
-0.44788122 2.6484592 -0.8713901
-0.9751243 5.1624436 -0.24586827
-0.46958929 2.7519898 -0.86786664
-1.3842146 7.1134033 -0.090739466
-0.48947969 2.846844 -0.85659778
-1.3744217 7.0665469 0.050224937
-0.51848567 2.9851828 -0.85422802
-1.3660296 7.0263777 0.18876135
-0.54763329 3.1241913 -0.84590375
-1.3610775 7.0026112 0.32755455
-0.56616455 3.2125452 -0.81794238
-1.3566673 6.9814339 0.46725023
-0.77202243 4.2412467 -1.0063702
-0.82801187 4.5122347 -0.98578191
-0.82443833 4.4947639 -0.89907694
-0.82684392 4.506247 -0.81797254
-0.82563972 4.5002542 -0.73514342
-0.22390881 1.5870121 -0.523013
-0.8252424 4.4981689 -0.65355146
-0.23267317 1.6294525 -0.53044951
-0.82728881 4.5079145 -0.57291675
-0.23313615 1.6316659 -0.51648951
-0.82329333 4.4884095 -0.4908576
-0.23685032 1.6496322 -0.50987232
-0.82739633 4.5081153 -0.41157049
-0.42646506 2.5682442 -0.87970269
-0.92134464 4.9627481 -0.33832723
-0.44248405 2.6457665 -0.86995792
-0.96274614 5.1629767 -0.24587743
-0.46578375 2.7585542 -0.86988068
-1.3757937 7.1621194 -0.089368753
-0.48386881 2.8460724 -0.855968
-1.3657521 7.1132302 0.052564356
-0.51323611 2.9882288 -0.85480964
-1.3570881 7.071012 0.19196753
-0.54002905 3.1179056 -0.84374642
-1.3497986 7.03545 0.33053997
-0.558294 3.2062645 -0.81596446
-1.3482732 7.0277834 0.47264883
-0.76568735 4.2524948 -1.0086085
-0.2145483 1.5476556 -0.55657816
-0.81667995 4.5025625 -0.9833585
-0.21279092 1.53898 -0.53689599
-0.81315571 4.4850273 -0.896927
-0.81671798 4.5022755 -0.81703365
-0.81514293 4.4943132 -0.73407674
-0.22087656 1.5785899 -0.5183748
-0.81476009 4.4922032 -0.65266931
-0.23165354 1.6314926 -0.53133488
-0.81798422 4.5077906 -0.5727396
-0.23284048 1.6372797 -0.5190208
-0.81564653 4.4960923 -0.49123302
-0.23286474 1.6373565 -0.5042603
-0.81612009 4.4981885 -0.41108465
-0.42036253 2.558162 -0.87514722
-0.91967469 5.0059605 -0.3390255
-0.43839544 2.6466062 -0.86995602
-0.95098114 5.1592665 -0.245911
-0.45989677 2.7520707 -0.86719096
-1.3680153 7.2045321 -0.088173904
-0.48115373 2.8563211 -0.85910547
-1.3589151 7.1594877 0.05490588
-0.50710958 2.9836285 -0.85305727
-1.3515668 7.1230388 0.19578566
-0.53970838 3.1435311 -0.85074866
-1.3451681 7.0912538 0.33591133
-0.55197567 3.2036047 -0.81497359
-1.340486 7.0678811 0.4773142
-0.75248277 4.2412443 -1.0054618
-0.80533135 4.5048571 -0.98335087
-0.80149657 4.4853768 -0.89656174
-0.80462843 4.5006876 -0.81640291
-0.80426216 4.4985356 -0.73433447
-0.21756545 1.5702205 -0.51373613
-0.80351353 4.4944763 -0.65266156
-0.22849549 1.624814 -0.52778924
-0.80513644 4.5022554 -0.57204008
-0.23142804 1.6394148 -0.51986361
-0.80363619 4.4944468 -0.4909721
-0.23109941 1.6377134 -0.50425911
-0.80294037 4.4906573 -0.4106757
-0.41619897 2.5627792 -0.87666166
-0.91307908 5.0399356 -0.33955228
-0.43504634 2.6568105 -0.8735292
-0.93328691 5.1403985 -0.24604416
-0.45695445 2.7661176 -0.87189019
-1.3577279 7.2575994 -0.086676076
-0.47565305 2.8593705 -0.85972965
-1.3484056 7.2105126 0.057465933
-0.5019424 2.9905276 -0.85480309
-1.3392334 7.1641884 0.1986952
-0.53402007 3.1505756 -0.85236049
-1.3353015 7.1440063 0.34089133
-0.54458123 3.2031219 -0.81447494
-1.3303105 7.1185393 0.48321116
-0.74608982 4.2524533 -1.0076971
-0.78421944 4.4451418 -0.97044206
-0.79259491 4.4871483 -0.89655399
-0.79531717 4.5005269 -0.81608379
-0.79304743 4.4886394 -0.73273361
-0.2194307 1.5861096 -0.52208245
-0.79347187 4.4903936 -0.65199542
-0.22643679 1.6215672 -0.526016
-0.79508483 4.4981618 -0.57151365
-0.22827195 1.6307995 -0.51564252
-0.79322881 4.4883785 -0.49045795
-0.2289954 1.6343958 -0.50265455
-0.79371637 4.4904561 -0.41058773
-0.4144749 2.5744426 -0.88121176
-0.43056652 2.6557984 -0.87281036
-0.92433059 5.1503382 -0.24598315
-0.45036238 2.7559059 -0.86785519
-1.3498551 7.3019719 -0.08541546
-0.4721106 2.8658845 -0.86160922
-1.3410593 7.2567759 0.059813932
-0.495473 2.9840126 -0.85246515
-1.3335669 7.2181807 0.20267192
-0.52936083 3.1554313 -0.85343313
-1.3273748 7.1861668 0.3448787
-0.53754294 3.1966195 -0.81249404
-1.3212986 7.1547384 0.48739234
-0.7400192 4.271522 -1.0117236
-0.78358281 4.4951744 -0.98051
-0.20987876 1.5447693 -0.54003906
-0.78062528 4.4794712 -0.89475524
-0.78331512 4.4928145 -0.81451559
-0.78260285 4.4886689 -0.7324574
-0.21799977 1.5863903 -0.52208102
-0.78227657 4.4865136 -0.65132654
-0.22558321 1.6253891 -0.52778637
-0.78463954 4.4981809 -0.57133019
-0.22705527 1.6328857 -0.51648486
-0.78282654 4.4883847 -0.49032077
-0.22533017 1.6239114 -0.49784318
-0.78370374 4.4924202 -0.41057718
-0.4096981 2.5734944 -0.8804481
-0.90188098 5.0992217 -0.34046826
-0.42625892 2.6585457 -0.87352097
-0.91583294 5.1703491 -0.24585401
-0.44396669 2.7494822 -0.86516249
-1.3411248 7.3546152 -0.083911933
-0.46646485 2.8650568 -0.86097574
-1.3328632 7.3113003 0.062591732
-0.49130043 2.9926288 -0.85479271
-1.3235922 7.262814 0.20589204
-0.5239557 3.1604164 -0.85450435
-1.317886 7.2326465 0.3492685
-0.53202808 3.2016511 -0.81347537
-1.312288 7.2030306 0.49304992
-0.72926921 4.2636709 -1.0094701
-0.7740472 4.4970164 -0.98049831
-0.77040786 4.4774365 -0.89402843
-0.20818466 1.5425062 -0.52484131
-0.77381468 4.4946504 -0.81450379
-0.77238226 4.4866052 -0.73191464
-0.21698464 1.5883911 -0.5230068
-0.77169985 4.4824824 -0.65065658
-0.22277999 1.6186259 -0.52424026
-0.77441615 4.4960961 -0.57097256
-0.22694042 1.6402948 -0.51985884
-0.77264297 4.4862862 -0.49005589
-0.22663413 1.6385889 -0.50425434
-0.77239311 4.4844298 -0.41016436
-0.40588433 2.5761154 -0.88120186
-0.90018451 5.1504664 -0.34129107
-0.42186165 2.6593955 -0.87351537
-0.90378845 5.1686001 -0.24586585
-0.44144061 2.761481 -0.86918795
-1.332432 7.4031248 -0.082524627
-0.46220753 2.8697474 -0.86222541
-1.3254386 7.3656216 0.065372005
-0.48633438 2.9955373 -0.85536933
-1.3166898 7.3189864 0.21002899
-0.51743865 3.157752 -0.85341954
-1.3099486 7.2828245 0.35405797
-0.52539837 3.1989839 -0.81248033
-1.3066803 7.2647614 0.50042593
-0.7181803 4.2598271 -1.0081104
-0.76258844 4.4952068 -0.97967672
-0.20819588 1.5502932 -0.54318202
-0.75866038 4.4736605 -0.89294052
-0.76202399 4.49086 -0.81355417
-0.76136237 4.4866824 -0.7316339
-0.21317428 1.5764894 -0.51651227
-0.7603398 4.4805956 -0.65020251
-0.22380868 1.6330311 -0.53132665
-0.76302725 4.4942045 -0.5706116
-0.22559026 1.6423972 -0.52070022
-0.76092964 4.482419 -0.48966095
-0.22563417 1.6425092 -0.5058552
-0.76180983 4.4864407 -0.41014913
-0.40153575 2.5788255 -0.88195395
-0.89456218 5.1902108 -0.34190863
-0.41725695 2.6621716 -0.87422359
-0.89998204 5.2181821 -0.24553648
-0.43756309 2.7698889 -0.87186766
-1.3223878 7.4579425 -0.080952577
-0.45695099 2.8726792 -0.86284518
-1.314423 7.4144735 0.067840643
-0.48174787 3.0041988 -0.85769427
-1.3069465 7.3736167 0.21402033
-0.51164162 3.1627753 -0.85448778
-1.2995908 7.3334122 0.35885394
-0.51697719 3.1907206 -0.8100009
-1.2945462 7.3054581 0.50511146
-0.71127319 4.2690516 -1.0098908
-0.75293541 4.4930263 -0.97885597
-0.7497921 4.4753199 -0.89292645
-0.75168234 4.4847546 -0.81229401
-0.75103968 4.4805474 -0.73055756
-0.21354845 1.585433 -0.52114761
-0.75004172 4.4744315 -0.64931047
-0.21948768 1.6174226 -0.52334964
-0.75306642 4.4899874 -0.57007873
-0.22385113 1.640878 -0.51985407
-0.75101078 4.4781828 -0.48926702
-0.22256009 1.633764 -0.50184476
-0.75225651 4.4841628 -0.40997452
-0.39829427 2.5831978 -0.88346529
-0.89267528 5.2393909 -0.34269416
-0.41448525 2.6702909 -0.87707841
-0.8976754 5.2654109 -0.24522071
-0.43040666 2.7558968 -0.86648595
-1.3153491 7.5121374 -0.079381518
-0.45192546 2.8716884 -0.8622098
-1.3064198 7.4627028 0.070308194
-0.47707361 3.00702 -0.85826945
-1.2994274 7.4237123 0.21770564
-0.50795984 3.1732616 -0.85717297
-1.2932751 7.3892593 0.364245
-0.51288754 3.1993735 -0.81196773
-1.287578 7.3572445 0.5112673
-0.70334351 4.2824035 -1.0125635
-0.74081051 4.4872923 -0.97722411
-0.20348883 1.5390422 -0.5358361
-0.73843795 4.4734092 -0.89219189
-0.20828244 1.5653257 -0.53795171
-0.74031132 4.482832 -0.81165195
-0.20533229 1.5489209 -0.51467037
-0.74040633 4.4825063 -0.73053849
-0.21013668 1.5752506 -0.51558018
-0.73908693 4.4744282 -0.64907205
-0.22043672 1.6318328 -0.53043532
-0.74171954 4.4880252 -0.56971383
-0.22378479 1.6501088 -0.52407038
-0.74007356 4.4781671 -0.48912135
-0.22220959 1.6412811 -0.50504827
-0.74095684 4.4821787 -0.40979505
-0.39291981 2.5804243 -0.88193929
-0.88189125 5.2535768 -0.34287143
-0.40883243 2.6675334 -0.87563884
-0.88682956 5.2796102 -0.24511939
-0.42717779 2.7679834 -0.87050748
-1.3050299 7.568923 -0.077741571
-0.44767138 2.8801939 -0.8647114
-1.2952008 7.5135064 0.072891206
-0.47137919 3.0100121 -0.85884202
-1.2883487 7.4744201 0.22140026
-0.50105667 3.172575 -0.85662246
-1.2823179 7.4398427 0.36904946
-0.50799179 3.2101276 -0.81442547
-1.2756585 7.401825 0.51645124
-0.69645792 4.2955356 -1.0152364
-0.73026061 4.4832306 -0.97599602
-0.20496196 1.5543513 -0.54527271
-0.72793657 4.4693117 -0.89110053
-0.204261 1.5502596 -0.52886832
-0.73049062 4.4826031 -0.81132174
-0.20470542 1.5525916 -0.51660454
-0.73024899 4.4803166 -0.72998857
-0.20664108 1.5632784 -0.50908554
-0.72931516 4.4741769 -0.64883387
-0.21769994 1.6250405 -0.52688825
-0.73192304 4.4877739 -0.56952226
-0.22257817 1.6521702 -0.5249114
-0.73067015 4.4798708 -0.48910266
-0.22200151 1.6487675 -0.50825167
-0.73049647 4.4779806 -0.40953577
-0.39036742 2.5902889 -0.88572502
-0.87706912 5.2930622 -0.34348354
-0.40440992 2.6683347 -0.8756299
-0.88018602 5.3092685 -0.24491428
-0.42015392 2.7558544 -0.86579525
-1.296629 7.6252975 -0.076101571
-0.4419888 2.8773644 -0.86344552
-1.2873276 7.5717635 0.075898759
-0.46634179 3.0128691 -0.85941446
-1.2795389 7.5266786 0.2252472
-0.49522951 3.17363 -0.85661077
-1.2732621 7.4900217 0.37385342
-1.2667145 7.4518576 0.52237093
-0.6888271 4.3048139 -1.0170108
-0.71871907 4.4733491 -0.97355688
-0.71746397 4.4651809 -0.89000762
-0.71999031 4.4784532 -0.81036723
-0.2031506 1.551091 -0.51563346
-0.71907645 4.4722404 -0.72864068
-0.206586 1.570488 -0.51279235
-0.71989614 4.4758568 -0.64881337
-0.21717447 1.6305978 -0.52954304
-0.72144043 4.4835715 -0.56898332
-0.22073303 1.6506574 -0.52406418
-0.7198742 4.4736848 -0.48857611
-0.21921368 1.6418192 -0.50504196
-0.7211082 4.4796538 -0.40951544
-0.38583818 2.5892169 -0.88495708
-0.87377334 5.3423991 -0.34426025
-0.40127948 2.6764808 -0.87848163
-0.87582099 5.3527064 -0.24461572
-0.41907832 2.7770944 -0.87317502
-1.286881 7.6757693 -0.07463605
-0.43764222 2.8819954 -0.86469042
-1.277054 7.6182265 0.078273214
-0.46095976 3.0138283 -0.85940289
-1.2707971 7.580904 0.22925048
-0.4880634 3.1670816 -0.85444319
-1.264979 7.5460773 0.37925735
-0.50185716 3.244704 -0.82279718
-1.2595803 7.5136127 0.52976561
-0.68068159 4.3181124 -1.0196775
-0.69737178 4.4134464 -0.96063316
-0.20112409 1.5481114 -0.54107141
-0.70718265 4.4689798 -0.89033997
-0.70766181 4.4705844 -0.8087852
-0.70846856 4.4740977 -0.72861588
-0.20572306 1.5742366 -0.51464379
-0.70691693 4.4640017 -0.6472528
-0.21277785 1.614985 -0.52156484
-0.70776558 4.467761 -0.56740284
-0.21963102 1.6545317 -0.52574778
-0.70862657 4.4716015 -0.48829812
-0.21908399 1.6511436 -0.50904572
-0.71053964 4.4815049 -0.40949047
-0.38142073 2.5918691 -0.88570476
-0.86632305 5.3782172 -0.34479675
-0.39500448 2.6699958 -0.87560868
-0.86938608 5.3944421 -0.24432388
-0.41343862 2.77617 -0.87249053
-1.0461177 6.4109101 -0.11286784
-0.4323189 2.884856 -0.86530519
-1.2659634 7.6749125 0.081187829
-0.4552266 3.0167749 -0.85997188
-1.2588181 7.6315913 0.23295803
-0.48185289 3.170125 -0.8549664
-1.2521026 7.5907612 0.38347855
-0.50432742 3.2993629 -0.8366102
-1.2468184 7.5581656 0.53496206
-0.67498529 4.3428268 -1.0250337
-0.6973334 4.4730859 -0.97269988
-0.19980231 1.5483389 -0.5410682
-0.69648647 4.4668264 -0.88959932
-0.69862914 4.4781518 -0.80969346
-0.69711673 4.4680052 -0.72752869
-0.20491965 1.577971 -0.51649499
-0.69693959 4.4657192 -0.64722741
-0.21215883 1.6205497 -0.52421904
-0.69779187 4.4694762 -0.56737745
-0.21769422 1.6530252 -0.52489996
-0.69798571 4.4693823 -0.48801968
-0.21807475 1.6550355 -0.51064467
-0.69854003 4.4714031 -0.40898415
-0.37663519 2.5908151 -0.88493443
-0.8553738 5.3902454 -0.34493142
-0.39123476 2.6763296 -0.87774253
-0.86311471 5.4340787 -0.2440438
-0.40810397 2.775176 -0.87180614
-1.028456 6.4017782 -0.11318462
-0.42634341 2.882031 -0.86403573
-1.2563528 7.7353339 0.084316738
-0.44885641 3.0139887 -0.85879076
-1.2483463 7.6860023 0.23697266
-0.47534713 3.1692901 -0.85441184
-1.2417642 7.6450429 0.38869488
-0.5023073 3.3272414 -0.84350753
-1.236919 7.6142497 0.54163206
-0.6690082 4.3596516 -1.0285977
-0.6861921 4.4610615 -0.96985435
-0.68731183 4.466383 -0.88921762
-0.68911046 4.4757543 -0.80904663
-0.19924852 1.5517631 -0.51562345
-0.68796265 4.4675426 -0.72723889
-0.20309788 1.5746846 -0.51463687
-0.68780351 4.4652486 -0.64698398
-0.21080601 1.6207786 -0.52421534
-0.68997514 4.476862 -0.56787169
-0.21774535 1.6622117 -0.52911508
-0.68985432 4.4748058 -0.48824862
-0.2157308 1.649857 -0.50823605
-0.68876457 4.4669771 -0.40871978
-0.37238434 2.5896573 -0.88416481
-0.84816951 5.4158015 -0.34530133
-0.38706568 2.6770351 -0.8777312
-0.85846251 5.4754333 -0.24375193
-0.40522715 2.7852156 -0.87515283
-1.0146756 6.40411 -0.11314699
-0.42320177 2.8921916 -0.86716199
-1.2483826 7.7933993 0.087337524
-0.44632825 3.0299382 -0.8634429
-1.2418411 7.7518229 0.24190016
-0.47116283 3.1778107 -0.85655189
-1.2330642 7.6969724 0.39371076
-0.49772039 3.335881 -0.84546709
-1.2276475 7.6621189 0.54731941
-0.65869552 4.3613653 -1.0285674
-0.67684036 4.470561 -0.97143519
-0.67700976 4.4700894 -0.88954413
-0.67783612 4.4736233 -0.80839288
-0.19784223 1.5519967 -0.51561952
-0.67769128 4.4712591 -0.72747362
-0.20304519 1.5836751 -0.51926947
-0.67658925 4.4630818 -0.64651453
-0.20716138 1.6086605 -0.51800847
-0.68003052 4.4825544 -0.5681864
-0.21599002 1.662503 -0.52911007
-0.67831433 4.4706535 -0.48783839
-0.21431357 1.6519499 -0.50903273
-0.67855996 4.4706979 -0.40876922
-0.36854592 2.5959227 -0.88642728
-0.84441715 5.4772391 -0.34626251
-0.38175842 2.676024 -0.87700117
-0.84902573 5.5033588 -0.24354224
-0.39927444 2.7823863 -0.87379372
-0.99747926 6.4029145 -0.11321776
-0.41721642 2.8912609 -0.86651766
-1.2375823 7.857955 0.090691268
-0.43929103 3.02529 -0.86167538
-1.2285956 7.800519 0.24546927
-0.464279 3.1770027 -0.85599411
-1.2235694 7.7671432 0.40052956
-0.49096751 3.3389685 -0.84594035
-1.2172987 7.7262173 0.5549823
-0.63769358 4.2857981 -1.0106063
-0.66422546 4.448801 -0.96657157
-0.66721147 4.4657068 -0.88844442
-0.6677227 4.4672675 -0.8071202
-0.19694662 1.5539165 -0.51658416
-0.66601217 4.4550886 -0.72505772
-0.20178951 1.5838802 -0.51926553
-0.66620368 4.4547048 -0.64539087
-0.20669214 1.6141872 -0.52066231
-0.66992015 4.4761295 -0.56746793
-0.21366523 1.657371 -0.52657402
-0.6685639 4.4661775 -0.48743182
-0.21288115 1.6521838 -0.50902832
-0.66818231 4.4622688 -0.4083415
-0.36399889 2.5929153 -0.88489747
-0.83748817 5.5067387 -0.3466939
-0.37699777 2.6730163 -0.87555778
-0.39423087 2.779392 -0.8724364
-0.98177773 6.3933234 -0.11353204
-0.4124876 2.8920329 -0.866503
-1.2273794 7.9061642 0.09318912
-0.4351247 3.031785 -0.8634094
-1.2214326 7.8663464 0.25040531
-0.45880529 3.1778965 -0.85597718
-1.2149094 7.8229995 0.40595078
-0.48599666 3.34567 -0.84740353
-1.2087525 7.7819118 0.56165826
-0.64096022 4.3681831 -1.029406
-0.65515292 4.4562082 -0.96774793
-0.65626234 4.4614854 -0.88733923
-0.65647089 4.4610682 -0.80584216
-0.19534078 1.5524013 -0.51561141
-0.65697777 4.4625607 -0.72582114
-0.19981582 1.5806074 -0.51740623
-0.65563208 4.4523749 -0.64491963
-0.20490001 1.612659 -0.51977158
-0.65711325 4.4600205 -0.56588066
-0.21174072 1.6558433 -0.52572489
-0.65704584 4.4579172 -0.48676702
-0.21068726 1.6488237 -0.50741994
-0.65794098 4.4618864 -0.40822893
-0.36038312 2.5991178 -0.88715923
-0.82667398 5.5226502 -0.34688449
-0.37431785 2.686686 -0.88054907
-0.83305943 5.5606403 -0.24311025
-0.38949502 2.7820592 -0.8730917
-0.96492898 6.387929 -0.11371905
-0.40771765 2.8966446 -0.86774123
-1.2167553 7.9685483 0.096442536
-0.42875308 3.0289316 -0.86222398
-1.2093786 7.9187722 0.25428504
-0.45259869 3.1788917 -0.85595691
-1.2033132 7.8772645 0.41118494
-0.47989994 3.3505735 -0.84836912
-1.1969771 7.8340588 0.56785512
-0.62167472 4.3120241 -1.0159202
-0.64425009 4.4559402 -0.96730816
-0.64595997 4.4650974 -0.88766003
-0.19614956 1.5673769 -0.53791857
-0.64618695 4.4646854 -0.8061167
-0.19552733 1.5630014 -0.52141571
-0.64518607 4.4563894 -0.7247231
-0.19993478 1.5913513 -0.52296484
-0.64510405 4.454031 -0.64488316
-0.20357475 1.6146827 -0.52065194
-0.64749414 4.4675846 -0.56636214
-0.21055812 1.6597002 -0.52740645
-0.64714426 4.4635158 -0.48698339
-0.2098154 1.6545258 -0.50981832
-0.646815 4.4595909 -0.4080323
-0.35477406 2.5943797 -0.88486636
-0.81868923 5.5623655 -0.34746909
-0.36899674 2.6856329 -0.87981641
-0.82251817 5.5845671 -0.24291752
-0.38444829 2.7847593 -0.87374496
-0.94843459 6.390523 -0.11366181
-0.40289485 2.9031696 -0.86960459
-1.2030331 8.0212498 0.09917368
-0.42527679 3.0469079 -0.86745167
-1.1964505 7.9753113 0.258479
-0.44484591 3.1723115 -0.85377944
-1.1902262 7.9317012 0.41642818
-0.47426954 3.3612688 -0.85081339
-1.1852642 7.8961787 0.57528782
-0.61498517 4.3288326 -1.0194734
-0.63099802 4.4322162 -0.9620353
-0.63356423 4.4470978 -0.88405156
-0.19485217 1.5675774 -0.53791368
-0.63617146 4.4622326 -0.80545974
-0.63580233 4.4578371 -0.72468877
-0.19830886 1.5898089 -0.52203274
-0.63544089 4.4535089 -0.6446296
-0.20295127 1.6202216 -0.52330446
-0.63630462 4.4572144 -0.56529176
-0.20873432 1.6581466 -0.52655697
-0.63748068 4.4629865 -0.48682269
-0.20855378 1.6565747 -0.5106144
-0.6374771 4.461031 -0.40799814
-0.35110703 2.59869 -0.88636839
-0.81202424 5.6018395 -0.34805593
-0.36396357 2.6826296 -0.87836957
-0.81671959 5.6299806 -0.24258274
-0.3808274 2.7929425 -0.87641418
-0.93285763 6.3868566 -0.11378685
-0.39724705 2.9001977 -0.8683306
-1.1929154 8.0834332 0.1024328
-0.41979784 3.0477529 -0.86743164
-1.186782 8.0393524 0.26328
-0.44017553 3.1808279 -0.85591245
-1.1800903 7.9916592 0.42226446
-0.46849898 3.36608 -0.85177767
-1.1746351 7.9520445 0.58198082
-0.58895534 4.2164655 -0.99298966
-0.62424296 4.4510694 -0.96562588
-0.62534231 4.4563031 -0.885445
-0.19481558 1.5763156 -0.54295313
-0.62909341 4.4792895 -0.80791354
-0.62934583 4.4788623 -0.72730565
-0.19721115 1.5917673 -0.52295482
-0.62461102 4.445097 -0.64349771
-0.20124683 1.6186657 -0.52241302
-0.62694776 4.4586306 -0.56525576
-0.20479514 1.6422377 -0.51895738
-0.62959874 4.4742742 -0.48741865
-0.20566937 1.6477444 -0.50660133
-0.6278407 4.4604688 -0.40788236
-0.34660348 2.5975001 -0.88559341
-0.80485022 5.639329 -0.34860659
-0.36059591 2.6906955 -0.88121319
-0.8097862 5.6694622 -0.24228428
-0.37633237 2.7955284 -0.87706745
-0.91820019 6.3890753 -0.11373061
-0.39273611 2.9047225 -0.86956656
-1.1836505 8.1535139 0.10612208
-0.41347289 3.042906 -0.86566114
-1.1755842 8.0955029 0.26747495
-0.43319193 3.1740928 -0.85373545
-1.1702248 8.0555468 0.4285031
-0.46127716 3.3612931 -0.85027218
-1.1651846 8.0177126 0.58990538
-0.58696711 4.267993 -1.0046071
-0.61707664 4.4719386 -0.96961486
-0.61591285 4.4616823 -0.88611948
-0.61961275 4.4846911 -0.80849552
-0.61873502 4.4764314 -0.72673476
-0.19601718 1.5937362 -0.52387631
-0.61814719 4.4701724 -0.64608812
-0.20074779 1.6259913 -0.52595043
-0.61989039 4.4798226 -0.56694221
-0.20241788 1.6370907 -0.51641989
-0.61990964 4.4777303 -0.4875049
-0.20511134 1.6552374 -0.50980031
-0.62052912 4.4797373 -0.40856233
-0.34237626 2.5999982 -0.88633418
-0.79464233 5.6630821 -0.34891826
-0.35663331 2.6969485 -0.88333952
-0.80125564 5.7051015 -0.24200591
-0.37152535 2.7981458 -0.87771881
-0.90145564 6.3834753 -0.11390644
-0.38651535 2.8998864 -0.86766183
-1.1713154 8.2138977 0.10928935
-0.4095943 3.0570199 -0.86971974
-1.1643151 8.1616879 0.27244323
-0.42755234 3.1788247 -0.85478795
-1.1593806 8.1235495 0.4351494
-0.45508784 3.3661304 -0.85123253
-1.1535943 8.0796328 0.59734893
-0.56784654 4.1978979 -0.98798478
-0.60788643 4.475255 -0.96997786
-0.60648829 4.4630542 -0.88607979
-0.18772951 1.5459387 -0.52478373
-0.613783 4.5114932 -0.81250119
-0.61689961 4.5307837 -0.73385704
-0.19390252 1.5886714 -0.52108872
-0.61693519 4.5286064 -0.65240431
-0.19777739 1.615551 -0.52062929
-0.61783952 4.5324717 -0.57139075
-0.20093012 1.6373074 -0.51641357
-0.61391866 4.5028062 -0.48898128
-0.20125255 1.6391332 -0.50258148
-0.61626041 4.5167084 -0.40996221
-0.33892277 2.6061108 -0.88859236
-0.80162966 5.8015003 -0.35115632
-0.35186452 2.6957552 -0.88260543
-0.80816025 5.8435469 -0.2410403
-0.36753643 2.8044374 -0.87971342
-0.88623697 6.3816514 -0.1139642
-0.38278785 2.9100239 -0.87077904
-1.1607325 8.2800179 0.11277581
-0.40625075 3.0729723 -0.87436163
-1.1544685 8.2316351 0.27771661
-0.42170879 3.1796751 -0.85476327
-1.1485168 8.185462 0.44119895
-0.44927141 3.3708942 -0.85219312
-1.1422971 8.1374397 0.60430157
-0.53886372 4.0583062 -0.95522428
-0.5953694 4.4592304 -0.966308
-0.60849464 4.5502262 -0.90175653
-0.61159748 4.5696774 -0.82148051
-0.19015141 1.5726447 -0.52622998
-0.61194712 4.5695348 -0.73885167
-0.19149037 1.5818563 -0.51737368
-0.61146933 4.5635219 -0.65608537
-0.19921841 1.6370811 -0.53125262
-0.61294675 4.5714102 -0.57462561
-0.19959822 1.639329 -0.5172503
-0.61025482 4.5497003 -0.49184215
-0.19891088 1.6339145 -0.50017059
-0.61174595 4.5577235 -0.4115167
-0.33516887 2.6122539 -0.89084816
-0.8014245 5.900507 -0.35272142
-0.34785411 2.701987 -0.88472986
-0.80395055 5.9148531 -0.24051555
-0.3611303 2.7958362 -0.87633312
-0.86900055 6.3719926 -0.11425397
-0.37789664 2.9145575 -0.87201059
-1.1479752 8.3423595 0.11606026
-0.40061581 3.0757079 -0.87491882
-1.1427158 8.2997837 0.28284842
-0.41496357 3.1767447 -0.85365915
-1.1358032 8.2455692 0.4470599
-0.44249362 3.3718593 -0.85216331
-1.1289053 8.1914768 0.61077332
-0.46602488 3.5922103 -0.84672141
-0.5888052 4.4858603 -0.97149909
-0.59634179 4.5380144 -0.89920855
-0.19031093 1.5838094 -0.51829422
-0.6025489 4.5748024 -0.65713394
-0.19859934 1.6444089 -0.53478861
-0.19849864 1.6431441 -0.51893032
-0.60168535 4.5629892 -0.49255311
-0.19734226 1.6341336 -0.50016332
-0.60426253 4.5789442 -0.41226915
-0.32913312 2.6018853 -0.88627601
-0.79489803 5.957953 -0.35358495
-0.34254697 2.6989558 -0.88327765
-0.79522038 5.9564581 -0.24018528
-0.35706922 2.8040118 -0.87899613
-0.85346878 6.3741598 -0.11418301
-0.37298018 2.9190781 -0.87324095
-1.136225 8.4145765 0.11988229
-0.39574361 3.0841143 -0.87722409
-1.1289282 8.3560724 0.28706914
-0.40902114 3.1795197 -0.85416925
-1.1241086 8.3155212 0.45392168
-0.43676361 3.3804877 -0.85410702
-1.1184742 8.2690887 0.62019634
-0.45789772 3.5913529 -0.84623575
-0.57784981 4.4853778 -0.97104537
-0.58654207 4.547297 -0.90058589
-0.59506619 4.6078553 -0.82698131
-0.59652269 4.6156874 -0.74458623
-0.18787432 1.576988 -0.51457834
-0.59692836 4.6156988 -0.66146374
-0.19242637 1.6108661 -0.51795053
-0.59708178 4.6138277 -0.57797742
-0.19728206 1.6469705 -0.5206095
-0.59323663 4.5822721 -0.49363765
-0.1968863 1.6434424 -0.50416195
-0.59871763 4.6200409 -0.41381499
-0.32582423 2.6135435 -0.89080465
-0.78344572 5.9877687 -0.35397634
-0.33845687 2.7070537 -0.88611376
-0.77738255 5.9387074 -0.24024606
-0.35166568 2.804749 -0.8789705
-0.83541423 6.3645186 -0.11446295
-0.36696613 2.9179819 -0.87258589
-1.1217121 8.4790468 0.12329067
-0.38845062 3.0773864 -0.87486184
-1.1151601 8.4243689 0.29221824
-0.40193525 3.1765988 -0.85306108
-1.1088879 8.3718281 0.45940188
-0.43032727 3.3872342 -0.85555375
-1.103685 8.327198 0.62717652
-0.45007688 3.5825639 -0.84396267
-0.56409866 4.4496622 -0.96334839
-0.5838837 4.5972843 -0.90947104
-0.58868968 4.6306324 -0.83035755
-0.18403527 1.5575831 -0.51749814
-0.58937556 4.6326404 -0.74666166
-0.18777521 1.5859406 -0.51920807
-0.58824587 4.6208687 -0.66185641
-0.19409795 1.634161 -0.52945888
-0.58972055 4.628881 -0.57913959
-0.19586086 1.6471601 -0.52060258
-0.58936882 4.6230626 -0.49611703
-0.19524077 1.6418138 -0.50335371
-0.59006792 4.6252284 -0.41392925
-0.32157856 2.6122429 -0.89002609
-0.77201849 5.9993825 -0.35407898
-0.33444762 2.7094731 -0.8868078
-0.75168419 5.8412533 -0.24085
-0.34837899 2.8146908 -0.88230562
-0.80074942 6.207799 -0.1191745
-0.36265814 2.9223895 -0.87381732
-1.1111972 8.5469427 0.12689905
-0.38298643 3.076185 -0.87425327
-0.77903366 6.0349064 0.10742494
-0.39721245 3.1830583 -0.85464919
-1.0994772 8.445363 0.46666056
-0.42455599 3.3899598 -0.85601735
-1.094141 8.3985615 0.63586223
-0.44366297 3.5912654 -0.84571695
-0.5541048 4.4509673 -0.96329737
-0.56420219 4.5264263 -0.89620233
-0.58321452 4.6711979 -0.83652484
-0.586963 4.6969314 -0.75509155
-0.18701208 1.5914013 -0.52198219
-0.58591408 4.6853299 -0.6688118
-0.19162253 1.6272507 -0.52590799
-0.58664382 4.6875606 -0.58408821
-0.19470526 1.650969 -0.52228129
-0.58353841 4.660058 -0.49833503
-0.19318692 1.6383858 -0.50174308
-0.58630085 4.6781206 -0.4159514
-0.31657407 2.609164 -0.88848591
-0.73194414 5.8029475 -0.35069788
-0.32844403 2.70084 -0.88320804
-0.7346257 5.8192797 -0.24093869
-0.34252897 2.8097558 -0.88026488
-0.7626254 6.0313315 -0.12447679
-0.35744452 2.9249854 -0.87441707
-0.37780344 3.0826516 -0.87597203
-0.76325977 6.0269122 0.10673493
-0.38977015 3.1743176 -0.85192549
-1.0863583 8.5133076 0.4733403
-0.41796646 3.3927758 -0.85647607
-1.0799 8.4564734 0.6428473
-0.43691349 3.5940924 -0.84612811
-0.53715056 4.3919106 -0.95076311
-0.57197452 4.666286 -0.92150855
-0.55820876 4.5528965 -0.81749964
-0.58234125 4.741488 -0.76087034
-0.18521632 1.5880582 -0.52012062
-0.58036834 4.7221127 -0.67270064
-0.19148104 1.6381152 -0.53121448
-0.58012599 4.7165136 -0.58644938
-0.19250937 1.6457646 -0.51974261
-0.57936716 4.7068729 -0.50118423
-0.1916981 1.6385763 -0.50173509
-0.58085573 4.7150812 -0.41733494
-0.31390825 2.6225648 -0.89377272
-0.71686977 5.7887454 -0.3503643
-0.32484943 2.7088311 -0.88604414
-0.71927184 5.8030939 -0.24098967
-0.33817494 2.8141103 -0.88158238
-0.7472012 6.0191946 -0.12482297
-0.35277471 2.9294107 -0.8756448
-0.7479642 6.0202923 -0.0090270005
-0.37175092 3.0795667 -0.87477648
-0.74788886 6.0148048 0.10573708
-0.3839398 3.1750629 -0.85189426
-1.0753956 8.5909443 0.4810147
-0.41200691 3.3974447 -0.85742903
-1.0696094 8.5378265 0.65277851
-0.43062356 3.6007717 -0.84743392
-0.53028876 4.4125104 -0.95473957
-0.56221277 4.6694889 -0.92181075
-0.5718683 4.7443199 -0.84761274
-0.5765065 4.7781758 -0.76558542
-0.18386462 1.588227 -0.52011323
-0.57389224 4.7529716 -0.67593002
-0.18934302 1.6329608 -0.52854919
-0.57320583 4.7434835 -0.58863568
-0.19317365 1.6639569 -0.52816939
-0.57396162 4.7457681 -0.5035255
-0.19175054 1.6514969 -0.50733531
-0.57569683 4.7560034 -0.41887525
-0.30849513 2.6139157 -0.88995695
-0.70285916 5.7824354 -0.3501609
-0.3209857 2.7149608 -0.88816416
-0.70548439 5.7987714 -0.24095842
-0.33311623 2.8128433 -0.88088453
-0.73258585 6.0129614 -0.12498763
-0.34762287 2.9300544 -0.87561679
-0.73311985 6.0120826 -0.0094851945
-0.36687481 3.0859601 -0.87649477
-0.73381633 6.0125427 0.1055056
-0.37834057 3.1777041 -0.8524009
-1.0625392 8.6567287 0.48750022
-0.40649328 3.4059467 -0.85936761
-1.0569186 8.6034212 0.66075063
-0.42249647 3.5997989 -0.84694123
-0.51820308 4.4001694 -0.95186162
-0.55537832 4.7079897 -0.92853153
-0.56132233 4.7535677 -0.8487916
-0.56893355 4.8130498 -0.77002513
-0.1823432 1.5884125 -0.52010453
-0.56595927 4.7839808 -0.67914891
-0.18558758 1.6153543 -0.51968336
-0.56390947 4.762682 -0.59012234
-0.18971825 1.6497641 -0.52141166
-0.56586939 4.7749057 -0.50522614
-0.19024757 1.6535258 -0.50812674
-0.56926477 4.7990656 -0.42048475
-0.30390179 2.6163399 -0.89068818
-0.68750083 5.7782645 -0.34997901
-0.31585902 2.7155867 -0.88813508
-0.70395815 5.9097705 -0.24013571
-0.32834777 2.819119 -0.88286793
-0.7163077 6.0068889 -0.12514031
-0.34137744 2.9269893 -0.87432885
-0.71854132 6.019896 -0.0090789003
-0.36238894 3.1019263 -0.88112223
-0.71830201 6.0124249 0.10543925
