# .PCD v0.7 - Point Cloud Data file format
VERSION 0.7
FIELDS x y z
SIZE 4 4 4
TYPE F F F
COUNT 1 1 1
WIDTH 1551
HEIGHT 1
VIEWPOINT 0 0 0 1 0 0 0
POINTS 1551
DATA ascii
0.89406633 2.0721014 -1.0889536
11.237447 10.1318 -1.1625147
0.92812061 2.1022563 -1.0522554
11.362747 10.263447 -0.81630003
1.2513207 2.3435764 -1.1619335
11.404054 10.330295 -0.46287876
1.4173261 2.4716182 -1.1765035
11.429263 10.384883 -0.10643631
1.5207628 2.5545537 -1.1533936
11.449188 10.435844 0.25505069
1.7966505 2.7655611 -1.1958499
11.497063 10.508762 0.61817372
1.9392866 2.8792124 -1.1712768
11.531693 10.571692 0.98475611
2.2161441 3.0936646 -1.1862997
11.56987 10.638124 1.3588552
2.4926519 3.3095005 -1.1844155
11.61822 10.712858 1.7367164
3.4936724 4.0710917 -1.3794861
11.628139 10.757528 2.1136391
4.5628147 4.8898659 -1.5331848
11.6657 10.825023 2.5034907
0.48153937 1.7466307 -1.0684528
5.3258247 5.4548521 -1.546379
0.53064549 1.7857697 -1.0574667
6.2051568 6.1366053 -1.5448368
0.57832325 1.8241067 -1.0433596
9.2777014 8.4862423 -1.8719398
0.62746191 1.8637145 -1.0278378
10.423791 9.3874969 -1.7403156
0.74805939 1.954711 -1.0532169
11.208873 10.019223 -1.5033799
0.86837602 2.0461836 -1.0715019
11.226968 10.067256 -1.1558143
0.9586271 2.1166492 -1.0663041
11.358917 10.20327 -0.81103051
1.2468795 2.3312321 -1.156777
11.392453 10.263775 -0.4583098
1.4207357 2.4641955 -1.175163
11.433597 10.330434 -0.10297027
1.5426253 2.5601406 -1.1602012
11.4489 10.377582 0.25767326
1.741289 2.7131963 -1.1697662
11.492253 10.446608 0.61968923
2.008461 2.9178526 -1.1946886
11.528649 10.510607 0.98545802
2.2940288 3.1376553 -1.2105393
11.562354 10.573188 1.3580724
2.7766285 3.5056679 -1.2725631
11.606307 10.644056 1.7341845
3.4627819 4.0283465 -1.3664235
11.627316 10.697298 2.1118932
4.5953102 4.8895226 -1.536991
11.655879 10.757305 2.4989157
0.47173488 1.7343175 -1.0586311
5.3490801 5.4440536 -1.5468171
0.52927482 1.7790912 -1.0540659
6.1451788 6.0592375 -1.5275464
0.5884459 1.8252835 -1.0478457
9.3764801 8.513937 -1.8821439
0.65511286 1.877088 -1.0432888
10.415968 9.3293781 -1.7323385
0.75142431 1.9503564 -1.0527912
11.199657 9.9562292 -1.4957795
0.86906767 2.0393696 -1.0693439
11.22891 10.012527 -1.1502069
0.94314146 2.0978041 -1.0553311
11.35484 10.143191 -0.80577588
1.2063904 2.2929902 -1.1332943
11.388497 10.20349 -0.45396763
1.4256314 2.45786 -1.1745436
11.429796 10.269933 -0.099538803
1.5919422 2.5855289 -1.179193
11.443636 10.315731 0.26012847
1.8128039 2.7540069 -1.1962914
11.488765 10.385782 0.62128627
1.9962035 2.8962197 -1.1868268
11.525359 10.449617 0.98614514
2.1862364 3.0443268 -1.1693374
11.560841 10.513285 1.3580334
2.772161 3.4861186 -1.267552
11.598786 10.579085 1.7323418
3.5239501 4.0542765 -1.3802315
11.620031 10.632251 2.1090043
4.5776167 4.8516006 -1.5276681
11.651962 10.694622 2.4956355
0.44632518 1.7116239 -1.0372618
5.3462605 5.4154444 -1.5415326
0.53620076 1.77856 -1.0567625
6.1012983 5.9964457 -1.5139127
0.60700488 1.8326526 -1.058183
9.3710842 8.4656725 -1.8747742
0.69570363 1.8997166 -1.0671332
10.376238 9.2506237 -1.7202722
0.81016386 1.9855242 -1.0862111
11.19494 9.9002457 -1.4891201
0.84588957 2.0160651 -1.0536406
11.221085 9.9539261 -1.1441456
0.90796196 2.0655327 -1.0339155
11.358442 10.092584 -0.80126619
1.144392 2.2402546 -1.0991817
11.385851 10.147852 -0.44992939
1.4332498 2.4540644 -1.1754011
11.419357 10.208013 -0.096345752
1.5831598 2.5691707 -1.1724709
11.438066 10.257341 0.26241133
1.8274337 2.7536409 -1.1994013
11.481806 10.325978 0.62256145
1.938682 2.842504 -1.1619409
11.520173 10.39088 0.98660719
2.2141972 3.0521414 -1.1761712
11.554289 10.453183 1.3573884
2.756217 3.4592001 -1.2591096
11.597165 10.522518 1.731454
3.42487 3.9626985 -1.3477092
11.61393 10.571943 2.1064513
4.6078086 4.8508534 -1.5311437
11.644569 10.633004 2.4917979
0.4502151 1.7093298 -1.0379961
5.3812885 5.4149389 -1.5449735
0.53887951 1.7750525 -1.0564204
6.1237202 5.9833508 -1.5136508
0.61557436 1.8329403 -1.061709
9.4703789 8.4956093 -1.8853613
0.70597494 1.9008358 -1.0714035
10.371168 9.1983309 -1.7132012
0.82661617 1.9905216 -1.0938016
11.188415 9.8431568 -1.4822941
0.90694547 2.0524244 -1.0862851
11.224185 9.9038382 -1.1390332
0.91143346 2.0609872 -1.0334723
11.350704 10.033586 -0.79615748
1.1980574 2.2704458 -1.1238531
11.379807 10.089878 -0.44582248
1.4408656 2.4502382 -1.1762565
11.421401 10.155911 -0.093123943
1.6216871 2.5869126 -1.1867319
11.432271 10.199048 0.26468015
1.8328515 2.746547 -1.1987096
11.471446 10.263848 0.62362444
1.9768454 2.8586464 -1.1735783
11.510018 10.328586 0.98662114
2.2188835 3.0428357 -1.1748302
11.54908 10.394406 1.3569194
2.8246017 3.4940732 -1.2776333
11.592196 10.463593 1.7300795
3.2577624 3.8221624 -1.2957129
11.610722 10.514173 2.1044497
4.6254292 4.840682 -1.5313355
11.638491 10.572712 2.4882741
0.4542563 1.706817 -1.0387093
5.4187508 5.4143772 -1.5486611
0.53318417 1.7654531 -1.0499877
6.2598643 6.0521908 -1.5357898
0.62864876 1.8359373 -1.0681231
9.4948235 8.4666853 -1.882702
0.71354628 1.8996377 -1.0737841
10.402437 9.1702862 -1.71091
0.82715666 1.9838884 -1.0915771
11.186415 9.7864923 -1.4756408
0.92543769 2.0580039 -1.0942913
11.223876 9.8481426 -1.1333301
0.96449471 2.090939 -1.0595803
11.344314 9.9726076 -0.79086089
1.1721843 2.2434053 -1.1080492
11.37672 10.031112 -0.44156602
1.4457196 2.4438443 -1.175634
11.416871 10.095724 -0.089738011
1.6330744 2.5843587 -1.1887625
11.429439 10.139956 0.26719275
1.8385848 2.7389946 -1.1979744
11.47038 10.205784 0.62537158
2.0185857 2.8763535 -1.1863277
11.51073 10.271567 0.98769641
2.2254863 3.0341384 -1.1739835
11.546838 10.334803 1.3568358
2.7980752 3.4585621 -1.2656413
11.587049 10.401405 1.7286621
3.4886498 3.9721563 -1.3585488
11.602657 10.449489 2.10151
4.7085185 4.876915 -1.5481842
11.629141 10.506736 2.4839561
0.46673679 1.7100266 -1.045728
5.4308457 5.3950806 -1.5465356
0.55736089 1.7763367 -1.0647935
6.2021575 5.9778671 -1.5192137
0.63310707 1.8329282 -1.0687054
9.4569349 8.3918905 -1.8694718
0.71966672 1.8973992 -1.0752316
10.39367 9.1126156 -1.7029952
0.81294847 1.9670517 -1.0804658
11.180983 9.7275476 -1.468644
0.89046764 2.0261993 -1.0717921
11.215333 9.7865725 -1.1269774
1.0072592 2.1132431 -1.0800251
11.34087 9.9141369 -0.78575253
1.193051 2.2495008 -1.1158878
11.37499 9.9736423 -0.43736401
1.4459811 2.4342062 -1.1728537
11.408896 10.033237 -0.086380869
1.6291147 2.5708623 -1.184031
11.434339 10.086987 0.26995659
1.8504776 2.7358294 -1.1997653
11.470673 10.149015 0.62720454
1.9998227 2.8504524 -1.1761373
11.506451 10.211003 0.98832142
2.0991874 2.9299662 -1.1269574
11.545934 10.276505 1.3569298
2.8279171 3.4640217 -1.2716057
11.581643 10.339333 1.727228
3.2282562 3.764334 -1.2798226
11.602167 10.390976 2.0999725
4.7317009 4.8689404 -1.5494823
11.636682 10.454165 2.4832509
0.45824838 1.6986805 -1.0369608
5.4213891 5.3585129 -1.5392393
0.55608428 1.7694178 -1.0613719
6.0970616 5.8678646 -1.4930736
0.63629246 1.8286793 -1.0682931
9.506403 8.3787594 -1.8707094
0.70114732 1.8778625 -1.0608449
10.402127 9.0648928 -1.6971519
0.77376139 1.932762 -1.0542363
11.181665 9.6701832 -1.4619962
0.9091568 2.0314555 -1.0797683
11.211294 9.7254219 -1.1207044
1.0293633 2.1203656 -1.0891535
11.341966 9.8560448 -0.78062594
1.2142258 2.2551494 -1.1236837
11.369795 9.9105682 -0.43285346
1.4296798 2.4124112 -1.1621332
11.407049 9.972353 -0.082814366
1.6100115 2.5461516 -1.1725112
11.427832 10.022341 0.27248698
1.8394753 2.7157173 -1.1920398
11.46595 10.085383 0.62883186
2.0576401 2.8784766 -1.1946875
11.50034 10.145996 0.9888469
2.1120825 2.9255986 -1.1282707
11.532134 10.20531 1.3554851
2.6693439 3.3333151 -1.2177614
11.585495 10.281231 1.7271802
3.1726918 3.7053237 -1.2600559
11.599916 10.327977 2.0980623
4.7460732 4.8530331 -1.5482348
11.633133 10.389849 2.4801025
0.45756876 1.693903 -1.0345811
5.4500732 5.3562288 -1.5417675
0.55983794 1.7672668 -1.0620803
6.0774407 5.8281021 -1.4851471
0.6271826 1.8175124 -1.0602102
9.5409727 8.3655348 -1.8709993
0.73445928 1.8953427 -1.0800287
10.396622 9.0190697 -1.690946
0.73952281 1.9037902 -1.0316823
11.172743 9.6188202 -1.455808
0.93301618 2.0418656 -1.0912316
11.200822 9.6726818 -1.1152517
1.0114603 2.1015134 -1.077481
11.333361 9.80406 -0.77615631
1.2101473 2.245156 -1.1194199
11.366098 9.86199 -0.42937008
11.398656 9.9200258 -0.080082625
1.635826 2.555603 -1.1814106
11.42115 9.9710855 0.27439448
1.8953346 2.7455354 -1.2122554
11.462619 10.036372 0.63011897
2.0501947 2.862879 -1.1893369
11.486006 10.088462 0.98837996
2.2035623 2.9799836 -1.1574355
11.527532 10.154857 1.3551178
2.7543678 3.3812807 -1.2418321
11.56529 10.218627 1.7236561
3.057776 3.6085343 -1.2242967
11.589399 10.272523 2.0950146
4.7671146 4.8477354 -1.5497969
11.624434 10.335513 2.4764285
0.46440744 1.6932416 -1.0373925
5.4971576 5.3620691 -1.5475851
0.53397715 1.744241 -1.041513
6.4866538 6.0918264 -1.5608021
0.61273932 1.8017848 -1.0481858
9.4927597 8.284153 -1.8562
0.74351919 1.8950052 -1.0833278
10.379148 8.9558659 -1.681957
0.81088006 1.9458579 -1.0720928
11.171437 9.5637026 -1.4493878
0.92318392 2.0277586 -1.0831443
11.206035 9.6220779 -1.1101297
1.019791 2.099494 -1.0793957
11.325998 9.7435169 -0.77092171
1.1184934 2.1732337 -1.0709307
11.357243 9.8000546 -0.42505619
1.455181 2.4125004 -1.1689054
11.397977 9.8638382 -0.07673496
1.6178173 2.5324903 -1.1706178
11.410957 9.907609 0.27663171
1.8995124 2.7367113 -1.210876
11.455829 9.9750862 0.63150907
2.0500107 2.850286 -1.1861979
11.484176 10.030631 0.98925078
2.2791915 3.0201602 -1.1804459
11.524322 10.095665 1.3549739
2.7272058 3.3463674 -1.2299039
11.567063 10.162877 1.7233704
3.0104923 3.5578358 -1.2073942
11.585049 10.211904 2.0928636
4.7823124 4.8338032 -1.5490417
11.615631 10.271206 2.4723752
0.46005189 1.6848178 -1.0317852
5.5114803 5.342618 -1.5457052
0.52250934 1.7307299 -1.0310365
6.6269689 6.1577272 -1.5828747
0.62163651 1.8014915 -1.0516587
9.5356045 8.2660742 -1.8563424
0.72485757 1.8755791 -1.0689538
10.388605 8.9095039 -1.67637
0.83669114 1.9561142 -1.0849358
11.168197 9.5042706 -1.4424275
0.9089905 2.0103786 -1.0725001
11.196424 9.5577173 -1.1035098
1.0419636 2.1064267 -1.0885079
11.323152 9.6833544 -0.7656697
1.0083278 2.0889995 -1.0133406
11.362581 9.7455931 -0.42085993
1.4340638 2.3876805 -1.1560501
11.392175 9.8008871 -0.073229939
1.6232117 2.5251648 -1.1699098
11.413315 9.850462 0.27943993
1.907113 2.7295897 -1.210713
11.453555 9.9141693 0.63329041
1.9999479 2.8022106 -1.164266
11.483678 9.9707584 0.99031365
2.2687678 2.9986084 -1.1735808
11.524039 10.035621 1.3552161
2.7890277 3.3734775 -1.2457414
11.559072 10.096716 1.7216011
11.583615 10.150423 2.0911911
4.772624 4.8007317 -1.5416898
11.614447 10.20962 2.4698408
0.45093834 1.6742339 -1.0230937
5.5057096 5.3138666 -1.5401754
0.56232059 1.7522657 -1.056962
6.5766015 6.0927916 -1.5684435
0.61255527 1.7902241 -1.0435677
9.6035595 8.2738876 -1.8618258
0.71290016 1.8619485 -1.0593058
10.390424 8.8666391 -1.6709038
0.80545461 1.9290377 -1.0641468
11.161798 9.452302 -1.4362568
0.88807654 1.9898821 -1.0585675
11.191702 9.5067272 -1.0982903
1.0195704 2.0843318 -1.0744132
11.318694 9.6319313 -0.76120746
1.1262685 2.1626458 -1.0699081
11.353383 9.6904459 -0.41705915
1.3981322 2.3546228 -1.1368636
11.379862 9.7432127 -0.070362359
1.6385487 2.5265191 -1.1740352
11.401124 9.7926483 0.28128991
1.9168159 2.7259717 -1.2119403
11.441543 9.856184 0.63413584
2.0538507 2.8289077 -1.1817319
11.479862 9.9185648 0.99089277
2.2618423 2.9819984 -1.1684986
11.510821 9.9761686 1.3538522
2.7671556 3.3443258 -1.2359277
11.562009 10.049001 1.721594
3.4885831 3.8612328 -1.3361545
11.577201 10.095515 2.0888796
4.8391099 4.8259287 -1.5545162
11.603532 10.151076 2.4656672
0.49494493 1.6975894 -1.0531521
5.5568895 5.3204231 -1.5465709
0.57967877 1.7577279 -1.0666617
6.6642008 6.1200953 -1.5800622
0.60538375 1.7792821 -1.036384
9.4055681 8.0845299 -1.8219572
0.71617377 1.8574488 -1.0588721
10.375248 8.8030376 -1.6620013
0.83875823 1.9441625 -1.0814122
11.159702 9.3942261 -1.4295021
0.96099639 2.0313008 -1.096935
11.18644 9.4461088 -1.0920943
1.0448076 2.0932088 -1.085122
11.316992 9.5731297 -0.75606763
1.0860615 2.1267619 -1.0473212
11.351802 9.6314344 -0.41273832
1.4816958 2.4015503 -1.1727704
11.383255 9.6875534 -0.066835493
1.6517004 2.524441 -1.1766889
11.404633 9.7368507 0.284127
1.9087378 2.7080426 -1.2054818
11.448444 9.8025541 0.63649893
2.0349798 2.8028486 -1.1715332
11.477289 9.857686 0.99178004
2.260725 2.9671729 -1.1648945
11.511652 9.9175081 1.3542593
2.8212423 3.3654733 -1.2492481
11.551914 9.9818811 1.7195522
3.531724 3.8714759 -1.3443487
11.573692 10.033051 2.0868912
4.8998771 4.8422561 -1.5650041
11.612919 10.097948 2.4654315
0.50469065 1.6986263 -1.0580469
5.5719075 5.3030052 -1.5451455
0.57668114 1.7500947 -1.0622573
6.6541052 6.0801172 -1.5729443
0.63016653 1.7897618 -1.0505284
9.5924463 8.1710644 -1.8463973
0.72220945 1.8551427 -1.0603172
10.372993 8.7518702 -1.6552998
0.81968594 1.9246721 -1.0676785
11.113633 9.3083258 -1.418398
0.95554483 2.0202861 -1.0913904
11.187546 9.3934755 -1.0867614
1.0287993 2.0747242 -1.0741917
11.31515 9.5176888 -0.7512275
1.2204114 2.2092199 -1.1113354
11.346826 9.5734625 -0.40859881
1.4894987 2.3971272 -1.1735758
11.375161 9.6270571 -0.063582867
1.6598893 2.5195394 -1.1773592
11.390184 9.6715193 0.28618413
1.9112214 2.698127 -1.203476
11.443901 9.7440586 0.63803136
2.0613866 2.8087463 -1.1783488
11.472916 9.7990494 0.99244606
2.4178276 3.0620232 -1.2153658
11.504266 9.8563747 1.3536649
2.8511338 3.3704166 -1.2551727
11.549567 9.9241257 1.7187301
3.3854856 3.751188 -1.2994682
11.568358 9.9728575 2.0846786
4.9343772 4.8413258 -1.5690768
11.596762 10.029414 2.4599795
0.50413239 1.6935716 -1.0556428
5.5917716 5.2922163 -1.5453632
0.5733254 1.742937 -1.057899
6.8995485 6.2225637 -1.6158863
0.62684429 1.7823997 -1.0463175
9.7091532 8.2124281 -1.8598592
0.74862421 1.8669298 -1.0747882
10.375903 8.7103519 -1.650086
0.81958628 1.9186696 -1.0655203
11.147223 9.2854805 -1.4166548
0.92242098 1.9918594 -1.0707166
11.180594 9.341588 -1.0814506
1.0336105 2.0711668 -1.074554
11.313343 9.4688368 -0.74696732
1.1394712 2.1475463 -1.0691146
11.335351 9.5174685 -0.40480527
1.4843448 2.385107 -1.1687266
11.3768 9.5802221 -0.060670167
1.6503044 2.5038395 -1.1707104
11.39353 9.6257515 0.28855389
1.8957278 2.6774046 -1.1946479
11.436078 9.6899118 0.63914108
2.050796 2.7907166 -1.1718085
11.471712 9.7494602 0.99328518
2.395102 3.0342629 -1.2048619
11.498394 9.8031492 1.3532307
2.8578305 3.3610971 -1.2542771
11.543916 9.8707533 1.717482
3.2375698 3.6331587 -1.2548064
11.567677 9.9229307 2.0834751
4.9272532 4.8143244 -1.5632099
11.596276 9.9794035 2.4580948
0.48650515 1.6772652 -1.0406483
5.604311 5.2746658 -1.5436786
0.54832959 1.7215204 -1.0384072
6.9942126 6.2565556 -1.6291792
0.62218964 1.7738743 -1.0411193
9.7266178 8.1811666 -1.8565422
0.74116075 1.8560535 -1.0679079
10.36375 8.6555567 -1.6424884
0.80765748 1.9045397 -1.0562564
11.14637 9.2352676 -1.4108638
0.96203673 2.0112247 -1.0905201
11.176554 9.2888784 -1.0760832
1.0248814 2.0581832 -1.067674
11.303063 9.4110384 -0.74202549
1.1662902 2.1577337 -1.0799925
11.33657 9.4676075 -0.40107611
11.371633 9.525526 -0.057617366
1.6112255 2.4678459 -1.1512612
11.390095 9.5720997 0.29083201
1.8962072 2.6669378 -1.1920651
11.434432 9.6372442 0.64075077
2.048389 2.777638 -1.1681488
11.455672 9.6861429 0.99282122
2.4092617 3.031004 -1.2067266
11.497076 9.7502193 1.3533806
2.7529101 3.2746503 -1.2187161
11.53799 9.8141623 1.7161846
3.4351163 3.7521708 -1.3067772
11.552362 9.8592577 2.0795875
4.9723511 4.821949 -1.570191
11.584424 9.9179811 2.4537344
0.49637973 1.6780553 -1.0455209
5.6102476 5.2493114 -1.5399927
0.54679549 1.7147369 -1.0350035
6.6844091 6.0070877 -1.5640935
0.65755439 1.7905264 -1.0619894
9.730258 8.1349516 -1.8502122
0.76226819 1.8630335 -1.0785838
10.368794 8.6072502 -1.6365201
0.8351115 1.9154047 -1.0699525
11.153151 9.1844177 -1.4052111
0.96881843 2.0079339 -1.0917003
11.178511 9.2344084 -1.0705879
1.0976776 2.0980153 -1.1031876
11.303691 9.3549242 -0.73710632
1.1704921 2.1518152 -1.0794253
11.335676 9.4101419 -0.39684865
1.3800315 2.2966526 -1.115285
11.369241 9.4667101 -0.054174244
1.6791147 2.5023355 -1.1774219
11.386188 9.5119877 0.293387
1.9004477 2.6576853 -1.1906523
11.427465 9.574604 0.64223564
2.1132865 2.8084593 -1.1889008
11.456976 9.6291838 0.9940964
2.3938751 3.0061109 -1.1982421
11.495351 9.6907616 1.3535351
2.8328152 3.3127191 -1.2398983
11.530058 9.7498932 1.7145563
3.2623134 3.6152072 -1.2548033
11.554259 9.8018913 2.0786884
4.9979262 4.8129907 -1.5717143
11.591328 9.8639803 2.4531155
0.49907541 1.6742332 -1.0451552
5.6193404 5.2261782 -1.5370249
0.5364846 1.7024014 -1.0255615
6.5899038 5.9080276 -1.5406722
0.62816381 1.7654313 -1.0403107
9.7075777 8.0708189 -1.8396348
0.75511384 1.8516656 -1.0716575
10.370374 8.5567265 -1.6301214
0.85361743 1.920265 -1.0783281
11.151544 9.1279297 -1.3986988
0.95430493 1.9907738 -1.0810825
11.176968 9.1777248 -1.0648494
1.0955606 2.0883052 -1.0994403
11.295896 9.2931643 -0.73179495
1.1545566 2.1326828 -1.0690105
11.32472 9.3458776 -0.39242679
1.5016562 2.3671665 -1.1682392
11.366605 9.4079905 -0.050745666
1.65771 2.4771371 -1.1652945
11.386928 9.4554415 0.29610103
1.926797 2.6631463 -1.198017
11.42186 9.5132437 0.64380753
2.1418214 2.8144569 -1.1962115
11.456425 9.5711422 0.99520874
2.4343491 3.0188856 -1.2086158
11.486904 9.6267662 1.3528868
2.8278036 3.2929282 -1.2348861
11.526688 9.6892271 1.7136391
3.5262008 3.7752585 -1.3244623
11.551105 9.7411261 2.0769105
5.0154014 4.7984066 -1.5712125
11.583641 9.7996206 2.4494717
0.48400462 1.6601437 -1.0322932
5.6537256 5.2251129 -1.5404443
0.55193293 1.7074318 -1.034305
0.63950062 1.7675443 -1.0457709
9.7544489 8.0626545 -1.8415529
0.74138963 1.8372972 -1.0611087
10.364423 8.5098009 -1.6238476
0.87008238 1.9248835 -1.0858902
11.138804 9.0732059 -1.3920988
0.98175097 2.0021491 -1.0941393
11.167561 9.1250744 -1.0594641
1.0712132 2.065593 -1.0845865
11.29001 9.2423735 -0.72742331
1.2572201 2.1925116 -1.116996
11.327126 9.3006372 -0.38900316
1.5197843 2.3705823 -1.1741116
11.36421 9.3591347 -0.047900379
1.6683565 2.4750731 -1.1673839
11.37809 9.4018717 0.29802018
1.9221333 2.6499529 -1.1935974
11.418072 9.4629726 0.64517403
2.0801144 2.7625327 -1.1710337
11.44628 9.5161228 0.99524319
2.3904395 2.9775207 -1.1911494
11.483435 9.5762396 1.3527929
2.7988629 3.2599409 -1.223155
11.523411 9.638566 1.7128218
11.548008 9.690382 2.0753682
5.0518532 4.8010025 -1.5762293
11.575951 9.7453289 2.4461975
0.48360455 1.6547616 -1.0298601
5.6701136 5.208478 -1.5393598
0.5604161 1.7073381 -1.0379688
6.8605404 6.0311489 -1.582806
0.6260283 1.753215 -1.0347621
9.8170118 8.0595484 -1.8452282
0.73543 1.8272564 -1.0551448
10.36098 8.4591074 -1.6172179
0.84614861 1.9027839 -1.0695374
11.143522 9.0246115 -1.3866763
1.0188518 2.0186687 -1.1121771
11.16577 9.0717821 -1.0540777
1.1072624 2.0811532 -1.1008714
11.286849 9.1874847 -0.72266459
1.3281046 2.2299521 -1.1489737
11.322435 9.2444038 -0.38498366
1.5212711 2.3619156 -1.1720518
11.354726 9.2992802 -0.044737875
1.632279 2.4411881 -1.1492833
11.371993 9.3441811 0.30032873
1.8720168 2.6056333 -1.1709367
11.41542 9.4073877 0.64682889
2.0715146 2.7447612 -1.1650045
11.442154 9.4592533 0.99597251
2.5156856 3.0470579 -1.2300539
11.484383 9.5226603 1.3532934
2.8464603 3.276377 -1.2344755
11.514843 9.5779476 1.711183
3.4373803 3.68121 -1.2931106
11.541275 9.6308165 2.0730662
5.0995231 4.8079677 -1.5834543
11.574274 9.6891108 2.4439931
0.51214385 1.6673859 -1.0483408
5.6455708 5.1644163 -1.5293696
0.58063996 1.7145317 -1.0496744
6.7629042 5.9327002 -1.5592471
0.59319603 1.7268603 -1.0112119
9.8237753 8.0184393 -1.8398793
0.74741518 1.8286216 -1.0602814
10.362265 8.4118509 -1.6112565
0.84633243 1.8962184 -1.0673288
11.136518 8.9682207 -1.3800569
1.0300659 2.0183973 -1.1158931
11.162113 9.0174532 -1.0485784
1.1357075 2.091568 -1.1131423
11.280169 9.1304312 -0.71776056
1.3463117 2.2329116 -1.155202
11.317513 9.1882782 -0.38097918
1.5180181 2.3502097 -1.1678538
11.353217 9.245245 -0.041528493
1.6323587 2.4311452 -1.1466104
11.365656 9.2866049 0.30262136
1.8932341 2.608346 -1.1764627
11.405986 9.347333 0.64804673
2.1268454 2.7690222 -1.1822462
11.444334 9.4070597 0.99729455
2.4885201 3.0152404 -1.2178615
11.475344 9.4622974 1.3525913
2.7389545 3.189919 -1.1985303
11.519004 9.5266066 1.7114819
3.4101624 3.6451952 -1.2821023
11.539143 9.5748024 2.0716183
5.1195741 4.7962132 -1.5838257
11.567548 9.6295605 2.4407656
0.50275803 1.656992 -1.0396717
5.676651 5.1609097 -1.532059
0.58298242 1.711128 -1.0493505
6.8650379 5.972476 -1.5741352
0.62082243 1.7391951 -1.0272901
9.8295183 7.9821205 -1.8351495
0.77108693 1.8379852 -1.0728559
10.360724 8.3685045 -1.6056713
0.87191832 1.9064871 -1.0801797
11.13306 8.9205284 -1.3745325
1.0301477 2.0118816 -1.1137761
11.158707 8.9695921 -1.0437374
1.1452296 2.0906608 -1.115876
11.280294 9.0844231 -0.71374464
1.2455395 2.1606266 -1.1040467
11.314439 9.1398382 -0.37748691
1.5236105 2.3453779 -1.1680106
11.343659 9.1921072 -0.038772345
1.6650807 2.4434114 -1.1580751
11.359483 9.2356291 0.30461729
1.9106778 2.6097975 -1.1808158
11.408176 9.301877 0.64980006
2.0774512 2.7260616 -1.1617786
11.435205 9.3534908 0.9974395
2.5184627 3.0226955 -1.225116
11.469659 9.4108839 1.3522617
2.8488431 3.2490473 -1.2291406
11.5184 9.478467 1.7111186
3.1995702 3.4904993 -1.2212154
11.533841 9.5231724 2.0697482
5.1055498 4.76476 -1.5763551
11.565677 9.580122 2.4387963
0.47776604 1.6362081 -1.0194545
5.6788464 5.1332979 -1.5276703
0.59019709 1.709759 -1.0519761
0.63263786 1.7405219 -1.0326773
9.7910528 7.9084368 -1.8222522
0.76977205 1.8304899 -1.0696397
10.362971 8.3194399 -1.5995467
0.85404134 1.8881499 -1.0673532
11.12207 8.8589487 -1.3672315
1.03083 2.0044596 -1.1115735
11.161016 8.9167213 -1.0384434
1.1197875 2.0661826 -1.1001518
11.272957 9.024353 -0.70859098
1.2575697 2.15943 -1.1072378
11.312178 9.0829268 -0.37334263
1.5221189 2.3343244 -1.1644931
11.333255 9.129384 -0.035472184
1.692402 2.450187 -1.1667299
11.350845 9.1738949 0.30696008
1.9434632 2.6190524 -1.1906546
11.401388 9.2410498 0.65129602
2.0513148 2.6964951 -1.149331
11.435152 9.2970533 0.99863434
2.5221691 3.0104523 -1.2230794
11.46979 9.3542919 1.3527268
2.9084358 3.2717862 -1.2437977
11.512244 9.4171515 1.7098848
3.5666533 3.7133968 -1.3182228
11.53113 9.4640522 2.0681872
5.1131015 4.7433085 -1.5734205
11.561589 9.5197563 2.4360821
0.47698653 1.631294 -1.0170677
5.7214379 5.1371574 -1.5328287
0.59400237 1.7072339 -1.052655
6.7199373 5.8135414 -1.5372232
0.645486 1.743417 -1.0390909
9.8526459 7.9095097 -1.8264996
0.79051602 1.8378074 -1.0803515
10.356141 8.2729053 -1.5933288
0.85226882 1.8811855 -1.0643167
11.124857 8.8158579 -1.3624157
1.0216329 1.9921798 -1.1044179
11.145644 8.8612175 -1.0327494
1.0904572 2.0408676 -1.0829382
11.267752 8.975131 -0.7043612
1.3158754 2.1888952 -1.1331726
11.297134 9.0267973 -0.36964849
11.329894 9.0809631 -0.032688856
1.7380015 2.4702449 -1.1835145
11.345924 9.124239 0.30899021
1.9369913 2.6049237 -1.1856236
11.393338 9.1889486 0.65238738
2.0256557 2.6695759 -1.1376179
11.423973 9.2425537 0.99859881
2.4971747 2.9821157 -1.2120944
11.46208 9.3019199 1.3521732
2.9002366 3.2528152 -1.2384814
11.503111 9.3635082 1.7082704
3.4925914 3.6489754 -1.2948689
11.53031 9.415987 2.0671673
5.1037617 4.7152271 -1.56717
11.557724 9.4693403 2.4337528
0.45764041 1.6142781 -1.00105
5.7218661 5.1083946 -1.5280836
0.58349335 1.6950114 -1.0432273
0.66034091 1.7464472 -1.0463948
9.8120565 7.8350124 -1.8133742
0.80278456 1.8386465 -1.0854404
10.353025 8.2206888 -1.5865761
0.89071929 1.8979717 -1.0841224
11.115055 8.7556124 -1.3553168
1.0176148 1.9819258 -1.0997016
11.147519 8.8085184 -1.0274814
1.0756274 2.0235267 -1.0728297
11.261602 8.9164028 -0.69931674
1.2511603 2.1391873 -1.0993674
11.292747 8.9689884 -0.36550295
1.4233416 2.2536349 -1.1148876
11.330606 9.0263176 -0.029319376
1.743203 2.4625444 -1.1827846
11.343423 9.0672293 0.31154549
1.9618515 2.6088417 -1.1923224
11.391022 9.1317253 0.65417373
2.1024332 2.7063272 -1.1623155
11.420176 9.1840553 0.99945879
2.5072255 2.9741199 -1.2122099
11.456841 9.2421312 1.3520113
2.9127851 3.2446291 -1.2388779
11.498101 9.3035545 1.7072501
4.1659946 4.0660162 -1.474437
11.519006 9.3514271 2.0641186
5.2014942 4.7525558 -1.5862508
11.55317 9.4091778 2.4310088
0.48484302 1.6257277 -1.0184612
5.7280331 5.0850754 -1.5248665
0.5905292 1.6938301 -1.0458723
7.720787 6.4002104 -1.7135651
0.68854642 1.7578335 -1.062385
9.8578281 7.8201733 -1.8143657
0.78461647 1.8211776 -1.0720967
10.350065 8.1715813 -1.5802354
0.90157115 1.8978988 -1.0880758
11.115261 8.7052431 -1.3496217
1.0380595 1.9872712 -1.1084466
11.142805 8.7546492 -1.0220487
1.1368666 2.0539916 -1.101818
11.262128 8.8654108 -0.69487309
1.206351 2.1029656 -1.0754372
11.291706 8.9167099 -0.36166415
1.5163125 2.3028629 -1.154107
11.328027 8.9727345 -0.026176453
1.7097994 2.4311571 -1.1660713
11.3343 9.0090771 0.31370178
1.9816319 2.6100473 -1.1971833
11.383742 9.0744791 0.6555295
2.1419735 2.7195237 -1.1736925
11.418013 9.130023 1.0004108
2.5834985 3.0091326 -1.23431
11.454861 9.1879454 1.3522336
2.8759089 3.2056456 -1.2246333
11.501243 9.2525721 1.7074914
3.8296604 3.8290045 -1.379195
11.519041 9.2981195 2.0631878
5.229692 4.7457008 -1.5885924
11.555042 9.3568697 2.4297385
0.50891614 1.6357049 -1.0338126
5.7475171 5.0736008 -1.5250452
0.58095443 1.6832687 -1.0375217
7.7039442 6.3578014 -1.7056367
0.66100204 1.7360135 -1.0427761
9.9310751 7.828269 -1.8204068
0.75084245 1.7951243 -1.0495907
10.354342 8.1329222 -1.5755643
0.91665757 1.9011484 -1.0947205
11.105867 8.6546831 -1.3436474
1.0395762 1.9817277 -1.1071734
11.135129 8.7050018 -1.0170195
1.1073161 2.0289125 -1.0846287
11.253012 8.814249 -0.6905266
1.2711173 2.1359963 -1.104357
11.28601 8.86759 -0.35820207
1.5281416 2.3019655 -1.1571085
11.319114 8.9212265 -0.023474574
1.741202 2.4418147 -1.1768152
11.338758 8.9663677 0.31606635
1.9702445 2.5928831 -1.1902853
11.388342 9.0315933 0.65744662
2.2586503 2.7825677 -1.2129378
11.406201 9.0758629 1.0003307
2.6022692 3.0087698 -1.2377717
11.44489 9.1347618 1.3514377
2.8576336 3.1806364 -1.216404
11.493134 9.2003527 1.7060825
3.4925971 3.5965097 -1.2847267
11.509479 9.2447176 2.0606678
5.2334366 4.7259617 -1.5855299
11.542464 9.301137 2.4256778
0.50413871 1.6274872 -1.0282336
5.7741933 5.0618563 -1.5259585
0.58812141 1.6818415 -1.0401446
7.6416311 6.2801352 -1.6883961
0.64884603 1.7226535 -1.0327405
9.9681568 7.8046246 -1.819615
0.76606154 1.7978406 -1.0565292
10.352302 8.0820179 -1.5690622
0.93388093 1.9043953 -1.1021577
11.108717 8.6034937 -1.3379501
1.0432342 1.9762088 -1.1066525
11.134708 8.6514406 -1.0116647
1.1470993 2.0452213 -1.102401
11.251187 8.7591248 -0.68575597
1.3210121 2.1579161 -1.1256125
11.29264 8.8177719 -0.35430992
1.535992 2.2968864 -1.1578639
11.317513 8.8657198 -0.020159125
1.71268 2.4132056 -1.1620846
11.335601 8.9096212 0.31858203
1.9613208 2.5753973 -1.1838858
11.378725 8.9701939 0.65875816
2.2680788 2.7752709 -1.2132143
11.409996 9.023221 1.001922
2.5895944 2.9860399 -1.2303805
11.445557 9.0797348 1.3520366
2.8175316 3.1393673 -1.2011644
11.489084 9.1418076 1.7052666
11.503977 9.1849852 2.0587411
5.2672601 4.7210417 -1.5889565
11.538839 9.2423954 2.4232287
0.52417541 1.6342549 -1.040401
5.7768655 5.0363235 -1.5220344
0.59067714 1.67796 -1.0397787
7.8094482 6.3522615 -1.7139946
0.66206276 1.7248762 -1.039093
9.9522352 7.7494841 -1.8108941
0.79637027 1.8098592 -1.072699
10.355474 8.0374289 -1.5636133
0.92941475 1.8948616 -1.097297
11.101645 8.5490074 -1.3316137
1.0000716 1.9427685 -1.0810194
11.134389 8.6011076 -1.0066392
1.1632811 2.0473208 -1.1082462
11.252789 8.7094507 -0.68142343
1.3218299 2.1499391 -1.1235372
11.274276 8.7547503 -0.35020751
1.5563203 2.2999969 -1.1643324
11.329348 8.8222904 -0.016906023
1.7077929 2.400063 -1.1574078
11.32749 8.8528757 0.32075873
1.940698 2.5514371 -1.1731824
11.367458 8.9110479 0.6598525
2.286901 2.7745285 -1.2170056
11.408868 8.9705477 1.0029918
2.5927725 2.9742053 -1.2283903
11.444602 9.0269146 1.3524226
2.9837151 3.2289813 -1.247569
11.485034 9.0866127 1.704482
3.5474963 3.5947678 -1.2925068
11.50174 9.130827 2.057478
5.2954602 4.7138472 -1.5912728
11.531927 9.1848049 2.420222
0.51599717 1.6249568 -1.0327994
5.7912769 5.021492 -1.5211444
0.60485148 1.6815598 -1.0474725
7.8323374 6.3353319 -1.7134345
0.66141272 1.7194712 -1.0368289
9.9754562 7.7248659 -1.8090575
0.82794333 1.823158 -1.0898253
10.350939 7.9935236 -1.5578923
0.94456422 1.8979342 -1.1039265
11.106754 8.5084476 -1.3271941
1.0823704 1.986038 -1.1233164
11.134533 8.5571442 -1.0022581
1.1508002 2.0329027 -1.0998287
11.239737 8.6563997 -0.67696476
1.3348206 2.1503808 -1.1275498
11.273029 8.7091799 -0.34687173
1.5809554 2.306725 -1.1729952
11.395203 8.8202705 -0.013477206
1.6958669 2.3838615 -1.1501515
11.346487 8.820199 0.32366797
2.0018787 2.5794024 -1.1942925
11.366532 8.8650541 0.66140997
2.2757568 2.7566023 -1.2104901
11.401439 8.920001 1.0033377
2.6442623 2.9940648 -1.2425075
11.435688 8.975132 1.351788
3.0574827 3.261446 -1.2666742
11.471369 9.0313902 1.7022871
3.6076493 3.6168005 -1.3056402
11.496495 9.0810452 2.0557983
5.3057179 4.6981726 -1.5897974
11.525248 9.1338339 2.4174759
0.52590179 1.6253655 -1.037643
5.8095274 5.004261 -1.5202842
0.58514571 1.6642854 -1.0320562
7.9099112 6.3465443 -1.7219354
0.66272318 1.7142426 -1.0354595
9.9670639 7.6723042 -1.8012286
0.83874261 1.8228211 -1.0939716
10.370125 7.956727 -1.5542059
0.94487107 1.8908775 -1.1016778
11.100618 8.4520855 -1.32069
1.1000772 1.9887733 -1.1303201
11.130138 8.5016518 -0.9966954
1.1986669 2.053493 -1.1215365
11.237258 8.6015549 -0.67223501
1.35329 2.1525581 -1.1337123
11.275695 8.6573982 -0.34295586
1.5872425 2.3004858 -1.1730264
11.455197 8.8050528 -0.0095303357
1.7539414 2.4086738 -1.171401
11.418068 8.8127937 0.32903111
1.9685098 2.5470576 -1.1785784
11.396297 8.8302755 0.66531885
2.2965398 2.7562461 -1.214803
11.39462 8.8610001 1.0039556
2.6215901 2.9652972 -1.2319272
11.432386 8.9181671 1.3519428
3.0190234 3.2209907 -1.251907
11.469925 8.9753723 1.7019225
3.5651417 3.5712826 -1.2906433
11.493595 9.0238256 2.0544162
5.3262811 4.6845264 -1.590013
11.524207 9.0776005 2.4156635
0.53702009 1.6270128 -1.0435643
5.761137 4.9485598 -1.5059355
0.58301091 1.6580298 -1.0287101
7.8634567 6.2837 -1.7083768
0.67581773 1.7165776 -1.041824
9.9292097 7.6066589 -1.7896069
0.84614384 1.8211739 -1.0963242
10.39343 7.9279861 -1.5517352
0.9277606 1.8743546 -1.0898205
11.098332 8.404211 -1.315256
1.1017923 1.9827744 -1.1290071
11.122862 8.4503813 -0.99153376
1.2052739 2.0500274 -1.1226236
11.243662 8.5585022 -0.66843164
1.3713273 2.1553605 -1.1399342
11.272099 8.6076908 -0.33938584
1.5369295 2.2612391 -1.1483334
11.465417 8.763443 -0.0064617097
1.8035716 2.4291363 -1.1893762
11.471879 8.7994947 0.33344379
1.9181217 2.5059793 -1.1567636
11.458387 8.8224897 0.67116082
2.2480397 2.7148986 -1.1949803
11.429903 8.8357821 1.0083972
2.6160989 2.9489362 -1.2273276
11.431108 8.8688211 1.3522946
3.0174923 3.205493 -1.2484934
11.467165 8.924798 1.7013938
3.6242576 3.5911832 -1.3032335
11.489355 8.9720707 2.0529132
5.3354764 4.6666832 -1.5880381
11.516891 9.0235653 2.4127531
0.55112088 1.630307 -1.0515629
5.832942 4.9679098 -1.5168737
0.58084941 1.6517925 -1.0253663
7.9861431 6.3267365 -1.7256677
0.70562375 1.7285399 -1.0587498
9.91292 7.5549574 -1.7813849
0.86428356 1.8257631 -1.1051128
10.460435 7.9266844 -1.5548002
0.9369092 1.8733991 -1.0929025
11.085753 8.3500328 -1.3088316
1.1034869 1.9767753 -1.1276948
11.112012 8.3970776 -0.9861443
1.1739846 2.0240643 -1.1046491
11.234733 8.505826 -0.66396713
1.3702916 2.146688 -1.1371344
11.271684 8.5602207 -0.33588386
1.5297328 2.2482262 -1.1427872
1.775756 2.4026618 -1.1754245
11.49713 8.7675676 0.33677006
1.9537555 2.5173182 -1.1678646
11.520522 8.8144226 0.67702496
2.2877235 2.7275081 -1.2063094
11.493568 8.8288841 1.0155222
2.5907884 2.9205768 -1.2163507
11.466317 8.8434458 1.3571187
2.9596596 3.1555715 -1.2285315
11.469196 8.8775663 1.7016027
3.5007739 3.4983473 -1.2671958
11.47996 8.9171486 2.0505111
5.3412814 4.6467609 -1.5852703
11.514301 8.9728956 2.4108527
0.54745138 1.623373 -1.0470684
5.9015565 4.9848261 -1.527079
0.57866216 1.6455734 -1.0220245
7.8671484 6.2192793 -1.6990258
0.75374901 1.7508692 -1.0871841
9.8896866 7.4992094 -1.7721446
0.86710179 1.821347 -1.1046994
10.500532 7.9082127 -1.5544378
0.9119159 1.8524815 -1.0766698
11.089848 8.306571 -1.3040884
1.1004599 1.9680189 -1.1238751
11.107715 8.3481483 -0.98125148
1.1678641 2.0131936 -1.0993921
11.228983 8.4553938 -0.65966451
1.3325368 2.116307 -1.1170691
11.262656 8.5074549 -0.33225417
1.5674907 2.2620463 -1.1570621
11.455071 8.6609011 -0.00067716837
1.7850486 2.3986163 -1.1767664
2.0057783 2.5382638 -1.1851503
11.528944 8.7715321 0.67933953
2.2996264 2.723093 -1.2078294
11.542209 8.8119659 1.0212504
2.6032658 2.9153574 -1.2176135
11.523188 8.831995 1.3646066
3.0473928 3.1947567 -1.2514063
11.507658 8.8541832 1.7073072
3.5781703 3.5293369 -1.2846346
11.481952 8.8699112 2.0501661
5.3503628 4.6288881 -1.5832967
11.506584 8.9190598 2.4079151
0.54834962 1.6187706 -1.0456765
5.8787026 4.9436569 -1.5179017
0.58863044 1.6460063 -1.0266646
8.2553291 6.422801 -1.763888
0.75499594 1.7456291 -1.0858158
9.9399405 7.4866171 -1.7738642
0.87623942 1.8201931 -1.1079357
10.562132 7.9001904 -1.5564255
0.90254164 1.8404372 -1.0691986
11.090017 8.2579231 -1.2986616
1.1070186 1.9644572 -1.1250422
11.101155 8.2951193 -0.97593772
1.2078539 2.0289302 -1.1171157
11.232825 8.4082813 -0.65554595
1.2980388 2.0876713 -1.0984926
11.261516 8.4569731 -0.32855138
1.5588998 2.2476611 -1.1507709
11.476306 8.623682 0.0026839972
1.6924177 2.3334079 -1.1362451
11.477893 8.6562872 0.34086707
1.9406718 2.4883056 -1.157751
2.2543602 2.6836357 -1.1891533
2.5830679 2.8896141 -1.2081976
11.594834 8.8267403 1.3739538
2.9980145 3.1494815 -1.233842
11.570777 8.8435659 1.7167331
3.4595113 3.4396639 -1.2499343
11.475176 8.8141193 2.0482342
5.3767967 4.6201439 -1.5851811
11.511581 8.8707085 2.4075623
0.55071986 1.6150081 -1.045325
5.8472471 4.8975439 -1.5069958
0.61670434 1.6566281 -1.0432969
8.2804623 6.4014435 -1.7629311
0.73029721 1.7256334 -1.0681386
9.8870945 7.4105158 -1.759831
0.86996603 1.8101712 -1.1019827
10.633942 7.8981314 -1.5596596
0.89466476 1.8293536 -1.0626109
11.086606 8.2072468 -1.2929147
1.1009872 1.9535892 -1.1195261
11.104555 8.2485228 -0.97135508
1.2193872 2.0278356 -1.1205472
11.224619 8.3538132 -0.65092671
1.3594381 2.1153626 -1.124931
11.261874 8.4076309 -0.32488704
1.5195841 2.2153447 -1.1310569
11.45002 8.5565968 0.0054934323
1.7310449 2.346396 -1.1495088
11.488894 8.6125736 0.34378716
2.0192547 2.5240581 -1.1848799
11.510952 8.6579752 0.68187654
2.2582574 2.6738563 -1.1877565
11.527843 8.7003546 1.0223635
2.5925331 2.8818228 -1.2083462
3.0049419 3.1384847 -1.232815
11.625586 8.8272896 1.7249264
11.466513 8.7573719 2.0459898
5.3847871 4.6001053 -1.582709
11.499856 8.8116951 2.4037702
0.57545316 1.6237415 -1.0605642
5.9166946 4.9127741 -1.5170506
0.60710382 1.6458721 -1.0349329
7.9692602 6.1758528 -1.7016109
0.7161808 1.7118342 -1.0571887
9.9913845 7.4307899 -1.7697822
0.86364496 1.800194 -1.0960346
10.683786 7.8822117 -1.5601189
0.90078187 1.8263512 -1.0639176
11.082998 8.1566553 -1.2871803
1.0586572 1.9219456 -1.0948164
11.095888 8.1946316 -0.96594858
1.2023064 2.0101583 -1.1097096
11.22299 8.3036699 -0.64661217
1.3681022 2.1119981 -1.1266053
11.253554 8.3530693 -0.32110268
1.4930207 2.1908088 -1.1170174
11.462453 8.5141087 0.008741647
1.8202482 2.3887382 -1.1833041
11.465878 8.5476151 0.34536654
1.9735154 2.4860489 -1.1649426
11.516817 8.61096 0.68413806
2.2340894 2.6474953 -1.1765919
11.527066 8.648982 1.0235339
2.6251945 2.8877804 -1.2159145
11.802155 8.8557024 1.4005474
3.0768213 3.1662383 -1.2507044
11.645273 8.7883511 1.7278556
4.4507127 3.9995766 -1.5041599
11.469283 8.70821 2.0458112
5.3994303 4.5840974 -1.5818173
11.494524 8.7570858 2.4013345
0.5823245 1.6223872 -1.0633233
6.0538325 4.9681787 -1.5410131
0.64132392 1.6596686 -1.0555428
8.2679491 6.3206568 -1.7497944
0.7065829 1.7007017 -1.0491235
10.004276 7.3950272 -1.7658063
0.86810911 1.7963758 -1.0965153
10.733641 7.8660564 -1.5605606
0.92878735 1.8357439 -1.0774877
11.079196 8.1061449 -1.2814578
1.0445656 1.9067693 -1.0851486
11.095518 8.1460676 -0.9611491
1.2393029 2.0236478 -1.1258122
11.222874 8.2546453 -0.64238048
1.3349901 2.0845203 -1.1088018
11.258627 8.3070316 -0.3175382
1.553773 2.2170751 -1.1411151
11.444161 8.4526253 0.01161471
1.8363384 2.3878651 -1.1872413
11.483301 8.5082321 0.34853706
1.9292096 2.4492807 -1.1456509
11.519132 8.5618563 0.68616533
2.298996 2.6736798 -1.1964475
11.529475 8.5998001 1.0250131
2.5848365 2.850446 -1.2001619
11.862357 8.8417549 1.4085555
3.0520859 3.1362126 -1.2404513
11.834112 8.8566122 1.7562442
11.466868 8.6559095 2.0447304
5.4190817 4.5710516 -1.5821053
11.4923 8.7046909 2.3995733
0.58620632 1.6193508 -1.0640028
6.0594258 4.944129 -1.5377594
0.67564595 1.673274 -1.0761356
8.1808853 6.2321415 -1.7288802
0.70306218 1.6930522 -1.0448974
9.989851 7.3428926 -1.7577282
0.84620976 1.7777679 -1.0814008
10.780091 7.8476152 -1.5605646
0.93807065 1.8343894 -1.080536
11.075195 8.0557251 -1.275748
1.0509574 1.9033337 -1.0863302
11.100077 8.1006908 -0.95671463
1.2317127 2.0114856 -1.1197314
11.215746 8.20152 -0.63787401
1.3870379 2.1060708 -1.1306937
11.2516 8.2537079 -0.3138057
1.5903751 2.2290044 -1.1545993
11.452844 8.4081154 0.014804304
1.8410085 2.3803029 -1.186538
11.468305 8.4488239 0.35041919
1.9258274 2.4366643 -1.1418324
11.507694 8.5043745 0.687271
2.2896171 2.6560609 -1.1904534
11.524931 8.5464516 1.0258412
2.6208277 2.8582206 -1.2087787
11.929324 8.8317518 1.4174116
3.0940943 3.1457279 -1.2495805
11.919349 8.8582935 1.7690687
11.455893 8.5984135 2.042145
5.443768 4.5609293 -1.5835698
11.484883 8.6492157 2.3967662
0.57480955 1.6085439 -1.0543414
6.1143231 4.9525681 -1.5451559
0.65663338 1.6579168 -1.0618228
8.2545815 6.2443399 -1.7372941
0.74220705 1.709748 -1.0675386
9.9491062 7.2803583 -1.7464254
0.81922078 1.7572379 -1.0635983
10.81044 7.8247786 -1.5592464
0.97524798 1.8493873 -1.0993899
11.066784 8.0084581 -1.2702671
1.0221148 1.8808643 -1.0692304
11.110493 8.0646305 -0.95325756
1.2172575 1.9964346 -1.1105543
11.207578 8.1536884 -0.63383818
1.4017011 2.106986 -1.1354198
11.250348 8.2098646 -0.31059799
1.4917113 2.1644578 -1.1096168
11.414444 8.3406878 0.017034322
1.7747358 2.3331964 -1.1574667
11.467489 8.4042931 0.35256967
1.9383057 2.4345081 -1.1442778
11.505304 8.4586401 0.68876445
2.3176446 2.6616588 -1.19775
11.526034 8.5027285 1.0270623
2.6528468 2.8650324 -1.2164301
12.000373 8.8300734 1.4267088
3.111927 3.1426342 -1.2520421
11.995248 8.8597794 1.7805039
4.5031929 3.970305 -1.5066388
11.450451 8.5505695 2.0406411
5.4485602 4.5418749 -1.5808973
11.479631 8.6012812 2.3945816
0.57114339 1.6014371 -1.049834
6.1266379 4.932375 -1.5432827
0.68801653 1.6696401 -1.0804008
8.2877684 6.2278938 -1.7378496
0.75561988 1.7113384 -1.0738382
9.9939137 7.2640257 -1.7473361
0.82355893 1.753536 -1.0640916
10.844897 7.7988367 -1.5577588
0.96573627 1.8373725 -1.0919251
11.065823 7.9602661 -1.2649089
1.0205022 1.8730397 -1.0662524
11.13186 8.0295954 -0.95000756
1.2768058 2.0222001 -1.1376998
11.201764 8.1018028 -0.62942994
1.3619241 2.0760727 -1.1146474
11.246355 8.1588011 -0.30693978
1.5559324 2.1920981 -1.1350821
1.8317038 2.3557417 -1.17794
11.43671 8.3357553 0.35380188
1.9711634 2.4427226 -1.1540374
11.505356 8.4087038 0.69064391
2.3148222 2.6478922 -1.1940522
11.519416 8.4484968 1.0277063
2.6589313 2.8550558 -1.2155046
13.976882 10.001694 1.6698148
2.9560742 3.0367184 -1.2041132
12.048691 8.8407326 1.7885815
4.5243983 3.9617639 -1.5082754
11.450791 8.5006409 2.0401194
5.4579792 4.5226641 -1.5788141
11.475145 8.5481052 2.3924372
0.5658046 1.59377 -1.044313
6.1500735 4.9202995 -1.5439461
0.69191885 1.6665406 -1.0810343
8.2688475 6.1828175 -1.7295083
0.75349045 1.7046961 -1.070586
9.9880495 7.2201176 -1.7410024
0.84174848 1.7577921 -1.072854
10.872952 7.7717266 -1.555822
0.95126593 1.8231039 -1.0818706
11.063441 7.9141903 -1.2597511
0.9598577 1.8328645 -1.0324965
11.145019 7.992466 -0.94648051
1.2753633 2.0139506 -1.1348133
11.206488 8.0592899 -0.625718
1.3120528 2.0403104 -1.089447
11.230625 8.1037169 -0.30334419
1.5891217 2.2023103 -1.1471714
1.8524312 2.3579445 -1.1838895
1.9608251 2.4267545 -1.1477935
11.490291 8.3526487 0.69139254
2.2966547 2.6261201 -1.1852553
11.509589 8.3954678 1.027976
2.5843506 2.799509 -1.1892916
14.062822 9.9980402 1.6811138
3.106823 3.1099434 -1.2446897
12.024828 8.7767534 1.785046
4.5382948 3.9501235 -1.5082383
11.444614 8.4497833 2.0384912
5.4853287 4.5153627 -1.5811489
11.475849 8.5013285 2.3914642
0.55165601 1.5808429 -1.0325321
6.1732311 4.9047394 -1.5440346
0.69611192 1.6629326 -1.0816213
8.1969624 6.1028843 -1.7112768
0.74392259 1.6933715 -1.0625056
10.003081 7.1836004 -1.7371379
0.81816208 1.7384164 -1.0568336
10.898229 7.7374439 -1.5528804
0.86609554 1.7694168 -1.0324397
11.058208 7.8610382 -1.253737
1.0601811 1.8811541 -1.0827725
11.153679 7.9471025 -0.94210804
1.2871634 2.0121493 -1.1381843
11.19983 8.0044603 -0.6210711
1.3029228 2.0267131 -1.082882
11.246356 8.062067 -0.29977733
1.5934774 2.1950731 -1.1465017
11.480033 8.2324181 0.027064621
1.8342468 2.3369265 -1.1738995
1.9923843 2.4333336 -1.1568743
2.3190074 2.6261334 -1.1901004
11.512353 8.3444872 1.0295988
2.6039863 2.7968049 -1.1925535
14.158769 9.9929152 1.6937612
3.0702538 3.0728617 -1.2310395
12.005079 8.709547 1.7821556
4.5583415 3.9395189 -1.5093405
11.440813 8.3947487 2.0372448
5.5105925 4.5038085 -1.5824896
11.470588 8.445138 2.3891482
0.5371722 1.568449 -1.0208012
6.1812768 4.8836031 -1.5415722
0.69541562 1.6573457 -1.0792633
8.204937 6.0741253 -1.7077855
0.76337492 1.6984527 -1.072646
10.02948 7.1587706 -1.7356542
0.81603694 1.7315836 -1.0536914
10.920988 7.7071218 -1.5503093
0.86558211 1.7632682 -1.0302835
11.057187 7.8161249 -1.2487633
1.0950521 1.8936656 -1.0989499
11.157981 7.9048815 -0.93800855
1.2921153 2.0074446 -1.1384572
11.200787 7.9600077 -0.61723804
1.3273989 2.0327535 -1.0920653
11.237105 8.0112839 -0.29630128
1.5662419 2.171339 -1.1325421
1.8417944 2.3316565 -1.1745622
11.502474 8.2303581 0.36371824
1.9106258 2.3773265 -1.1241593
2.3541107 2.6346262 -1.1996062
2.5423832 2.7494917 -1.1706167
14.238095 9.9842596 1.704295
3.1254759 3.0901682 -1.2440406
12.001015 8.6583576 1.7816324
4.5501719 3.9151556 -1.503616
11.439306 8.3471775 2.0364921
5.5209451 4.4864902 -1.5808895
11.474289 8.4005575 2.3888474
0.50750351 1.5481415 -0.99871588
6.1055231 4.8144293 -1.522187
0.67785752 1.6428068 -1.0659493
8.247097 6.0650988 -1.7102906
0.75963712 1.6909986 -1.068441
10.062695 7.1378107 -1.73518
0.87026274 1.7551119 -1.0834876
10.947112 7.6787195 -1.5481498
0.93467283 1.7948108 -1.0665506
11.050844 7.7682514 -1.2433139
1.0213633 1.8468753 -1.0585761
11.155254 7.8586473 -0.93345404
1.2938327 2.000957 -1.1371508
11.198147 7.9135714 -0.61327547
1.3356677 2.0297275 -1.0937768
11.227666 7.9606009 -0.29283848
1.5700258 2.164969 -1.1319543
13.342037 9.2449198 0.05858615
1.75359 2.2731936 -1.1369737
13.286176 9.2469435 0.43920419
2.121047 2.4849715 -1.1997787
2.3591952 2.6260667 -1.1988163
2.5965333 2.7678633 -1.1850499
14.303867 9.9670038 1.7131854
3.0743918 3.046962 -1.2266818
11.978107 8.5959358 1.7782907
4.5724497 3.9082186 -1.5057555
11.435944 8.2986364 2.035429
5.5295477 4.4681673 -1.5788971
11.464397 8.3477926 2.3857636
0.51874316 1.5492681 -1.004595
6.0951695 4.7815876 -1.5158446
0.67263412 1.6346121 -1.0605888
8.2507133 6.0317364 -1.7057546
0.77308631 1.6923844 -1.0747244
10.069455 7.0990314 -1.7304698
0.86833692 1.7478851 -1.08031
10.97436 7.6482 -1.5457989
0.94390702 1.7933141 -1.0695899
11.052425 7.7224245 -1.2383329
1.0500175 1.8555497 -1.0713959
11.155298 7.8114271 -0.9288348
1.2925047 1.9923649 -1.1342355
11.196556 7.8651342 -0.60913253
1.4614264 2.0903323 -1.1491387
11.233058 7.916049 -0.28937423
1.5986508 2.1717014 -1.1418675
13.442468 9.2478657 0.063500702
1.8405899 2.31146 -1.1692501
13.396726 9.2562466 0.44658312
2.0610824 2.4405961 -1.1750255
14.495223 9.9443693 0.90387452
2.3930416 2.6328082 -1.207678
11.549101 8.2240515 1.0368488
2.6983137 2.811739 -1.2141368
14.405325 9.967268 1.726535
3.0843987 3.0376406 -1.2266095
11.990246 8.5519466 1.7802451
4.6003718 3.9031413 -1.509111
11.423504 8.24191 2.0327415
5.5592084 4.460351 -1.5814941
11.460613 8.2960749 2.3839045
0.53139246 1.5513452 -1.0115246
6.1542902 4.7898011 -1.5237455
0.68720078 1.6371746 -1.0681938
8.1518602 5.9423046 -1.6837384
0.78329802 1.6923214 -1.079116
10.083597 7.0670595 -1.7272022
0.85836315 1.7367837 -1.0725896
10.989985 7.6136789 -1.5423905
0.9609164 1.7963008 -1.0770144
11.047458 7.6757145 -1.2330674
1.1266546 1.8901892 -1.1091473
11.143587 7.7603378 -0.9237293
1.3103503 1.9946134 -1.1408138
11.186658 7.8148298 -0.60492015
1.4568304 2.079833 -1.1448532
11.223249 7.8655519 -0.28593653
1.574483 2.1500072 -1.1293373
13.529508 9.2457066 0.068056256
1.8464261 2.3052373 -1.1692525
13.471543 9.2471838 0.45235524
2.0272717 2.4117436 -1.1601812
14.573463 9.9332867 0.9114362
2.2890821 2.5638385 -1.1698154
11.545243 8.1754532 1.0377194
2.5723248 2.7291183 -1.172254
14.503643 9.9686546 1.7394719
3.0990829 3.0317824 -1.228038
12.019659 8.5213823 1.7848076
4.6413894 3.9064929 -1.5160257
11.423157 8.1955957 2.0322568
5.5933661 4.4563751 -1.5853519
11.455386 8.246582 2.3818362
0.53203619 1.5468433 -1.010148
6.1540952 4.7627325 -1.5194701
0.73117483 1.6546459 -1.0946734
8.3083458 5.9958038 -1.7057923
0.76876795 1.6788938 -1.0682064
10.015889 6.9862137 -1.7116427
0.90043473 1.7528431 -1.0950013
11.011877 7.58004 -1.539414
0.96858788 1.7938489 -1.0791726
11.041775 7.6260471 -1.227465
1.1009337 1.869319 -1.0937022
11.146731 7.7152586 -0.9193604
1.2619954 1.9608275 -1.1150509
11.186432 7.7675552 -0.60086799
1.4278964 2.0557907 -1.1293654
11.221382 7.8170929 -0.28240582
1.5405546 2.1227124 -1.1125747
13.616364 9.2396173 0.072850376
1.8724159 2.3093748 -1.1771107
13.554767 9.2393112 0.4586713
2.0453677 2.4109173 -1.1643456
14.663649 9.92521 0.9199816
2.3547606 2.5881574 -1.1895089
11.53902 8.1227627 1.0384475
2.7790642 2.8303211 -1.2338665
14.598505 9.9638405 1.7520629
3.0207582 2.9734206 -1.2029916
12.016194 8.4682112 1.7844495
4.6676645 3.9001563 -1.5189214
11.420486 8.1451817 2.0313535
5.6179204 4.4453907 -1.5867567
11.446151 8.1920023 2.378907
0.5282228 1.5397778 -1.0056481
6.1785784 4.7479405 -1.5199003
0.72610021 1.6461089 -1.0892831
8.3540096 5.9839907 -1.7082628
0.78550565 1.681519 -1.0763645
10.080273 6.9779139 -1.7151107
0.91598749 1.7543566 -1.1018406
11.019263 7.5354719 -1.5343962
0.96049905 1.7826847 -1.0725855
11.044018 7.5783596 -1.2223258
0.98358393 1.7998035 -1.0309522
11.142232 7.6632042 -0.91424227
1.294809 1.9701473 -1.1286532
11.185491 7.717268 -0.59656799
1.4858173 2.0779309 -1.1533099
11.215335 7.7636271 -0.27863282
1.6271564 2.159941 -1.1469839
13.704762 9.2305632 0.077911407
1.908691 2.3182998 -1.188861
13.655074 9.2375278 0.46590218
1.9767565 2.3623121 -1.1365564
14.764106 9.9189901 0.92940497
2.3687477 2.5831125 -1.1914712
11.540716 8.0720491 1.040018
2.7752452 2.8137994 -1.2297119
14.689881 9.9528151 1.7643076
3.0581541 2.9785497 -1.21055
11.989901 8.3987799 1.7806848
11.422258 8.0947275 2.0312405
5.6448183 4.4341378 -1.5884409
11.441319 8.137414 2.3768566
0.52540278 1.53439 -1.0022655
6.1916695 4.7330647 -1.5190474
0.68799484 1.6219584 -1.0631115
8.2215624 5.8810644 -1.6812525
0.79386294 1.6810738 -1.0798427
10.121346 6.9661627 -1.7164752
0.92775345 1.7552915 -1.1069521
11.004469 7.4893398 -1.52808
0.96604621 1.780252 -1.0739518
11.036183 7.5359697 -1.2174684
1.1438441 1.8786347 -1.1118444
11.134535 7.6204853 -0.91000712
1.2602426 1.9454756 -1.1101013
11.17613 7.6733704 -0.59290665
1.5085791 2.0830076 -1.1617447
11.209517 7.7215633 -0.27569699
1.6155719 2.1462789 -1.1401519
13.785711 9.2301655 0.082056254
1.8790833 2.2940316 -1.1751276
13.746261 9.2433052 0.47210625
2.0911188 2.4153819 -1.1764199
