# .PCD v0.7 - Point Cloud Data file format
VERSION 0.7
FIELDS x y z
SIZE 4 4 4
TYPE F F F
COUNT 1 1 1
WIDTH 1555
HEIGHT 1
VIEWPOINT 0 0 0 1 0 0 0
POINTS 1555
DATA ascii
2.6127279 3.3206859 -1.1681503
11.394773 5.7792778 0.95682883
3.0935166 3.4473758 -1.2128803
11.391898 5.7933526 1.2590084
3.5234199 3.5622678 -1.2200742
11.409195 5.8129215 1.5630203
5.9026227 4.1781569 -1.666142
11.404222 5.8264847 1.8663847
6.6258831 4.3730221 -1.6461923
11.414679 5.8445363 2.1768792
0.61046398 2.7850709 -1.0477194
7.763813 4.65096 -1.6648378
0.68609929 2.8054299 -1.0413864
9.2747726 5.0501218 -1.6925669
0.82175881 2.8401833 -1.0659695
10.118073 5.2803173 -1.5571204
0.89024985 2.8592401 -1.0476424
10.988953 5.5197139 -1.3830385
1.028815 2.8952923 -1.0614578
11.021921 5.5425148 -1.096779
1.13519 2.9238768 -1.0535365
11.386372 5.652185 -0.83093154
1.3883371 2.9883871 -1.1063962
11.404858 5.6717515 -0.53235495
1.5243504 3.0249205 -1.0966381
11.416553 5.6894355 -0.23537621
1.7607501 3.0864158 -1.1204273
11.425438 5.7064071 0.062109806
2.0652056 3.1653032 -1.1574371
11.40822 5.7165561 0.36169702
2.3431466 3.2383695 -1.1698142
11.42683 5.7361832 0.66087353
2.5931156 3.3050799 -1.16071
11.429005 5.7514834 0.96055532
3.0965471 3.4359951 -1.2123224
11.429914 5.7666149 1.2637446
3.4365218 3.5269156 -1.1959729
11.437559 5.7835512 1.5672061
5.9153051 4.1608543 -1.6669738
11.440145 5.7992201 1.8722084
6.6353397 4.3527527 -1.6459467
11.448596 5.816721 2.1830084
0.60845876 2.7792969 -1.0453864
7.6889763 4.6027527 -1.6483245
0.70095825 2.8033214 -1.0491594
9.3100824 5.0247135 -1.695282
0.82154602 2.834116 -1.0647266
10.117653 5.2430067 -1.5541021
0.89352709 2.8537631 -1.0482757
10.956488 5.471271 -1.3764701
1.0444567 2.892283 -1.0681952
10.98939 5.4938931 -1.0912213
1.0645366 2.8999634 -1.0188055
11.427527 5.6213522 -0.83097929
1.3938673 2.9817924 -1.1076243
11.451849 5.642406 -0.53187972
1.6110668 3.0374546 -1.1316785
11.455831 5.6580873 -0.23390193
1.6394751 3.0478382 -1.0716808
11.456985 5.6730313 0.064212203
2.104363 3.1646628 -1.1703092
11.449397 5.6858106 0.36462995
2.3348224 3.2252088 -1.1655637
11.464114 5.7043815 0.66433024
2.5942175 3.2933931 -1.1595792
11.4701 5.7207193 0.96497262
3.0943089 3.4217906 -1.21009
11.476689 5.7374082 1.2695149
3.2708087 3.4708724 -1.1512849
11.482331 5.753818 1.5736047
5.9304676 4.1415534 -1.6681296
11.488618 5.7705188 1.8800234
6.6378407 4.3278713 -1.6439753
11.487417 5.7854342 2.1900427
0.60795176 2.7744761 -1.0441235
7.7640314 4.5957222 -1.6598215
0.71061355 2.8005533 -1.0539471
9.2293673 4.9738679 -1.679765
0.81602627 2.827498 -1.0606263
10.11225 5.2086391 -1.550756
0.88451988 2.8461118 -1.0424844
10.915043 5.425261 -1.36926
1.0564203 2.8890777 -1.0732017
10.963311 5.4516435 -1.0865526
1.1278784 2.9088116 -1.0478867
11.461677 5.5931439 -0.83086288
1.4134452 2.9793849 -1.1152639
11.482166 5.613184 -0.53100336
1.6201589 3.03193 -1.1343371
11.495847 5.6313782 -0.23265994
1.8050144 3.0797148 -1.1352551
11.504735 5.6483641 0.06626606
2.1194386 3.1591339 -1.1745536
11.497112 5.6612015 0.3676168
2.2984419 3.2065558 -1.1520338
11.502129 5.677238 0.6676932
2.4517159 3.2480793 -1.1139739
11.515786 5.6956096 0.96965742
3.0916576 3.4090366 -1.2079293
11.510746 5.7092552 1.2738662
3.428323 3.4969859 -1.1907749
11.52207 5.72719 1.5793029
5.9449577 4.124598 -1.6693993
11.53017 5.7443914 1.8867525
6.6452756 4.3070731 -1.6433274
11.525017 5.7582989 2.1968722
0.58918977 2.765265 -1.0313694
7.7554193 4.5660162 -1.6557307
0.72202969 2.7978201 -1.0597206
9.2582598 4.9488158 -1.6816469
0.79688942 2.8174882 -1.0488073
10.109174 5.1728621 -1.5475757
0.88940448 2.8413663 -1.0440564
10.897098 5.3832269 -1.3645302
1.02648 2.8757563 -1.0570556
10.929902 5.4055343 -1.0811174
1.1171088 2.8996735 -1.0417084
11.507945 5.5655375 -0.83136219
1.3777566 2.9635091 -1.098192
11.526542 5.5850711 -0.5305382
1.5896819 3.0165792 -1.1203984
11.52667 5.5998197 -0.23115717
1.6943278 3.0447779 -1.0908223
11.533623 5.6163106 0.068262145
2.1016245 3.1451349 -1.1667691
11.525977 5.62919 0.37007907
2.2824576 3.1924024 -1.1453316
11.552246 5.6507301 0.67183739
2.5418324 3.2589211 -1.140645
11.556186 5.6665816 0.97399026
3.1341085 3.4064584 -1.2185413
11.554921 5.6812687 1.2793496
3.5541861 3.5136528 -1.2218796
11.566162 5.6991882 1.5856164
5.9426618 4.1022086 -1.666616
11.566486 5.7143602 1.8927126
6.6282516 4.2788525 -1.6374404
11.574552 5.7318115 2.2058678
0.60210562 2.762908 -1.0384289
7.6648092 4.5148516 -1.6364398
0.72338986 2.7924643 -1.0594571
9.2817783 4.9204154 -1.6825154
0.79317868 2.8107452 -1.0456446
10.12571 5.1399345 -1.5469056
0.90994066 2.839788 -1.0539076
10.85831 5.334022 -1.3573523
1.0140736 2.8662596 -1.0497042
10.896836 5.3575873 -1.0755922
1.1701131 2.9048276 -1.0656964
11.546957 5.5335693 -0.83125585
1.4028826 2.9614487 -1.1081767
11.57335 5.5550303 -0.53002799
1.5700717 3.0034804 -1.1109655
11.565733 5.5678725 -0.22965293
1.8093636 3.0626822 -1.134419
11.586257 5.5878024 0.070589311
2.0875597 3.1315765 -1.1602961
11.578568 5.6007504 0.37343234
2.2998612 3.185637 -1.1498048
11.593194 5.6192837 0.67554772
2.647115 3.2721367 -1.1718823
11.593213 5.6341615 0.97812617
2.9761314 3.3551121 -1.172042
11.597667 5.6503534 1.2847477
3.5540345 3.4985023 -1.2202033
11.608809 5.6682568 1.5917999
5.9387035 4.078176 -1.6633325
11.603282 5.6819525 1.8987898
6.6267014 4.2531071 -1.6346749
11.611256 5.6993856 2.2125928
0.6265555 2.7635803 -1.0528148
7.7819042 4.5173864 -1.6556429
0.72627449 2.7880726 -1.060226
9.4272985 4.9251595 -1.7031255
0.80469185 2.8080616 -1.0511749
10.14119 5.1107998 -1.5464202
0.9095335 2.8341165 -1.0527258
10.829885 5.292028 -1.3516705
1.0172236 2.8610759 -1.0503098
10.870305 5.3158984 -1.0709499
1.1645358 2.8972154 -1.0620487
11.590613 5.5071898 -0.83171701
1.461807 2.9678087 -1.1333146
11.603466 5.52527 -0.52912414
1.5321198 2.9872622 -1.0940548
11.613327 5.5425038 -0.22849354
1.7092724 3.0314035 -1.0942984
11.624162 5.5600004 0.072587214
2.0658228 3.117476 -1.1512164
11.620315 5.5739784 0.37626007
2.3114171 3.1786275 -1.1524628
11.632968 5.5920119 0.67905349
2.4762654 3.2214251 -1.117669
11.638735 5.6083765 0.98284477
3.1721737 3.3895321 -1.226402
11.639256 5.6236005 1.2899426
3.7289705 3.5264664 -1.2639773
11.642606 5.6395211 1.5967792
5.9739037 4.0660734 -1.6694673
11.644648 5.6552119 1.9055492
6.6263089 4.2305012 -1.6324385
11.63915 5.6691766 2.2177429
0.63093632 2.7600865 -1.0546941
7.7645946 4.4889984 -1.6502987
0.71554595 2.781024 -1.0529882
9.3013897 4.8662686 -1.6807033
0.81784022 2.8060055 -1.0576813
10.194691 5.0928006 -1.5512232
0.92462921 2.8322186 -1.0598549
10.798885 5.2518067 -1.3458874
1.0413158 2.860898 -1.061489
10.837314 5.2750401 -1.0659165
1.1428874 2.8864532 -1.050879
11.623985 5.4804425 -0.83167207
1.4472795 2.957788 -1.1258403
11.642694 5.4999456 -0.52869326
1.4939871 2.9716921 -1.0771762
11.646736 5.5157681 -0.22723591
1.7930751 3.043014 -1.1258733
11.663389 5.5347042 0.074504629
2.0659621 3.1090794 -1.150158
11.651772 5.5467939 0.37866303
2.3283739 3.1734166 -1.1570121
11.672151 5.5667481 0.68246013
2.5400739 3.2266102 -1.1362767
11.677855 5.583127 0.98699278
3.161726 3.3756042 -1.2221379
11.676373 5.5978808 1.2946312
3.701808 3.5070715 -1.2555684
11.687339 5.6157556 1.6031604
5.9993067 4.0527821 -1.673439
11.69692 5.6333947 1.9139895
6.652226 4.215549 -1.6358297
11.607231 5.625947 2.2121716
0.63718575 2.7560816 -1.0575719
7.6562963 4.4345965 -1.627889
0.69654489 2.7713428 -1.0406946
9.3035231 4.8326192 -1.6781985
0.83807904 2.8044128 -1.0679871
10.247671 5.0682039 -1.555462
0.92609614 2.8262258 -1.0595597
10.767303 5.2051549 -1.3395957
1.0586677 2.8579888 -1.0690918
10.805692 5.2282052 -1.0605888
1.1037252 2.8708043 -1.0312854
11.672501 5.4501882 -0.83213693
1.4383965 2.9477768 -1.1206926
11.683482 5.4678164 -0.52792704
1.5284517 2.9711642 -1.0903332
11.68559 5.4831886 -0.22569986
1.7897344 3.0330667 -1.1233175
11.704199 5.5025797 0.076757684
2.0719845 3.1003318 -1.1510187
11.692541 5.514739 0.3816618
2.3309216 3.1630149 -1.1565002
11.710958 5.5341859 0.68609095
2.6118624 3.2312908 -1.1570835
11.730167 5.5539136 0.99242485
3.2100122 3.3729262 -1.2342783
11.724712 5.5677438 1.300678
3.6751657 3.4853911 -1.2470484
11.725955 5.5831952 1.6088761
6.0255699 4.0356951 -1.6772259
11.727769 5.598896 1.9192084
6.6428185 4.1880126 -1.6314745
11.563397 5.5729609 2.2045145
0.616561 2.7470083 -1.0437988
7.8942428 4.4641504 -1.6691436
0.68413025 2.7637925 -1.0324467
9.5357304 4.8562574 -1.7124738
0.84102333 2.7996917 -1.0686992
10.301591 5.0476885 -1.5601392
0.90307963 2.8156919 -1.0464058
10.744248 5.1650939 -1.3345798
1.045996 2.8492622 -1.0617778
10.780668 5.187531 -1.0561407
1.1353076 2.8715248 -1.0452349
11.70823 5.4213233 -0.83208495
1.4095502 2.9343596 -1.1068445
11.727017 5.4408174 -0.52751398
1.5373874 2.9657454 -1.0929971
11.725251 5.4552927 -0.22439824
1.8336046 3.0346103 -1.1392394
11.743863 5.4746747 0.078803651
2.1035049 3.0983558 -1.1612437
11.736069 5.4878373 0.38458461
2.3053243 3.1475382 -1.1467294
11.750564 5.5063224 0.68962628
2.651655 3.2296662 -1.1681257
11.760033 5.5236568 0.99591064
3.2448022 3.3684535 -1.2427516
11.760324 5.538938 1.3052894
3.6480432 3.4655061 -1.238616
11.767264 5.5558295 1.6148862
6.0455108 4.0196137 -1.6798011
11.772815 5.5724859 1.9265934
6.6345892 4.1636581 -1.6276519
11.533606 5.5284538 2.1993742
0.59930354 2.7384653 -1.0321015
8.0022774 4.4610276 -1.6864233
0.71581405 2.7651916 -1.05024
9.5161905 4.8188901 -1.7066735
0.81656885 2.7888851 -1.054008
10.373343 5.0289278 -1.5670354
0.9026773 2.809732 -1.0452089
10.70992 5.1204586 -1.328198
1.0474317 2.8432422 -1.0614812
10.750151 5.1436181 -1.0510997
1.1403587 2.8659997 -1.0465999
11.750251 5.3914342 -0.83227456
1.423804 2.9299669 -1.1120597
11.767136 5.4104643 -0.52683455
1.5645294 2.9637642 -1.1031536
11.777058 5.4277444 -0.22313938
1.8100157 3.0206823 -1.128909
11.782045 5.4438844 0.080949612
2.0430455 3.0754628 -1.1381826
11.774225 5.4571004 0.38742998
2.3410721 3.1451626 -1.1574242
11.788696 5.4755678 0.69316846
2.6673138 3.2217903 -1.1716321
11.798123 5.4928994 1.0001476
3.3249476 3.3731308 -1.2639463
11.798337 5.5081978 1.310225
3.6153607 3.4437017 -1.2286907
11.824479 5.5297756 1.6230263
6.0485797 3.998343 -1.6783338
11.810645 5.5417395 1.93291
6.6801257 4.1501775 -1.6348654
11.504193 5.4819551 2.1943321
0.6071009 2.7351327 -1.0360388
7.9067259 4.4114857 -1.6665537
0.71530479 2.7598014 -1.04899
0.81267267 2.7824841 -1.0508618
10.433487 5.0071197 -1.5723593
0.89704108 2.8026905 -1.0412517
10.681252 5.0773664 -1.3224616
1.0453339 2.8364835 -1.0594273
10.715611 5.0990133 -1.0457369
1.120512 2.855206 -1.0362484
11.786371 5.3599672 -0.83209407
1.4416437 2.9262543 -1.1188593
11.795507 5.3771758 -0.52570593
1.5155556 2.9453669 -1.0817407
11.813225 5.3962731 -0.22165264
1.799165 3.0096483 -1.1235435
11.820162 5.4128871 0.083105959
2.1133788 3.0812359 -1.1623373
11.814255 5.4266171 0.39035222
2.3842659 3.1441908 -1.1705908
11.834523 5.4464483 0.69717216
2.6511521 3.206871 -1.1653368
11.836134 5.4619403 1.0043952
3.3110068 3.3566256 -1.2585318
11.83821 5.4777193 1.3153759
3.5238638 3.4091086 -1.203694
11.850774 5.4959955 1.6271579
6.0630102 3.9796057 -1.6795156
11.852253 5.5117188 1.9398324
6.7141743 4.1338687 -1.639688
11.465045 5.4333367 2.1875622
0.62815696 2.7349968 -1.0483334
8.0582361 4.4206882 -1.6920042
0.70446032 2.7529583 -1.041761
9.4450321 4.7413015 -1.6904061
0.81376612 2.7777839 -1.0506306
10.486879 4.9876838 -1.5770891
0.93993396 2.806334 -1.0630952
10.653433 5.0389705 -1.317147
1.0536063 2.8326268 -1.0626805
10.687744 5.0604739 -1.0412495
1.187598 2.8633904 -1.0669328
11.825282 5.3336706 -0.83236259
1.3514969 2.9007244 -1.0780371
11.840294 5.352241 -0.52544558
1.4971249 2.9346256 -1.0731562
11.848289 5.3690972 -0.22037685
1.8667302 3.0163412 -1.1486754
11.859125 5.3866258 0.085071698
2.1281769 3.0758882 -1.1665899
11.851236 5.3999515 0.39299786
2.3714452 3.132184 -1.1651951
11.873427 5.4202137 0.7006281
2.7432249 3.2167706 -1.1925185
11.873034 5.435267 1.0084325
3.2081075 3.3224673 -1.228218
11.886669 5.4538078 1.3213464
3.5209203 3.3960762 -1.2016548
11.891392 5.4702339 1.6330878
6.0711093 3.962009 -1.6794907
6.7552309 4.1217704 -1.6462191
11.42662 5.38976 2.1809101
0.62422836 2.7292252 -1.0449752
7.6931343 4.3125467 -1.6232022
0.69372332 2.745584 -1.0345062
9.7996187 4.7869167 -1.7435879
0.80811012 2.7710748 -1.0465255
10.504365 4.9558187 -1.5767053
0.95168728 2.8027363 -1.0683341
10.624468 4.9962502 -1.311428
1.0549932 2.8265858 -1.0623832
10.660682 5.0180326 -1.0365691
1.1623814 2.8514795 -1.0540701
11.863217 5.302269 -0.83228195
1.2955558 2.8819332 -1.0522878
11.884107 5.3221612 -0.52488053
1.5151484 2.9306598 -1.0795524
11.880424 5.3363786 -0.21881934
1.7844417 2.9902821 -1.1157007
11.901007 5.3561273 0.087288134
2.1672151 3.0744262 -1.1794207
11.895042 5.3699584 0.396074
2.3551273 3.1182976 -1.1585059
11.90941 5.3883905 0.70408821
2.7757351 3.2120991 -1.2011856
11.928395 5.4079733 1.0141355
3.2939203 3.3278027 -1.2509775
11.918675 5.4210835 1.3256943
3.4803658 3.3733225 -1.1898205
11.934925 5.4402308 1.6395037
6.0835371 3.9427419 -1.680225
6.7624125 4.099236 -1.6454856
11.394806 5.3434505 2.175494
0.62027878 2.7234802 -1.0416166
8.0762367 4.3682942 -1.6904131
0.69824916 2.7412772 -1.0362629
9.5962915 4.7092209 -1.7089195
0.82652307 2.7691588 -1.0558699
10.514021 4.9221826 -1.5752879
0.93208456 2.7928424 -1.0570153
10.593409 4.953311 -1.3055092
1.0369804 2.816658 -1.052428
10.627622 4.9744921 -1.0314033
1.2386212 2.8602085 -1.0888735
11.90887 5.2724028 -0.83266771
1.4230144 2.9007592 -1.1075197
11.925916 5.2914143 -0.52423179
1.4986651 2.9195352 -1.0716809
11.931992 5.3078775 -0.21751258
1.8376062 2.9926391 -1.135108
11.940876 5.3249788 0.089494824
2.1342337 3.0578074 -1.166346
11.932931 5.338418 0.39896002
2.3331654 3.1033535 -1.1499622
11.953111 5.3581638 0.70801216
2.7632627 3.1978068 -1.1960341
11.96426 5.3759418 1.0182555
3.1043494 3.2745066 -1.1962012
11.964164 5.391326 1.331496
3.5896425 3.3826499 -1.2163697
11.980316 5.4104462 1.6461816
6.0959115 3.9234152 -1.6809573
11.873569 5.4011259 1.9446322
6.7484436 4.0721555 -1.6404021
11.360908 5.2969112 2.1697202
0.63476026 2.7212887 -1.0497096
8.0109682 4.3262649 -1.6761745
0.69086057 2.7346525 -1.0310129
9.6400299 4.6857162 -1.7131395
0.82944447 2.7641253 -1.0565664
10.492537 4.8818307 -1.5697492
0.93161005 2.786819 -1.0558168
10.562193 4.910574 -1.2995998
1.0295041 2.8089271 -1.0477448
10.631416 4.9392257 -1.0293794
1.2614779 2.8578696 -1.0985798
11.946653 5.2405872 -0.8325665
1.4156096 2.8918242 -1.1032003
11.969594 5.2608762 -0.52364427
1.4130747 2.8946033 -1.0352987
11.969821 5.2760673 -0.21601269
1.8303056 2.9824133 -1.1311598
11.988466 5.2953525 0.091795437
2.0863857 3.0383773 -1.1479712
11.974634 5.3075509 0.40199098
2.3204598 3.090457 -1.1445224
11.998693 5.3281412 0.71206045
2.761992 3.1859207 -1.194337
12.000059 5.3437243 1.022384
3.0806248 3.2568893 -1.1881758
12.005709 5.3604517 1.3368958
3.5565886 3.3615417 -1.2064786
12.01791 5.3786554 1.6518623
6.1044202 3.9032259 -1.6808047
11.870509 5.3603764 1.9447161
6.7132797 4.0407004 -1.6309792
11.321091 5.2492704 2.1629009
0.63749599 2.716805 -1.0505142
7.8568654 4.266037 -1.6459117
0.68855137 2.7290373 -1.0287679
9.4380531 4.6101465 -1.6788579
0.8461374 2.7617149 -1.0649434
10.472877 4.8420453 -1.564474
0.93460584 2.7814765 -1.0564562
10.530828 4.8680425 -1.2936997
1.0184684 2.8005586 -1.0413085
10.685773 4.9148192 -1.0316341
1.2504611 2.8487711 -1.0924023
11.986326 5.2089863 -0.83257324
1.3559306 2.8726449 -1.0758798
12.007354 5.228827 -0.52282947
1.4819269 2.9008431 -1.0627044
12.017361 5.2461896 -0.2146291
1.806457 2.9689393 -1.1208512
12.026244 5.2633185 0.094003804
2.1105893 3.0337362 -1.1554841
12.022128 5.27774 0.40523696
2.3785365 3.0919714 -1.1626152
12.034464 5.2957087 0.71555179
2.7944698 3.1809301 -1.2029884
12.047452 5.3139009 1.0274855
3.026602 3.2332282 -1.171672
12.045248 5.3289089 1.3421001
3.5538516 3.3469043 -1.2043606
12.074779 5.3510151 1.6600817
6.1205153 3.8845825 -1.6824104
11.859603 5.3179235 1.9436021
6.6875973 4.0114756 -1.6235408
11.290695 5.2040715 2.1577964
0.63344032 2.7113466 -1.0471706
7.9721541 4.2641044 -1.664564
0.732126 2.7323208 -1.0535455
9.7908325 4.6531429 -1.7316284
0.84379745 2.7559581 -1.062771
10.44487 4.8027673 -1.5582764
0.95671135 2.7800975 -1.0672214
10.502772 4.8285518 -1.2883296
1.0302734 2.7969985 -1.0462978
10.739641 4.8921638 -1.0339752
1.2143435 2.8353148 -1.0745535
12.03128 5.1806993 -0.83303535
1.3807805 2.8706617 -1.085867
12.050396 5.2001166 -0.5223307
1.4652245 2.8904057 -1.0548664
12.046742 5.2145457 -0.21311937
1.73839 2.9474254 -1.093613
12.069304 5.2346444 0.096174039
2.1050613 3.023633 -1.1524061
12.063211 5.2486873 0.40817916
2.3899024 3.0844493 -1.1652484
12.083298 5.2683549 0.71974063
2.7948823 3.1700087 -1.2018955
12.082599 5.2835536 1.0315228
2.9798868 3.2121139 -1.1573379
12.093927 5.3015842 1.3482385
12.119491 5.3227739 1.666684
6.1248207 3.8647575 -1.6814348
11.851944 5.2786598 1.9429717
6.7364197 3.9991527 -1.6315598
11.255836 5.1603498 2.1518862
0.62102318 2.704103 -1.0386126
7.9103022 4.223793 -1.651068
0.70255274 2.7216015 -1.0352945
9.5497618 4.5703926 -1.6913333
0.83460557 2.7486219 -1.0567468
10.42105 4.7624784 -1.5525026
0.95619673 2.7740159 -1.0660181
10.471123 4.7864223 -1.2824486
1.0386181 2.792356 -1.0495107
10.784161 4.8651414 -1.0353817
1.2157395 2.8287964 -1.0742331
12.068857 5.1482649 -0.83290309
1.3912983 2.8653741 -1.0894862
12.09388 5.1689029 -0.52170867
1.4995537 2.8894486 -1.0680022
12.094137 5.1842256 -0.21171319
1.7621608 2.9436269 -1.1016932
12.116706 5.2042947 0.098510876
2.1144297 3.0159206 -1.1546072
12.106674 5.2175608 0.41131243
2.3808463 3.0722485 -1.1610439
12.122824 5.2363644 0.72348112
2.7596927 3.1513801 -1.1898555
12.118168 5.250741 1.0356816
3.0788705 3.2195411 -1.1837817
12.129427 5.2687626 1.3530511
3.5423615 3.3173547 -1.1987132
12.154933 5.2898922 1.6721444
6.1159415 3.8409867 -1.6773199
11.834986 5.2350998 1.9409509
6.7336373 3.9747071 -1.6288559
11.227062 5.1159945 2.1471059
0.62191093 2.699904 -1.0384057
7.8862472 4.1947002 -1.6447016
0.71541548 2.719346 -1.0420759
9.9082642 4.614151 -1.7449899
0.83043265 2.7429185 -1.0536336
10.400138 4.7271061 -1.5474455
0.96076351 2.7695851 -1.0676062
10.454069 4.7516704 -1.2784549
1.036202 2.7864089 -1.0474977
10.827764 4.8419938 -1.0369778
1.1401358 2.8086872 -1.0380503
12.115176 5.1222134 -0.83357173
1.3565211 2.8523636 -1.0733294
12.136325 5.1420255 -0.52129996
1.491817 2.8812227 -1.0639361
12.142472 5.1586194 -0.21054359
1.737946 2.9315267 -1.0914514
12.157218 5.177032 0.10056949
2.1068759 3.0060315 -1.150894
12.145194 5.1899443 0.41409519
2.4630001 3.0789876 -1.187202
12.167171 5.2099824 0.72735161
2.7655244 3.1423187 -1.1905223
12.170247 5.2260728 1.0410751
3.1984518 3.2319245 -1.2160909
12.173629 5.2424188 1.3586844
3.660989 3.3284321 -1.2276778
12.183517 5.2601533 1.6766268
6.1236954 3.8231711 -1.6772839
11.822744 5.197381 1.9396048
6.7686682 3.9606605 -1.6341649
11.183775 5.0731268 2.1396878
0.61454695 2.6933804 -1.0329587
7.9886527 4.1859612 -1.6607168
0.74211007 2.7185602 -1.0568062
9.8921175 4.5753269 -1.7396815
0.82643604 2.7362933 -1.0504762
10.368677 4.683589 -1.5405642
0.93930489 2.7593727 -1.0553677
10.422546 4.7079196 -1.2724935
1.0640502 2.7848983 -1.060331
10.878451 4.8136191 -1.0387487
1.132587 2.8003793 -1.0335487
12.156995 5.0878716 -0.8335411
1.3851364 2.8500295 -1.0848521
12.174276 5.1068668 -0.52033126
1.504374 2.8754902 -1.0680487
12.182392 5.1238775 -0.20890242
1.7636359 2.9274716 -1.1002092
12.195176 5.1418781 0.10293265
12.190956 5.1564898 0.41743225
2.38117 3.0521665 -1.1588538
12.208992 5.1756787 0.73134196
2.7755022 3.1319904 -1.1922374
12.213951 5.1921983 1.0460138
3.0667262 3.1928658 -1.1778666
12.221148 5.2093863 1.3648767
3.7306988 3.3267927 -1.2439032
12.238688 5.2287617 1.6847583
6.1743011 3.8098354 -1.6867214
11.81564 5.1538897 1.9391832
6.8545489 3.9522057 -1.6494989
11.155137 5.02707 2.1349924
0.61546195 2.68892 -1.0327394
7.9222574 4.146986 -1.6466285
0.72261989 2.7101636 -1.0445781
9.8905849 4.5434618 -1.7369809
0.82747269 2.7312422 -1.0502275
10.347928 4.6465397 -1.5354232
0.93340832 2.7527614 -1.0514312
10.397857 4.6699018 -1.2675762
1.0634534 2.7788658 -1.0591742
10.920433 4.7875485 -1.0400563
1.1141233 2.7909169 -1.024081
12.199747 5.0582871 -0.83384043
1.3810718 2.8424296 -1.0821494
12.219027 5.0776806 -0.5198586
1.503973 2.8682146 -1.066957
12.22128 5.0935249 -0.20747665
1.8001728 2.9262652 -1.1132385
12.237991 5.1123261 0.10514688
2.114378 2.9883909 -1.1513168
12.225898 5.1253791 0.42021
2.3849638 3.0431237 -1.1590092
12.249776 5.145751 0.73511684
2.811542 3.1278968 -1.2020463
12.258583 5.1630974 1.0508995
3.1429467 3.1955996 -1.1979414
12.257901 5.1786642 1.3698137
3.7505507 3.3169165 -1.2476099
12.269543 5.1967897 1.689626
6.191813 3.7924414 -1.6888083
11.815223 5.1165628 1.9397402
6.8763618 3.9336905 -1.6519622
11.121607 4.9846253 2.1293876
0.6232155 2.6850429 -1.0366483
7.8447275 4.1030903 -1.6303233
0.73224038 2.7062702 -1.0493087
9.6470423 4.4610438 -1.696418
0.83726907 2.7270527 -1.0547408
10.306437 4.6015253 -1.5272838
0.96088296 2.7513251 -1.0649009
10.362129 4.6257915 -1.2612162
1.0523572 2.7702575 -1.0527252
10.955374 4.7555585 -1.0404974
1.1226134 2.7856007 -1.0270925
12.247292 5.0246372 -0.83413535
1.3789568 2.8343596 -1.080201
12.260727 5.0428557 -0.51900762
1.4672217 2.8534937 -1.0508524
12.272803 5.0606971 -0.20595519
1.7172346 2.9021482 -1.0803603
12.283623 5.0783114 0.10762282
2.0587914 2.9681387 -1.130321
12.279343 5.0930309 0.42384934
2.4301288 3.0404725 -1.1726922
12.291433 5.1109838 0.73913062
2.8064151 3.1145806 -1.1991657
12.302131 5.1287289 1.0558628
3.0583453 3.1663623 -1.1729816
12.307215 5.1455288 1.3762401
3.7382951 3.2991858 -1.2430091
12.310971 5.1620331 1.6960024
6.1867771 3.768096 -1.6855063
11.809791 5.0735874 1.9396149
6.8331866 3.8998432 -1.6409206
11.10229 4.9409938 2.1264029
0.62073642 2.679996 -1.0343497
7.9135036 4.0905075 -1.6405567
0.73831892 2.7023439 -1.0520691
9.9365444 4.4852271 -1.7389235
0.84520215 2.7231493 -1.0583234
10.279584 4.5636959 -1.5213935
0.92517936 2.7395825 -1.0453665
10.341083 4.5888815 -1.2567332
1.0658889 2.7667217 -1.0585757
11.003099 4.730197 -1.0422711
1.1918323 2.7916017 -1.0584881
12.276199 4.9919252 -0.83359718
1.3223827 2.8175802 -1.0545501
12.303388 5.0128226 -0.51844233
1.5069335 2.8534565 -1.0662305
12.30764 5.0291238 -0.20446064
1.6818864 2.8880281 -1.0658858
12.330225 5.0490775 0.10990597
2.0158966 2.9516263 -1.1140245
12.323944 5.0634594 0.42699632
2.3964598 3.0244989 -1.1604946
12.339903 5.082202 0.74339175
2.8085179 3.1040058 -1.1986445
12.340773 5.0979824 1.0602845
3.2199473 3.1843715 -1.2168168
12.339933 5.1136026 1.3807806
3.7981687 3.2966042 -1.2568593
12.35334 5.1320953 1.7024168
6.1965117 3.7491603 -1.6858351
11.80527 5.0355282 1.9395674
6.8452349 3.8794746 -1.6414168
11.1225 4.9100842 2.1304917
0.61992741 2.6752415 -1.0330908
7.8931899 4.0609999 -1.6348268
0.7529372 2.6998072 -1.0598212
9.932806 4.4529328 -1.7359171
0.85832328 2.7200732 -1.0647798
10.264291 4.5282269 -1.5170403
0.95426488 2.7389889 -1.0597804
10.35118 4.5580158 -1.2555943
1.0741017 2.7622108 -1.0617961
1.1733141 2.782145 -1.0490198
12.328545 4.9635715 -0.834445
1.3471742 2.8152175 -1.0645189
12.345984 4.9825644 -0.51786625
1.4772329 2.8410859 -1.053171
12.360057 5.0008059 -0.20316483
1.7589242 2.8938727 -1.0944201
12.378723 5.0199828 0.11222481
2.145781 2.9659615 -1.1592426
12.356725 5.0313416 0.42973483
2.3814552 3.0120606 -1.1544755
12.382454 5.052 0.74731594
2.8237941 3.0957947 -1.2021335
12.389112 5.0689754 1.0655291
3.2184539 3.1719513 -1.2151831
12.386224 5.0842352 1.3867934
3.8657045 3.2950811 -1.2726239
12.401469 5.1031065 1.7096074
6.2023616 3.7294722 -1.6852856
11.804502 4.998291 1.9401201
6.9189482 3.870441 -1.6544714
11.169649 4.8845711 2.1394467
0.61583734 2.6693902 -1.0297265
7.9237671 4.0377364 -1.6379566
0.74885756 2.6935191 -1.0565575
9.8071728 4.3943691 -1.7137898
0.86810154 2.7157097 -1.0692842
10.237947 4.4867907 -1.5109715
0.94141054 2.7305808 -1.0521443
10.399112 4.5300837 -1.2582138
1.0718012 2.7551575 -1.0597266
12.62556 4.9603524 -1.1718309
1.1315908 2.7681279 -1.0286874
12.583836 4.9683757 -0.84697855
1.2616553 2.7931376 -1.0261939
12.411002 4.9515281 -0.51780999
1.3836505 2.8170848 -1.013904
12.399568 4.9649286 -0.20146593
1.7402973 2.8817606 -1.0862458
12.420205 4.9844575 0.11469188
2.1588349 2.9580779 -1.1627249
12.406013 4.9974394 0.43327352
2.4003603 3.0044484 -1.1595062
12.421907 5.0161486 0.7512483
2.8676198 3.0911641 -1.2141396
12.42656 5.0327468 1.0700405
3.2627828 3.1661839 -1.2261474
12.431398 5.0495801 1.392838
3.7005162 3.2497816 -1.2293941
12.44265 5.0676608 1.7160187
6.1951933 3.7048364 -1.6815491
11.790913 4.9539299 1.9387821
6.9584708 3.8519311 -1.6603098
11.209843 4.8530188 2.1472313
0.64021504 2.6692324 -1.044071
8.0732975 4.0421586 -1.662842
0.75821894 2.6906576 -1.0613397
0.86029452 2.7097883 -1.0642726
10.209979 4.4533424 -1.5052968
0.9598484 2.7287402 -1.0610799
10.445479 4.5098376 -1.2612125
1.0638819 2.7486787 -1.0551049
12.669121 4.9340134 -1.1732682
1.137955 2.7638545 -1.0309321
12.676499 4.9513178 -0.85043192
1.2699456 2.7888665 -1.0290864
12.686394 4.9691896 -0.5256393
1.5164516 2.833518 -1.0674454
12.486361 4.9474301 -0.20078081
1.7360246 2.8741689 -1.0838039
12.463764 4.9588127 0.11675651
2.1379695 2.9465785 -1.154417
12.439716 4.9700007 0.43587112
2.3381827 2.9851847 -1.1381365
12.46342 4.9902024 0.75496358
2.8259814 3.0742102 -1.2005129
12.477797 5.0087123 1.0754036
3.3559668 3.1717873 -1.250966
12.478632 5.0248055 1.3988529
3.78297 3.2525043 -1.2490962
12.481974 5.0413623 1.7219783
6.1985245 3.6873093 -1.6806852
11.781319 4.9197159 1.9379059
6.9833889 3.836339 -1.6636662
11.242551 4.82862 2.1535633
0.6175192 2.6604576 -1.0292869
8.063097 4.0109811 -1.658674
0.74725628 2.6833096 -1.0540847
9.6880922 4.3109202 -1.6907185
0.87351871 2.7059202 -1.0706892
10.181409 4.4119048 -1.4989904
0.94694674 2.7203941 -1.053447
10.493312 4.4813714 -1.2638072
1.0668607 2.7425346 -1.0556628
12.722253 4.8993421 -1.1748716
1.1356113 2.7566094 -1.0289382
12.72381 4.9156127 -0.85062444
1.3347206 2.792202 -1.0564029
12.733742 4.9335074 -0.52489644
1.483145 2.8199153 -1.0528595
12.738118 4.950263 -0.20145564
1.7099266 2.861012 -1.0728221
12.756743 4.9696832 0.12233464
2.1007082 2.9302092 -1.1400627
12.508506 4.939281 0.44014293
2.4208024 2.9884157 -1.1641213
12.512524 4.9557681 0.75950366
2.8395526 3.0641828 -1.2033556
12.522916 4.9735255 1.0805904
3.3756258 3.1611061 -1.2550402
12.517794 4.9885297 1.4042937
3.7226548 3.2266121 -1.2324455
12.530792 5.0069652 1.7294368
6.2335067 3.6701207 -1.6865666
11.777171 4.8774137 1.9380679
6.982275 3.810307 -1.6612569
11.284521 4.7970266 2.1617196
0.60487211 2.6536522 -1.0207498
8.130146 3.9949489 -1.6684086
0.75334048 2.6789675 -1.0568248
9.8692207 4.3099394 -1.7161372
0.87800294 2.7009525 -1.072332
10.158195 4.3736482 -1.4935511
0.98137146 2.7199001 -1.0705734
10.53091 4.4529052 -1.2654479
1.0857468 2.7392688 -1.0641074
12.763096 4.8646646 -1.1756098
1.1295857 2.7491808 -1.0252978
12.768623 4.8816872 -0.85080624
1.3432431 2.7864957 -1.0592246
12.768759 4.8978291 -0.52384889
1.4075785 2.8001151 -1.0211239
12.779058 4.9156804 -0.19982442
1.6984642 2.8509097 -1.0675014
12.805545 4.9365215 0.12485448
2.1228807 2.9244409 -1.1468754
12.793009 4.9503675 0.4521417
2.4433079 2.9817562 -1.1703999
12.704412 4.9499903 0.77251381
2.8605435 3.0560145 -1.2085141
12.56751 4.9404459 1.0856736
3.3837121 3.1491437 -1.2559853
12.564249 4.955862 1.41047
3.6429391 3.1986642 -1.2110355
12.569349 4.9728184 1.7355111
6.2624564 3.6530085 -1.6911901
11.776358 4.8381233 1.9387231
7.0330091 3.7946911 -1.669488
11.333769 4.7688208 2.1711726
0.62084371 2.6517725 -1.0298834
8.1267014 3.9697781 -1.6658516
0.75073516 2.6739039 -1.0546058
9.9484177 4.2942996 -1.7261181
0.87714899 2.6958156 -1.0711352
10.132197 4.3390794 -1.4880574
0.9735164 2.7134056 -1.0657407
10.55596 4.4262056 -1.2660347
1.0742848 2.7319145 -1.0577211
12.808874 4.8356047 -1.1770563
1.1557388 2.7475982 -1.0366774
12.814468 4.8526716 -0.85132748
1.2173107 2.7602959 -1.0036293
12.830379 4.8716645 -0.52398103
1.4545155 2.8011703 -1.0394851
12.824942 4.8867426 -0.19848397
1.7847564 2.8575826 -1.0995207
12.847497 4.906848 0.12707634
2.1429892 2.919342 -1.1530741
12.827074 4.9193373 0.45491713
2.2834342 2.9463673 -1.1170042
12.868015 4.942904 0.78369397
2.875603 3.0481434 -1.2120184
12.86407 4.9583678 1.1116841
3.2468433 3.1146364 -1.2169591
12.61369 4.9283996 1.4168468
3.9074183 3.2304592 -1.2764281
12.61086 4.9439178 1.7418753
6.2774334 3.6359959 -1.6928748
11.772684 4.8029461 1.9388554
7.0774169 3.7806091 -1.6766669
11.37056 4.7424598 2.1783359
0.63691908 2.6492443 -1.0389854
8.1897936 3.9525576 -1.6748686
0.76022625 2.6700296 -1.0593386
9.8391571 4.2424355 -1.7068666
0.84165454 2.684844 -1.0507722
10.114599 4.3021264 -1.4833944
0.98510015 2.7091932 -1.070949
10.609113 4.4000711 -1.2693135
1.0700362 2.7250004 -1.0547988
12.847588 4.8001471 -1.1776127
1.1029437 2.7329545 -1.0114038
12.859133 4.8182707 -0.85148549
1.218473 2.7537699 -1.0033067
12.873109 4.8369284 -0.52318299
1.3696482 2.7804484 -1.0040418
12.873598 4.8531022 -0.19691585
1.780673 2.8484969 -1.0970058
12.894189 4.8728418 0.12959647
2.0066607 2.8880963 -1.1037968
12.889459 4.8882422 0.45894137
2.3997707 2.9550838 -1.1540707
12.914634 4.9089227 0.78807724
2.8568289 3.033329 -1.2051705
12.9106 4.9244256 1.116992
3.2947829 3.1095462 -1.2289793
12.916337 4.9418983 1.4506547
3.8831892 3.2115512 -1.268973
12.670717 4.9132905 1.7507941
6.2697177 3.6125541 -1.6891965
11.763875 4.7622857 1.9382968
7.0700669 3.7547746 -1.6731437
11.408072 4.7116079 2.1857207
0.62760413 2.6429825 -1.0325255
7.9962859 3.8926663 -1.6383694
0.76799601 2.6658554 -1.063071
9.9520607 4.2281728 -1.7217258
0.87736171 2.6845222 -1.0696341
10.083181 4.2630115 -1.4769645
0.99667567 2.7049212 -1.0761538
10.660254 4.3733048 -1.2723701
1.0728824 2.7191792 -1.0553713
12.896049 4.7661524 -1.1789597
1.1417942 2.7324672 -1.0285658
12.903715 4.7836275 -0.85163099
1.2141664 2.7464123 -1.0006171
12.917738 4.8022938 -0.52243972
1.3158488 2.7650189 -0.98131031
12.918226 4.8185134 -0.19529215
1.774708 2.8391566 -1.0937902
12.940791 4.838582 0.1321293
2.0679104 2.8885541 -1.1244632
12.924218 4.8519673 0.46197614
2.4372468 2.9506755 -1.1652629
12.951342 4.8729405 0.7918824
2.8663957 3.0231462 -1.2068936
12.953139 4.8895383 1.1219839
3.2360365 3.0871058 -1.2115126
12.958786 4.9070177 1.4564837
3.9374592 3.2054682 -1.2812517
12.699285 4.8766994 1.7556169
6.2985325 3.595118 -1.6938035
11.764649 4.7234626 1.9392511
7.0587611 3.7283649 -1.6688424
11.453245 4.6819735 2.1945143
0.60297477 2.6349139 -1.0167503
8.099781 3.8836756 -1.6547008
0.75338793 2.6587696 -1.0538599
9.988555 4.2027512 -1.7249987
0.88868827 2.6808267 -1.0751153
10.080664 4.2308383 -1.4744303
0.99586809 2.6991353 -1.0749657
10.709022 4.3479643 -1.2753069
1.0792115 2.714221 -1.0577087
12.945983 4.7346373 -1.1805731
1.1662073 2.7299962 -1.0390825
12.949778 4.7514896 -0.85199785
1.220675 2.7410922 -1.0026823
12.959891 4.7695084 -0.52173698
1.4472344 2.7782378 -1.0339597
12.960402 4.7857709 -0.19375488
1.7538195 2.8280797 -1.084977
12.980989 4.8054743 0.13447879
2.0675142 2.8797536 -1.1233834
12.974233 4.8206496 0.46547806
2.3166411 2.922225 -1.1248235
13.005241 4.8422718 0.79664379
2.8322618 3.0067906 -1.1955216
13.003029 4.8582163 1.1275262
3.3429022 3.091805 -1.2398647
13.008575 4.8757148 1.4630502
3.7730081 3.1653123 -1.23874
12.75077 4.8464975 1.7634182
6.3020358 3.5747957 -1.6928005
11.759091 4.6858239 1.9391838
7.0413275 3.7024951 -1.663442
11.492174 4.653214 2.2021635
0.64104867 2.6353374 -1.0393237
8.0907183 3.8545818 -1.6509619
0.74567151 2.6524239 -1.0486233
9.9979649 4.1708517 -1.7239912
0.88267022 2.6742969 -1.0710183
10.121481 4.2037292 -1.4773561
0.98805678 2.6920171 -1.0701008
1.065999 2.706058 -1.0504217
12.990339 4.6994686 -1.1815736
1.0988762 2.713707 -1.0071809
12.992227 4.7160387 -0.8520056
1.2108705 2.7329617 -0.99762732
13.016185 4.7363706 -0.52137154
1.4227514 2.7672358 -1.0231637
13.012768 4.7520342 -0.19218969
1.7866783 2.8246546 -1.0965195
13.029416 4.7710671 0.13706185
2.1325352 2.8802505 -1.1453401
13.020642 4.7859678 0.46896824
2.4029737 2.9252796 -1.1519995
13.05162 4.8075395 0.80106467
2.8588107 2.9992452 -1.2023782
13.053258 4.8242011 1.1332022
3.4614086 3.0969086 -1.2713041
13.03715 4.8379846 1.467423
3.8348649 3.1604457 -1.252943
12.785007 4.8105721 1.7690331
6.3076158 3.5534973 -1.6921707
11.755749 4.6463637 1.9395281
7.0879755 3.6854286 -1.670849
11.529454 4.6217327 2.2095809
0.65206796 2.6316032 -1.0452901
8.1227131 3.8303432 -1.6543707
0.75172895 2.6476951 -1.0513442
10.122867 4.1550846 -1.7404735
0.88886368 2.6691542 -1.0735966
10.1645 4.1747594 -1.4804271
0.9749921 2.6838689 -1.0624787
11.428251 4.3892632 -1.3458494
1.0545933 2.6978755 -1.0439938
13.031093 4.6609807 -1.1821227
1.0981603 2.7069163 -1.0060279
13.036965 4.6782289 -0.85199481
1.2120159 2.7260714 -0.99728733
13.055046 4.6975708 -0.52027041
1.3542078 2.7495975 -0.99446481
13.051637 4.7132888 -0.19034712
1.7955363 2.8170366 -1.0988991
13.066316 4.7319775 0.13962257
2.0967898 2.8649702 -1.131686
13.06147 4.7476001 0.47237349
2.4160361 2.9163237 -1.1551611
13.094377 4.7694402 0.805381
2.841855 2.984344 -1.1960822
13.09988 4.7867894 1.1386819
3.4560952 3.0818033 -1.2685137
13.101318 4.8036509 1.4757376
3.7913139 3.1383133 -1.2406696
12.837143 4.7750721 1.7770959
6.3172059 3.5314951 -1.6923469
11.74485 4.6033816 1.9387656
7.1018815 3.6615891 -1.6715482
11.56702 4.5878601 2.2171152
0.66298878 2.6283755 -1.0512824
8.1833334 3.8135724 -1.6630803
0.76283383 2.6442256 -1.0570812
10.098597 4.1195774 -1.7344775
0.90190637 2.6655693 -1.0800271
10.198983 4.1482258 -1.4826708
0.98117107 2.679122 -1.0649521
11.467318 4.3598628 -1.3476329
1.055521 2.6921873 -1.0437137
13.080795 4.6287117 -1.1836976
1.2234468 2.7183719 -1.0630612
13.082786 4.6453829 -0.85232592
1.3185887 2.7347522 -1.0427091
13.104857 4.6653566 -0.51979792
1.4214256 2.7524428 -1.02097
13.101458 4.6811366 -0.18885548
1.7226422 2.7986822 -1.070437
13.12403 4.7011189 0.14224176
2.064548 2.851522 -1.1194104
13.125053 4.7177792 0.47642544
2.4345322 2.9093037 -1.1602207
13.138213 4.7363405 0.809587
2.8454919 2.973947 -1.1961254
13.137747 4.7527275 1.14327
3.488658 3.0739374 -1.2763063
13.107716 4.7643752 1.4776748
4.1525745 3.1785936 -1.3297739
12.882549 4.7431045 1.7841614
6.3224592 3.5114136 -1.6917768
11.735044 4.5652552 1.9380828
7.1637483 3.6478529 -1.68212
11.617364 4.5604873 2.226897
0.63827211 2.6205063 -1.0355173
8.1913214 3.7885766 -1.6625046
0.7739352 2.6406946 -1.0628147
10.138757 4.0939789 -1.7383071
0.89752191 2.6596184 -1.0769012
10.237324 4.1221023 -1.4854087
1.0049713 2.6766906 -1.0765665
11.514175 4.3314648 -1.3502278
1.0671329 2.6879344 -1.0486672
13.134373 4.596787 -1.1855773
1.2406597 2.7144194 -1.0702314
13.128535 4.612288 -0.85264432
1.3451118 2.7318296 -1.0534245
13.142745 4.6310182 -0.51891565
1.4280157 2.7464967 -1.0228728
13.153177 4.6490355 -0.18737008
1.7034509 2.7882724 -1.0623453
13.163906 4.667119 0.14463681
2.1388421 2.8533273 -1.1446577
13.16293 4.6834893 0.47954136
2.3361886 2.8855143 -1.1272168
13.187874 4.7039599 0.81416351
2.8509984 2.9638071 -1.1967381
13.18931 4.7207112 1.1490306
3.3779769 3.045095 -1.244718
13.196437 4.7385988 1.4885362
4.0933962 3.1552596 -1.3137149
12.929823 4.7112222 1.7914968
6.3469691 3.4941621 -1.6955519
11.727076 4.5275106 1.9377036
7.1615686 3.6242514 -1.6798292
11.661833 4.5318551 2.2356408
0.65430689 2.6176147 -1.0446004
8.1020374 3.7476206 -1.644698
0.76787114 2.6346078 -1.0585759
10.226109 4.0731807 -1.7491639
0.89839971 2.6540408 -1.0766256
10.270035 4.0929437 -1.4872855
1.0111902 2.6714835 -1.0790172
11.535741 4.2967873 -1.3500386
1.0591686 2.6806827 -1.0440056
13.178396 4.5606213 -1.1865284
1.1839786 2.7001476 -1.0433394
13.176552 4.5767994 -0.85294139
1.3225138 2.7217431 -1.0428426
13.198722 4.5967588 -0.51849419
1.4567318 2.7430902 -1.0336902
13.19534 4.6126599 -0.18565229
1.5525434 2.7594543 -1.0044327
13.211991 4.6316795 0.1472715
2.009335 2.8259511 -1.0981512
13.205059 4.6471658 0.48293567
2.3961804 2.8838344 -1.145751
13.233916 4.6682258 0.81863451
2.8945527 2.9583225 -1.2087005
13.249051 4.6872096 1.1555904
3.3093116 3.0221143 -1.2246662
13.238384 4.7022743 1.494439
4.2053151 3.1559162 -1.3403008
12.969588 4.6754022 1.7979293
6.3793688 3.4766178 -1.7009943
11.721292 4.4879403 1.9377337
7.1653633 3.6001034 -1.6786377
11.700752 4.4998293 2.2434528
0.66006356 2.6139565 -1.0474954
8.1505566 3.7303224 -1.6514083
0.7599709 2.6289506 -1.0533741
10.222802 4.0427155 -1.7465286
0.90090221 2.649334 -1.077337
10.305985 4.0681138 -1.4898493
1.0208199 2.6673884 -1.0833281
11.59786 4.27248 -1.3543576
1.0724888 2.6769476 -1.0498459
13.229462 4.5303373 -1.1883452
1.229964 2.7003541 -1.0638089
13.231638 4.5471754 -0.85391849
1.3963521 2.7253089 -1.0740483
13.243978 4.5656452 -0.51797438
1.4301155 2.7330351 -1.0222095
13.246543 4.5825086 -0.18426317
1.813457 2.7877402 -1.102276
13.271084 4.6027513 0.14983812
2.0760508 2.8270087 -1.1207807
13.256207 4.6170955 0.48646659
2.3070135 2.8625917 -1.1158745
13.283049 4.6378193 0.82311451
2.8980184 2.9484401 -1.2087685
13.288264 4.6552572 1.160257
3.2709043 3.0052829 -1.213099
13.283407 4.6713099 1.5005343
3.9747546 3.1096039 -1.2816458
12.988932 4.6411071 1.8015441
6.3649454 3.4548845 -1.6961371
11.747893 4.4581752 1.9427267
7.1123328 3.5707207 -1.6663151
11.740859 4.4723334 2.2514064
0.66594255 2.6094046 -1.0503459
8.2407541 3.7137666 -1.6650614
0.77802366 2.625566 -1.0630537
10.327994 4.0217505 -1.7599231
0.90179873 2.6434183 -1.0770452
10.348666 4.0380282 -1.492865
1.0164757 2.6604357 -1.0802768
11.643222 4.2386813 -1.3564954
1.1038291 2.6743093 -1.0643455
13.275687 4.4914746 -1.1893063
1.2635109 2.697536 -1.078401
13.273957 4.5077825 -0.85373044
1.3828952 2.7159638 -1.0673807
13.308083 4.5294857 -0.51766169
1.501219 2.7345386 -1.0501131
13.290878 4.5434608 -0.18241699
1.777643 2.774087 -1.0878234
13.315432 4.563674 0.15256871
2.0194559 2.8097148 -1.0999305
13.296567 4.5775023 0.48993349
2.2746143 2.8477178 -1.1043302
13.339156 4.6005864 0.82833701
2.9169645 2.9385633 -1.2132851
13.336411 4.6168399 1.1659694
3.288224 2.9940124 -1.2166332
13.325558 4.6320333 1.5065823
3.9925032 3.0961547 -1.2847096
12.997527 4.5975738 1.8039674
6.3684373 3.4318132 -1.6949968
11.785176 4.4231501 1.9495826
7.1783595 3.5540051 -1.6774874
11.783848 4.4382787 2.2600522
0.66500998 2.6040277 -1.0490551
8.2606535 3.6869674 -1.666369
0.7840119 2.620647 -1.0657634
10.358726 3.9897914 -1.7620251
0.89394975 2.6364551 -1.0719824
10.389314 4.0074258 -1.4956168
1.0138736 2.653729 -1.0781413
11.682589 4.2038007 -1.3580079
1.0922911 2.666223 -1.057922
13.323762 4.4526434 -1.1904124
1.1905069 2.6813064 -1.044046
13.324073 4.4692984 -0.85397685
1.4296041 2.7142501 -1.0866903
13.338462 4.4880848 -0.51622683
1.4618537 2.7216096 -1.0333629
13.335118 4.5041652 -0.18055873
1.8142319 2.7699375 -1.1007081
13.351759 4.5231819 0.15520045
2.1426244 2.8160281 -1.1421723
13.352633 4.5400395 0.49400792
2.2685781 2.8365054 -1.1013747
13.377408 4.5603833 0.83248806
2.8978691 2.9235644 -1.2064284
13.382478 4.577867 1.1715291
3.5408549 3.0139594 -1.2845944
13.349906 4.5898337 1.5107208
12.98442 4.5507178 1.8035365
6.3776612 3.409523 -1.6951587
11.82041 4.3876228 1.9561424
7.1802096 3.5281196 -1.675835
11.811175 4.4015651 2.2658954
0.66219401 2.5996156 -1.046788
8.0764704 3.6390085 -1.6324306
0.78463924 2.6163316 -1.0655502
10.34903 3.960227 -1.7585833
0.89461583 2.6318698 -1.0717564
10.426768 3.9842715 -1.4985006
1.0092804 2.6482239 -1.0751609
11.71861 4.1772609 -1.359742
1.0680034 2.6581511 -1.0454752
13.36635 4.4229794 -1.1916817
1.187665 2.6755586 -1.0421261
13.380555 4.4416399 -0.85514784
1.3720617 2.7011857 -1.0612218
13.398952 4.4610252 -0.51631218
1.6230166 2.7355404 -1.0977647
13.391663 4.4766135 -0.1793098
1.8728471 2.7703376 -1.122084
13.398399 4.4942188 0.15751673
2.0800157 2.8003163 -1.119463
13.393316 4.5102534 0.49708059
2.3603797 2.8401761 -1.1303834
13.429906 4.5323138 0.83712357
2.9087534 2.9153171 -1.2088016
13.430939 4.549243 1.1769401
3.3568046 2.9786692 -1.2332586
13.321556 4.5498662 1.5088122
3.9638524 3.0640655 -1.2752059
12.981529 4.5154576 1.8041792
6.3996305 3.3941264 -1.6986037
11.867945 4.3629112 1.9644111
7.1578274 3.5047975 -1.6698101
0.67143661 2.5953889 -1.0517039
8.3989592 3.6526766 -1.6867089
0.77163428 2.6092267 -1.0573229
10.330569 3.9215107 -1.7532759
0.90069687 2.6265707 -1.0743256
11.316837 4.0675683 -1.6091913
0.99956459 2.6407423 -1.0693758
11.75978 4.1422057 -1.3614368
1.1046872 2.6558886 -1.0625752
13.428073 4.3855124 -1.193863
1.2627449 2.6775036 -1.075775
13.424568 4.4017458 -0.85503149
1.4132819 2.6985941 -1.0781604
13.443007 4.4211216 -0.51530617
1.6131215 2.7260189 -1.0929008
13.437696 4.4370618 -0.1774423
1.6602705 2.7352161 -1.0411261
13.45235 4.4558072 0.16042607
2.1020098 2.7932491 -1.1262099
13.44921 4.4721928 0.5011847
2.4790137 2.8443027 -1.1678216
13.481795 4.4936233 0.84214872
2.9162021 2.9038157 -1.2099018
13.480785 4.5103068 1.182861
3.2266197 2.9482102 -1.1964779
13.272863 4.4969211 1.5050344
3.9121327 3.0415974 -1.2610523
12.974041 4.4696145 1.8045223
6.3758225 3.3674273 -1.6913977
11.912792 4.3284082 1.9725231
7.2081594 3.4853554 -1.6778486
0.68059099 2.5916901 -1.0566475
8.314661 3.6151185 -1.6700561
0.77059197 2.6041379 -1.0560871
10.454621 3.905571 -1.7697479
0.88745022 2.6197596 -1.0664382
11.329489 4.0342908 -1.6084957
1.002106 2.6354089 -1.0700155
11.800238 4.1113729 -1.363338
1.123389 2.6520991 -1.0709944
13.47321 4.350605 -1.1950183
1.2961676 2.674993 -1.0903821
13.473703 4.3674431 -0.85548395
1.4087353 2.6912651 -1.0754706
13.496146 4.387362 -0.51485729
1.63995 2.7218227 -1.1029474
13.486896 4.4028301 -0.17584617
1.7505925 2.7385073 -1.0743556
13.50749 4.4224162 0.16313003
2.1088386 2.7853184 -1.1277536
13.498365 4.4380279 0.50483018
2.3612876 2.8201103 -1.1287917
13.523002 4.4582963 0.84633034
2.9367533 2.8952818 -1.2150407
13.535729 4.4769855 1.1890501
3.161211 2.9281139 -1.1775906
13.284308 4.458015 1.5076408
4.1221409 3.0541124 -1.3119825
12.969655 4.4292789 1.8051422
6.4154925 3.3515677 -1.6986039
11.949092 4.2970066 1.9791996
7.2288618 3.4647455 -1.680204
13.273622 4.507185 2.5330234
0.67611754 2.5865073 -1.0533152
8.3514452 3.5933752 -1.6745734
0.77126116 2.5992432 -1.0558449
10.42759 3.8696404 -1.763446
0.90214884 2.6160488 -1.0738065
11.408964 4.009572 -1.6162746
1.0134778 2.6310301 -1.0752143
11.84852 4.0813494 -1.3660418
1.0687122 2.6400509 -1.043721
13.52418 4.3162398 -1.1966319
1.2807565 2.6667957 -1.0826118
13.516833 4.332088 -0.85559112
1.3639681 2.6793852 -1.05549
13.537333 4.3517327 -0.51401073
1.6483285 2.7153521 -1.1055568
13.537998 4.3686056 -0.17425415
1.6939416 2.7241473 -1.0522902
13.556605 4.3879161 0.16576247
2.18132 2.7850952 -1.1522547
13.545463 4.4033351 0.50841254
2.3984847 2.8150582 -1.1399521
13.570051 4.4235787 0.85088915
2.9115925 2.8811283 -1.2065568
13.578772 4.4417148 1.1942453
3.3122663 2.9347401 -1.2177958
13.289746 4.4182243 1.5096055
12.914114 4.3817363 1.7989823
6.4086223 3.3297167 -1.6954219
11.99119 4.2662554 1.9868063
7.1969438 3.4374342 -1.6721067
13.316078 4.4727588 2.5416882
0.67170382 2.5807748 -1.0499566
8.3162489 3.5592504 -1.6663104
0.7719968 2.5937352 -1.0555724
10.528558 3.8458033 -1.7761316
0.89594394 2.6093955 -1.0697021
11.451577 3.9753819 -1.6190858
1.0072358 2.6240053 -1.0712572
11.889425 4.0455866 -1.3676997
1.0874789 2.6355419 -1.0521041
13.575755 4.2765326 -1.1979809
1.3233285 2.6642399 -1.101308
13.568458 4.2924695 -0.85587758
1.460007 2.6825423 -1.0959852
13.589005 4.3121104 -0.51322109
1.6180582 2.7035713 -1.0925249
13.583745 4.3282576 -0.17234632
1.5479829 2.6990609 -0.99662882
13.600372 4.3472881 0.16857111
2.1713839 2.7738657 -1.1478301
13.605041 4.3649077 0.51271415
2.3412652 2.7976389 -1.1204747
13.619672 4.383791 0.85583359
2.7989337 2.8555012 -1.1719273
13.636204 4.403019 1.200882
3.3274894 2.9228468 -1.2207876
13.344978 4.3802123 1.5171915
12.91797 4.3378673 1.8008749
6.4020314 3.305336 -1.6921155
12.039686 4.2315722 1.9955682
7.1692185 3.4079461 -1.6646518
13.370801 4.4347739 2.5527265
0.60418463 2.569118 -1.0083771
8.3061447 3.5300317 -1.6625649
0.75367606 2.5866179 -1.0443902
10.423037 3.7983093 -1.7579422
0.89317268 2.6034656 -1.0675213
11.503658 3.9443202 -1.6232349
0.9902997 2.6162705 -1.0618486
11.963518 4.0159922 -1.3728975
1.1348479 2.6342893 -1.0744169
13.624912 4.238821 -1.1992853
1.2916348 2.6539326 -1.0860684
13.625597 4.2558422 -0.85660404
1.4883842 2.6782517 -1.1074086
13.646204 4.2754889 -0.51273131
1.5784488 2.6914258 -1.0758126
13.638968 4.2914615 -0.17063528
1.802268 2.7195253 -1.091329
13.655582 4.3105025 0.17144367
2.1538239 2.7624154 -1.1408136
13.646347 4.3263426 0.51622134
2.4504168 2.7999721 -1.1548216
13.682712 4.3480988 0.86152464
2.9052036 2.8562632 -1.2025485
13.687298 4.3657475 1.2069032
3.233264 2.8989882 -1.1940463
13.382034 4.3419929 1.5227337
4.3191957 3.0309782 -1.3569577
12.913525 4.2953525 1.8016033
6.4301019 3.286417 -1.6966475
12.085841 4.1986132 2.0039229
7.197701 3.3867965 -1.6684809
13.425097 4.3989749 2.563659
0.63202292 2.5673108 -1.0246888
8.2194176 3.4935265 -1.6456338
0.778485 2.5841336 -1.0580524
10.582287 3.784905 -1.7796299
0.89559102 2.5984001 -1.0682144
11.525832 3.9116063 -1.6237504
1.005172 2.6121864 -1.0688683
12.001701 3.9839339 -1.3745472
1.1571023 2.6305723 -1.0845603
13.677611 4.2038689 -1.2010123
1.2779551 2.6460834 -1.079133
13.680341 4.2211962 -0.85733169
1.4362097 2.6657863 -1.084296
13.699015 4.240603 -0.51222599
1.6162972 2.6882024 -1.0903014
13.691791 4.2566524 -0.16901805
1.900147 2.7221737 -1.1272819
13.714351 4.2764616 0.17426527
2.0779197 2.7452741 -1.1135184
13.701107 4.2918849 0.52014935
2.4592092 2.7912207 -1.1567917
13.723566 4.3117938 0.86575544
2.9294627 2.8479586 -1.2088104
13.734016 4.3302436 1.2124741
3.4247005 2.9086223 -1.2451364
13.440368 4.3089271 1.5305326
4.2670469 3.010025 -1.3428789
12.910602 4.2555499 1.8024726
6.4230418 3.2646084 -1.6934665
12.129666 4.1674109 2.0118747
7.1811194 3.3616996 -1.6634917
13.469238 4.3640676 2.572715
0.68541002 2.5680265 -1.0565034
8.3418579 3.4831772 -1.6651821
0.78770286 2.5803461 -1.0627881
10.700032 3.7678809 -1.7951986
0.90145594 2.5939903 -1.0708287
11.587074 3.8855877 -1.6293323
1.0129094 2.6076798 -1.072256
12.029651 3.9527793 -1.3752903
1.147047 2.6239038 -1.0790673
13.727932 4.1709723 -1.2026979
1.3239849 2.6447368 -1.0995265
13.728746 4.1881166 -0.85784245
1.446151 2.6603928 -1.0879083
13.745478 4.2072883 -0.51164514
1.60606 2.6802526 -1.0855141
13.740248 4.2236485 -0.16748145
1.9085431 2.7154117 -1.1297045
13.762811 4.2434559 0.17682485
1.960535 2.724689 -1.0718627
13.751506 4.2592072 0.52381146
2.5019915 2.786695 -1.1697803
13.779858 4.2798605 0.87085485
2.850652 2.8290114 -1.1845204
13.790213 4.298327 1.2187777
3.4875495 2.9038477 -1.2612604
13.488461 4.2768116 1.537143
12.883671 4.2151427 1.8000784
6.4623256 3.2493825 -1.7007046
12.175093 4.138536 2.0200315
7.3105206 3.3547478 -1.6875186
13.520792 4.33249 2.5830729
0.69116622 2.5632482 -1.059342
8.3101578 3.4499621 -1.6576214
0.79183847 2.5751019 -1.0644983
10.700574 3.7307587 -1.7927971
0.90743083 2.5885634 -1.0733914
11.617516 3.84905 -1.6306049
1.0136738 2.6014099 -1.0719451
12.080095 3.9171724 -1.3779072
1.1424837 2.6166954 -1.0761288
13.779112 4.1300974 -1.2039884
1.3303044 2.6380219 -1.1016492
13.77602 4.1468363 -0.85785067
1.4232819 2.6504068 -1.0773301
13.802724 4.1671853 -0.51098311
1.5848734 2.6698966 -1.0762141
13.793537 4.1831574 -0.16558242
1.8891399 2.7042441 -1.1215739
13.816105 4.2029419 0.1798401
2.08761 2.728426 -1.1152662
13.812689 4.2197518 0.52825391
2.4976432 2.7751613 -1.1674078
13.825121 4.2384162 0.8756116
2.8387625 2.8155642 -1.1799631
