# .PCD v0.7 - Point Cloud Data file format
VERSION 0.7
FIELDS x y z
SIZE 4 4 4
TYPE F F F
COUNT 1 1 1
WIDTH 1506
HEIGHT 1
VIEWPOINT 0 0 0 1 0 0 0
POINTS 1506
DATA ascii
10.240082 -3.9236603 -2.0959091
0.62038755 1.3009645 -1.0087886
13.300882 -5.6298475 -2.2686415
0.74443287 1.2325739 -1.032729
40.25235 -20.380587 -5.3354707
0.83127844 1.185753 -1.0286499
40.340328 -20.372734 -4.2446356
0.89996719 1.149489 -1.010327
1.1219075 1.0264848 -1.0657476
15.226989 -6.6006002 -0.84799612
1.2021766 0.98424244 -1.0416577
40.948513 -20.535648 -0.97303081
1.3866179 0.88343847 -1.0598623
16.066462 -7.0116677 0.007644305
1.5124605 0.81613183 -1.0433527
40.849667 -20.369772 1.2355778
1.8903697 0.6077376 -1.117076
40.412899 -20.078638 2.3090661
2.294477 0.38576245 -1.1788594
40.31073 -19.967955 3.3972569
2.5836473 0.22908445 -1.1805681
2.9812412 0.01281579 -1.1995209
3.6797981 -0.3694143 -1.2771277
4.4510384 -0.78990221 -1.3331252
6.4017458 -1.8596202 -1.5959852
10.318592 -4.0068974 -2.111676
0.61971194 1.2960596 -1.0095541
13.390505 -5.7305775 -2.283839
0.70676237 1.248525 -1.0111237
39.885639 -20.326986 -5.2906804
0.81944609 1.1864889 -1.0230843
40.01099 -20.340443 -4.2117896
0.96654481 1.1050669 -1.0473319
40.193741 -20.384941 -3.1280112
1.109417 1.0265048 -1.060648
42.55357 -21.621696 -2.1511714
1.2585753 0.94474053 -1.0695411
41.009888 -20.720093 -0.96975875
1.342687 0.90030986 -1.0415912
16.107624 -7.0951018 0.010396808
1.548246 0.78735608 -1.0592089
40.7005 -20.439106 1.2387505
1.8598119 0.61509889 -1.1066004
40.315353 -20.174511 2.3128684
2.1981151 0.42866534 -1.1461608
40.243187 -20.079744 3.4026434
2.5230887 0.25069445 -1.1622102
41.921986 -20.930073 4.6778555
3.038017 -0.032817788 -1.2173651
3.6423633 -0.36486283 -1.2683566
4.3763323 -0.76742625 -1.3165358
6.1930685 -1.7698461 -1.5534849
10.28618 -4.0293188 -2.1072631
0.60692543 1.2981818 -1.0025548
13.387883 -5.7807889 -2.2847779
0.69523323 1.2495806 -1.0053294
39.526474 -20.275404 -5.2468696
0.81383467 1.1836958 -1.0210756
39.650753 -20.289158 -4.1758561
0.96067172 1.1018801 -1.0453857
15.84281 -7.0788455 -1.3185697
1.1080536 1.0201983 -1.0611765
43.138458 -22.101402 -2.1760528
1.2890999 0.91962403 -1.0852293
40.840977 -20.778875 -0.96160722
1.3912463 0.86463481 -1.0642618
16.122133 -7.1644216 0.013019819
1.6673291 0.71083248 -1.1094419
40.5951 -20.531834 1.2432911
1.8870739 0.58979833 -1.1181984
40.345509 -20.339907 2.3241282
2.2417512 0.39289811 -1.1627336
40.133251 -20.168491 3.4044416
2.6135256 0.18736266 -1.1925969
41.867306 -21.054962 4.6850863
2.9511211 0.0020816699 -1.1929797
3.4419491 -0.26845244 -1.2162428
4.3940258 -0.79629278 -1.321888
5.4424067 -1.375438 -1.3971468
10.253728 -4.0516171 -2.1028566
0.59265113 1.3012549 -0.99458945
13.551094 -5.9240346 -2.3114674
0.71737587 1.2310648 -1.0199819
39.44899 -20.379065 -5.2391586
0.80202353 1.184532 -1.0155158
39.55386 -20.382483 -4.1666007
0.95793122 1.096902 -1.0451324
15.834694 -7.1349845 -1.3175032
1.0924033 1.0221441 -1.0544738
43.196861 -22.293673 -2.1758125
1.2634212 0.92666513 -1.074277
40.565361 -20.77779 -0.9512521
1.4007919 0.85101372 -1.0696902
16.199434 -7.2686777 0.016006388
1.581828 0.7507183 -1.0753875
40.704906 -20.742718 1.2547325
1.9059813 0.56904906 -1.1266369
40.222836 -20.421942 2.3264713
2.2885387 0.35498407 -1.1804659
40.490177 -20.512697 3.4460709
2.5279174 0.2234776 -1.1661328
41.48568 -21.001122 4.6557546
3.0565417 -0.071541965 -1.2252064
3.5405359 -0.33983928 -1.2436215
4.2956295 -0.75980759 -1.2996461
5.4585094 -1.4073763 -1.4016623
10.283228 -4.1085911 -2.1097782
0.5947057 1.2941437 -0.99727356
13.356969 -5.8736186 -2.2829165
0.74370849 1.2091817 -1.037387
39.240463 -20.427242 -5.2149906
0.83321649 1.1595014 -1.0347859
39.527122 -20.533407 -4.1645641
0.95952463 1.0885687 -1.0473853
39.638649 -20.540514 -3.0832701
1.1064792 1.0059919 -1.0630045
43.111633 -22.426773 -2.1683853
1.1814109 0.96562952 -1.0366721
40.524899 -20.925045 -0.94531488
1.3888439 0.84871149 -1.0657477
1.6428704 0.70550114 -1.1019548
40.117043 -20.586773 1.2446606
1.8091211 0.61354107 -1.0909257
40.146225 -20.547724 2.3327048
2.3179464 0.32521901 -1.1922704
40.435783 -20.651886 3.4541509
2.5688672 0.18616343 -1.1807438
41.185459 -21.008965 4.6370487
2.9421391 -0.022182167 -1.1928366
4.276515 -0.77005011 -1.2963985
10.372228 -4.2046795 -2.1278024
0.61341643 1.2774429 -1.0106381
13.52307 -6.0233283 -2.3102314
0.72129303 1.216254 -1.0250765
38.847389 -20.360577 -5.1670651
0.84282327 1.1473051 -1.0416355
39.496853 -20.673475 -4.1621809
0.95969689 1.0814432 -1.0488086
39.62912 -20.692696 -3.0814371
1.087482 1.0095325 -1.0546831
43.082512 -22.581383 -2.1638393
1.194059 0.95034856 -1.0439738
40.719776 -21.195335 -0.94456744
1.3513111 0.8618989 -1.0503507
40.289536 -20.897776 0.16612378
1.552503 0.74835861 -1.0658858
40.157509 -20.768501 1.254347
1.8605953 0.57336009 -1.1119376
40.050533 -20.65354 2.3372197
2.1852796 0.38963518 -1.1467134
40.297821 -20.735334 3.4543695
2.536566 0.19150598 -1.1715833
41.52499 -21.360312 4.6894412
3.0299506 -0.087455265 -1.2200376
3.4480042 -0.32181218 -1.2215328
4.2561827 -0.77834594 -1.2927943
5.6012239 -1.5393134 -1.4342436
10.331408 -4.2251205 -2.1220369
0.59778333 1.2817483 -1.00172
0.68400502 1.2330401 -1.003515
38.492188 -20.294798 -5.123714
0.8449986 1.140202 -1.044076
39.370129 -20.740362 -4.1499925
0.95551419 1.0777007 -1.0477258
39.595757 -20.813133 -3.0779996
1.0878273 1.0026727 -1.0560346
1.2532829 0.908499 -1.0733539
41.945442 -22.03072 -0.96567857
1.3577771 0.85054344 -1.0543641
40.290142 -21.039566 0.17195588
1.5522627 0.7402429 -1.0669172
40.097321 -20.875582 1.2597874
1.8714081 0.55773324 -1.117247
40.06543 -20.802359 2.3470941
2.2866518 0.3202143 -1.1837722
40.005936 -20.713297 3.4398735
2.6149025 0.13439578 -1.1981586
41.328918 -21.396296 4.6799526
2.9354141 -0.046078488 -1.1932567
3.4805372 -0.35538661 -1.2313286
4.3318806 -0.83952087 -1.3119621
6.0438509 -1.8158408 -1.528638
10.40414 -4.3053312 -2.1368699
0.59675699 1.2763834 -1.0024626
0.67828637 1.2301265 -1.0014173
38.124302 -20.246675 -5.0791941
0.84203368 1.134964 -1.0438098
39.437119 -20.945562 -4.1575971
0.96014094 1.0674785 -1.0516678
1.0749817 1.002286 -1.0509144
1.2671046 0.89161193 -1.0813826
41.834805 -22.144989 -0.95815432
1.3474723 0.84749687 -1.0511495
39.879784 -20.976902 0.17637326
1.583744 0.71175861 -1.0813459
39.932537 -20.95166 1.2632642
1.8895391 0.535815 -1.1256262
40.213745 -21.055332 2.3667734
2.2745309 0.31432706 -1.1809362
39.857006 -20.798231 3.4397624
2.6437113 0.10320508 -1.2089547
41.31657 -21.563599 4.6937399
3.0375497 -0.12130556 -1.2248579
3.4779551 -0.37182233 -1.2319946
4.3379831 -0.8645311 -1.3147837
6.0333691 -1.8383527 -1.5279038
10.353436 -4.3227429 -2.129441
0.60347992 1.2669878 -1.0080774
13.073187 -5.9248796 -2.2447584
0.68651879 1.2195321 -1.007701
37.783676 -20.193977 -5.0378947
0.83323854 1.1340096 -1.0400261
0.95730454 1.0625017 -1.0514154
1.0703906 0.99792886 -1.0498426
1.2574246 0.88956821 -1.0780478
41.839931 -22.305597 -0.95360959
1.3327858 0.84811848 -1.0458254
39.782139 -21.071476 0.18192007
1.6787459 0.64645827 -1.1220474
39.878216 -21.07119 1.2693777
1.8460048 0.55143905 -1.1101465
40.212769 -21.206242 2.3764286
2.207005 0.34260824 -1.1582756
39.887814 -20.965748 3.4538026
2.5950451 0.1189239 -1.1944249
3.0782104 -0.15952748 -1.2381752
3.5114844 -0.40743846 -1.2421876
4.3669939 -0.90064353 -1.3229501
5.90347 -1.788143 -1.5018095
10.417671 -4.4015179 -2.1428931
0.60404015 1.2609352 -1.0098002
13.980887 -6.5094948 -2.3877563
0.63547856 1.2444634 -0.97778118
37.432964 -20.142231 -4.9954591
0.81201321 1.1402323 -1.0291376
0.93099129 1.0712676 -1.0384763
0.98710513 1.0404799 -1.0086466
1.1475857 0.94717443 -1.0268475
41.857555 -22.48387 -0.94902909
1.3179022 0.84843791 -1.0404859
39.780785 -21.230618 0.18847221
1.6372924 0.66124249 -1.1062011
41.425041 -22.119225 1.3294187
1.7778398 0.58140033 -1.0852246
40.179447 -21.348623 2.3847873
2.2380364 0.3121472 -1.1706797
2.5776374 0.11566534 -1.190133
41.318218 -21.885523 4.7219915
2.9447777 -0.096180797 -1.1999763
3.5293024 -0.43511897 -1.2482829
4.3548002 -0.91403222 -1.3213613
5.3234472 -1.4746513 -1.3806487
10.342316 -4.4018817 -2.1308749
0.60173833 1.2569495 -1.0095977
12.974272 -5.9735589 -2.2324474
0.63312548 1.2403897 -0.97757494
37.085007 -20.081009 -4.9532394
0.80937713 1.135667 -1.0289066
0.85842532 1.108705 -1.0002235
1.0327747 1.0060135 -1.0332507
1.2378646 0.88525331 -1.0713657
42.305973 -22.902954 -0.95345628
1.3288494 0.83379382 -1.0466279
39.732727 -21.353806 0.19433357
1.4863805 0.74262196 -1.044669
41.322395 -22.216986 1.3342345
1.8892981 0.50487459 -1.12948
26.16939 -13.426679 1.5489906
2.2495258 0.2937988 -1.1760894
39.779129 -21.21456 3.4679413
2.577122 0.10322376 -1.1912702
25.65048 -13.05517 2.9453449
3.0186667 -0.15421934 -1.2231869
3.4736817 -0.4184286 -1.2346293
4.2857714 -0.89256531 -1.3060868
5.3271036 -1.4997839 -1.3826463
10.261356 -4.3959174 -2.1177268
0.60062563 1.2515552 -1.0103393
0.66820359 1.2126148 -1.0005286
36.762569 -20.050268 -4.9146304
0.70397633 1.1933237 -0.96927726
0.89712119 1.0778935 -1.0227513
1.0497258 0.98778862 -1.0433772
1.140818 0.9354974 -1.0262556
1.3360995 0.82026166 -1.0512966
40.037132 -21.701603 0.20341381
1.4902253 0.7305001 -1.0476614
41.40279 -22.440611 1.3462517
1.8550832 0.51401746 -1.1177388
26.095993 -13.497274 1.5518192
2.1390231 0.34727424 -1.1382217
24.67901 -12.639668 2.1565928
2.5527551 0.10346005 -1.1847976
25.509144 -13.08443 2.9388883
3.0050104 -0.16228662 -1.2205974
3.385535 -0.38393921 -1.2123778
4.3067474 -0.92663127 -1.3125408
5.889307 -1.8598646 -1.5030791
10.436569 -4.5465231 -2.1518934
0.60453874 1.2443881 -1.0140362
12.951632 -6.0635519 -2.2320073
0.65853429 1.2136294 -0.99570763
36.42514 -19.973495 -4.8734713
0.7796424 1.1416126 -1.0142695
0.92864609 1.0528055 -1.0411084
1.0532979 0.97938478 -1.0463517
1.2611622 0.85542458 -1.0852005
1.3314195 0.81596166 -1.0503135
40.068527 -21.853855 0.20910409
1.6510969 0.62502551 -1.1159079
41.157932 -22.435553 1.3452066
1.7928083 0.54292923 -1.0947988
24.948471 -12.915478 1.4876794
2.2837293 0.24994205 -1.190984
24.558163 -12.652693 2.1523221
2.5281475 0.10716435 -1.177912
25.232365 -13.009691 2.9146585
3.0261099 -0.18761775 -1.2280312
3.5248835 -0.48149693 -1.2509302
4.3582373 -0.97437674 -1.3260266
5.9945831 -1.9448756 -1.5265892
10.396752 -4.5598097 -2.1461289
0.60932022 1.2352704 -1.0186496
12.841178 -6.0557899 -2.2165327
0.67986625 1.1939936 -1.0103037
36.090221 -19.93112 -4.8332839
0.75839424 1.1479263 -1.0033864
0.86989921 1.0816569 -1.0104513
0.99057078 1.0100658 -1.0156052
1.2588848 0.84791291 -1.0856272
1.3338028 0.80529124 -1.0528331
1.6770489 0.59857112 -1.1282755
41.064903 -22.558023 1.3513521
1.781492 0.53868055 -1.0918707
2.263289 0.24915405 -1.1852376
24.530207 -12.743382 2.1580296
2.5466456 0.081648156 -1.1854596
25.234047 -13.120554 2.9245479
3.0007679 -0.18863842 -1.2219853
3.4568172 -0.45882359 -1.2340806
4.264802 -0.94002628 -1.3050424
6.0055962 -1.9804536 -1.5305119
10.438703 -4.6325979 -2.1558878
0.61435825 1.2266161 -1.0232856
22.436089 -11.891392 -3.7184672
0.69089699 1.1813304 -1.018432
35.763477 -19.874125 -4.7938352
0.74056405 1.1530081 -0.99430788
38.651272 -21.556042 -4.0844908
0.88710749 1.0644696 -1.0211785
0.97200036 1.0146701 -1.007337
1.1751984 0.89179784 -1.0466567
1.3350006 0.79632735 -1.0546728
1.6504574 0.60543126 -1.1185224
41.055836 -22.710484 1.3593419
1.7965978 0.51948285 -1.0990332
24.708822 -12.97951 1.4862399
2.2092535 0.27054083 -1.1673012
24.618795 -12.891122 2.1731718
2.5065653 0.093351766 -1.1736747
24.983465 -13.070992 2.9042382
2.9315712 -0.16094796 -1.2026849
3.6112401 -0.56903809 -1.2769907
4.3216991 -0.99385846 -1.320039
5.9926271 -1.9984673 -1.5291895
10.448838 -4.6813502 -2.1595957
0.58518159 1.2391846 -1.005651
22.401773 -11.964334 -3.7160397
0.69721359 1.1711695 -1.0237629
34.945496 -19.526295 -4.6912532
0.73020267 1.1531411 -0.98964691
35.046013 -19.537262 -3.7199056
0.9025197 1.0478412 -1.0310425
35.172195 -19.563299 -2.7427459
1.0387567 0.96563631 -1.0431043
38.45882 -21.489891 -1.9179822
1.1481032 0.90055937 -1.0349841
1.3406992 0.78401285 -1.0586388
1.4859703 0.69739503 -1.0510336
41.628925 -23.220881 1.3880085
1.758049 0.5327 -1.085466
24.71689 -13.086819 1.4933506
1.9678173 0.40722862 -1.0822948
24.637255 -13.004174 2.1826284
2.5777748 0.036031254 -1.198473
24.920719 -13.137281 2.9061291
2.825835 -0.11121815 -1.1725143
3.4554815 -0.49155748 -1.23642
4.2507553 -0.97129655 -1.3043655
4.7859631 -1.2903092 -1.2742115
10.445801 -4.7249832 -2.1610186
0.55327731 1.2540364 -0.98610198
12.717555 -6.1391277 -2.2021518
0.70214731 1.1621783 -1.0281789
34.620773 -19.46459 -4.6520519
0.73366052 1.1449695 -0.99296641
34.706722 -19.467466 -3.6865051
0.88121647 1.0546319 -1.0206794
34.840557 -19.499031 -2.7175996
1.0046042 0.97995299 -1.0268288
38.52985 -21.68211 -1.9188236
1.0726726 0.9402954 -0.99984252
1.3370723 0.77797467 -1.0583326
1.6243604 0.6021834 -1.1104211
26.036846 -14.011934 0.85407519
1.7843567 0.5064314 -1.0970159
23.869057 -12.67532 1.4471632
2.1874404 0.26017785 -1.1623374
24.432022 -12.977905 2.1717308
2.5442364 0.043790445 -1.188845
24.862221 -13.199889 2.9079778
2.857646 -0.14482585 -1.1833423
3.459929 -0.51064593 -1.2389525
4.2088804 -0.96491802 -1.2955999
10.469061 -4.7821679 -2.1672072
0.53297102 1.2610391 -0.97427523
22.273371 -12.073654 -3.7019317
0.69626206 1.1592962 -1.0260847
34.392628 -19.476873 -4.6256509
0.74432069 1.1314107 -1.0006821
34.489849 -19.487247 -3.6656842
0.88869798 1.0424752 -1.0263089
34.597515 -19.503626 -2.6989696
0.97480905 0.99088353 -1.0129321
38.427929 -21.788799 -1.9112998
1.2130512 0.84341675 -1.0692441
1.2760715 0.80703706 -1.0322663
1.6117383 0.59951597 -1.1066786
25.755024 -13.956402 0.85025823
1.7520494 0.51539624 -1.0859451
23.801722 -12.740351 1.4498111
2.1298141 0.2831901 -1.1432149
2.5264068 0.040364064 -1.1845458
25.106867 -13.456773 2.946296
2.8374989 -0.14817864 -1.1788138
3.2928185 -0.42539442 -1.1952764
4.1910114 -0.97553897 -1.2927897
5.459075 -1.7517114 -1.4201938
10.521662 -4.8631678 -2.179096
0.49961638 1.2769284 -0.95376337
22.18454 -12.112787 -3.6910639
0.67263716 1.1682051 -1.0128943
34.357914 -19.598856 -4.624084
0.73997903 1.1277299 -0.99956238
34.458408 -19.611628 -3.6636615
0.84739643 1.0618153 -1.0049837
34.576164 -19.634613 -2.696799
0.97619915 0.98259699 -1.0150625
38.072681 -21.730476 -1.8921663
1.0984612 0.90788108 -1.0151623
38.428993 -21.894869 -0.83930635
1.2580819 0.80981648 -1.0255224
1.5930109 0.6013639 -1.1002786
25.507357 -13.913404 0.84720862
1.8630621 0.43480316 -1.1306717
23.837511 -12.862029 1.4585097
2.1763065 0.24183093 -1.1614078
24.563725 -13.268264 2.1997361
2.5725732 -0.0023338236 -1.2012436
2.8621061 -0.17857029 -1.1876255
24.44982 -13.129242 3.5703433
3.4209509 -0.52227926 -1.2313638
26.019403 -14.039237 4.5404468
4.2667599 -1.043242 -1.3125365
5.6666679 -1.9064568 -1.4659427
10.447484 -4.8634148 -2.1674533
0.574045 1.2242004 -1.0038769
13.261708 -6.6368113 -2.2927589
0.67188674 1.1635886 -1.013635
34.18037 -19.607 -4.6035948
0.70144594 1.1472243 -0.97814357
34.446365 -19.722824 -3.6634347
0.82658243 1.0694987 -0.99466658
34.558952 -19.742958 -2.6950626
1.0090057 0.95545846 -1.0332384
34.833862 -19.863489 -1.7394108
1.2203714 0.82344723 -1.0755026
38.363525 -21.986397 -0.83432841
1.3479148 0.74549097 -1.0673962
1.5893961 0.5954659 -1.0999799
25.450968 -13.967178 0.84985745
1.6826062 0.54014695 -1.0614382
23.88925 -12.97635 1.467104
2.1087594 0.27440876 -1.1383321
2.430649 0.075749829 -1.15569
23.669891 -12.774331 2.7947652
2.8647983 -0.19272546 -1.1896328
23.46529 -12.616135 3.4364145
3.3865445 -0.51500553 -1.2232332
25.997881 -14.116003 4.5469756
4.2259512 -1.0348494 -1.3038729
5.3198948 -1.7115302 -1.3931849
10.452436 -4.904489 -2.1700969
0.60946912 1.1949433 -1.0287865
22.063786 -12.214557 -3.6779785
0.66899067 1.158892 -1.0133969
33.881802 -19.572306 -4.5681829
0.70451277 1.13853 -0.9814378
34.401859 -19.84815 -3.6602421
0.79901659 1.0800794 -0.98092782
34.526123 -19.876026 -2.692075
1.0131612 0.94473648 -1.0369455
37.910664 -21.929142 -1.8798579
1.2226437 0.81302482 -1.0782052
38.398266 -22.177729 -0.83021855
1.3531461 0.73262125 -1.0713346
38.56126 -22.223934 0.24934062
1.5958366 0.580782 -1.1042869
26.182777 -14.532425 0.88191414
1.7882185 0.46174362 -1.1042432
23.946901 -13.118771 1.4776593
2.1111572 0.26006812 -1.1407762
24.318729 -13.31265 2.1926146
2.3332992 0.12340646 -1.1250973
2.8331079 -0.1887254 -1.1816634
23.338726 -12.643674 3.4287143
3.3751085 -0.52612597 -1.2216705
25.891951 -14.167181 4.5418854
4.0654039 -0.95553476 -1.2665352
5.2330704 -1.6836073 -1.3761925
10.457419 -4.9566526 -2.1732717
0.60405821 1.1928642 -1.0266516
22.005762 -12.266673 -3.6718512
0.64563209 1.168316 -1.0002322
33.599667 -19.529215 -4.5345521
0.69886053 1.1362253 -0.97945416
34.337589 -19.944149 -3.6549315
0.76123357 1.0983065 -0.96133053
34.478539 -19.982979 -2.6880901
0.99767721 0.94759578 -1.0302902
37.847057 -22.039185 -1.8745522
1.19268 0.82441872 -1.0650516
38.315144 -22.277487 -0.82439685
1.3509474 0.72553605 -1.0717403
1.4918364 0.63831896 -1.0617492
25.759012 -14.37361 0.87221324
1.7868927 0.45240685 -1.105126
24.002522 -13.248803 1.487373
2.0915787 0.26117876 -1.1351267
23.423708 -12.856445 2.1189384
2.3797767 0.081394315 -1.1418308
23.719116 -13.00497 2.8185077
2.8611014 -0.22081278 -1.1914794
23.383131 -12.764075 3.444679
3.3497527 -0.52631706 -1.2161617
25.081879 -13.772781 4.4131861
4.0420551 -0.95970821 -1.2622341
10.476321 -5.0123577 -2.1788099
0.56341761 1.2137161 -1.0013161
21.928419 -12.31192 -3.6628988
0.67401254 1.1434821 -1.0194373
33.289112 -19.474718 -4.4974341
0.74103314 1.1021681 -1.0057365
0.77499253 1.0826741 -0.97035325
0.96974504 0.95823705 -1.017229
36.513657 -21.359774 -1.8103058
1.1160386 0.86593944 -1.0291922
38.215656 -22.376337 -0.81802118
1.3437891 0.72112823 -1.0699878
1.571364 0.57712889 -1.0968872
1.6863509 0.50656092 -1.0671952
2.1296005 0.22453539 -1.1503892
23.40764 -12.946162 2.1251929
2.3900504 0.061478596 -1.1467161
23.675394 -13.078707 2.8223855
2.851022 -0.22963011 -1.1899436
23.481756 -12.924616 3.4692478
3.2632344 -0.4882043 -1.1940953
25.020466 -13.841209 4.4147291
4.1023998 -1.0184325 -1.2783476
5.3408499 -1.8009224 -1.4021584
10.437087 -5.0341392 -2.1737099
0.55791396 1.2115408 -0.99917614
21.872704 -12.370712 -3.6573868
0.65939343 1.1468766 -1.0118145
32.999332 -19.431387 -4.463007
0.75308585 1.0876374 -1.014336
34.353535 -20.245115 -3.6592903
0.85836226 1.0210278 -1.018086
34.460617 -20.263424 -2.6858606
1.0031728 0.92875165 -1.036137
36.356342 -21.414692 -1.8006538
1.109326 0.86222076 -1.0273889
38.442223 -22.680975 -0.81779253
1.3381851 0.71572822 -1.0689498
1.5826865 0.55973488 -1.1032214
24.349066 -13.705933 0.83261251
1.7819843 0.43384376 -1.1062202
23.908756 -13.394647 1.4946979
2.2187994 0.15430489 -1.1842377
23.357431 -13.014753 2.128361
2.4503689 0.0090152249 -1.1682253
24.249073 -13.538284 2.8996551
2.8734882 -0.25945288 -1.1982405
26.836853 -15.116752 3.9708302
3.3178871 -0.54044956 -1.2104474
24.339008 -13.523777 4.3081665
4.1410189 -1.0637592 -1.2892327
5.4801102 -1.9159092 -1.4335601
10.572544 -5.1676226 -2.2011156
0.53363192 1.2222817 -0.98449409
21.789326 -12.40607 -3.6473496
0.66562754 1.1368355 -1.0171528
32.730492 -19.391432 -4.4311204
0.74432367 1.0872098 -1.0105808
35.854126 -21.343151 -3.8133399
0.82817096 1.03438 -1.002703
35.939461 -21.345806 -2.794646
1.01677 0.91252935 -1.0446649
36.187981 -21.452791 -1.7906635
1.1507365 0.82726306 -1.0490422
1.3406128 0.70558906 -1.0714965
1.5752881 0.55509144 -1.1015441
24.031015 -13.6029 0.82618165
1.7837431 0.42241424 -1.1083537
23.905649 -13.489189 1.5007756
2.1861925 0.16361214 -1.1739315
23.410912 -13.142762 2.1405804
2.4688056 -0.015892986 -1.1758045
23.684311 -13.280884 2.8411517
2.8572104 -0.26342118 -1.1947712
27.026768 -15.343662 4.0097861
3.4839594 -0.66445333 -1.2571616
24.306349 -13.601295 4.3137684
4.0203943 -1.0052048 -1.2612953
5.541748 -1.9804555 -1.4482912
10.640492 -5.2560897 -2.2158992
0.55592871 1.2018797 -1.0007179
21.747564 -12.467963 -3.643903
0.67476517 1.1247784 -1.0243378
32.443783 -19.338278 -4.3969216
0.74153787 1.0828344 -1.0103595
0.77843857 1.0609812 -0.97639275
35.844017 -21.428782 -2.787235
1.0180811 0.90434921 -1.0468014
35.999508 -21.47715 -1.7797834
1.1796305 0.80025727 -1.0646369
1.3492354 0.69130218 -1.0768933
1.5647361 0.55255675 -1.0985301
24.035812 -13.703297 0.8314774
1.7933933 0.40573952 -1.1136107
24.134811 -13.731627 1.5217867
2.1664548 0.16468136 -1.1682802
2.4226756 0.0013403818 -1.161943
23.67108 -13.368348 2.8482239
2.9025996 -0.30763882 -1.2099663
24.287127 -13.722955 3.6176083
3.3897803 -0.61998713 -1.2329173
25.289543 -14.318754 4.4974599
4.2072153 -1.1459349 -1.3082492
5.4198647 -1.9263486 -1.4236255
10.661607 -5.3148913 -2.2220109
0.56926417 1.1869909 -1.0111295
21.724699 -12.547741 -3.6436765
0.66750693 1.1233107 -1.0213405
32.16227 -19.294859 -4.3635845
0.72367394 1.0882121 -1.0012962
35.729637 -21.560165 -3.8037159
0.75279349 1.0713981 -0.96353829
35.667183 -21.467957 -2.7738318
1.0130587 0.89990926 -1.0457274
35.843998 -21.530899 -1.7703255
1.1542662 0.80871564 -1.0537579
1.3435545 0.6858983 -1.0758547
1.564911 0.54234952 -1.1001779
1.6395649 0.49665987 -1.054493
24.067261 -13.792638 1.5242223
2.0586095 0.22338903 -1.1306794
23.525366 -13.411773 2.1663816
2.41169 -0.0050932076 -1.1598502
23.634645 -13.447322 2.8531003
2.9311531 -0.34212899 -1.2202065
24.219362 -13.784573 3.6184006
3.3051898 -0.5821628 -1.2113374
25.216568 -14.381298 4.497261
4.2370052 -1.18661 -1.3170973
5.2465658 -1.8392771 -1.3879497
10.608378 -5.3283753 -2.2144256
0.56659937 1.1828595 -1.0109203
21.648483 -12.592748 -3.6350572
0.64851147 1.1298488 -1.0109534
31.89789 -19.260849 -4.332489
0.7177422 1.0856363 -0.99929953
35.691563 -21.689058 -3.8014784
0.77383918 1.0504726 -0.97675383
35.664452 -21.619528 -2.7733097
1.0201927 0.88729209 -1.0510387
35.758877 -21.629646 -1.7641455
1.185837 0.7790969 -1.0708361
1.3487254 0.67323136 -1.0798035
1.5431085 0.54679728 -1.0924683
23.863977 -13.800545 0.83604527
1.788174 0.38708204 -1.1147004
2.0387614 0.22439381 -1.1250255
23.515759 -13.507604 2.1734438
2.3814247 0.0013113823 -1.1513344
25.40881 -14.687081 3.075808
2.9045849 -0.34040076 -1.213758
24.285192 -13.931473 3.6389897
3.3607359 -0.63632166 -1.2280934
25.622055 -14.749004 4.5813956
4.2207966 -1.1972806 -1.3147408
5.4503756 -1.9989954 -1.433449
10.612981 -5.3795676 -2.2176509
0.52923799 1.2024992 -0.98755419
21.519226 -12.60249 -3.6180713
0.6500721 1.1224813 -1.013504
31.610783 -19.210138 -4.2984414
0.71180779 1.0830872 -0.99730396
35.579781 -21.769777 -3.7917745
0.86082184 0.98452777 -1.0269454
35.57428 -21.714388 -2.7663755
1.009055 0.88697255 -1.0467727
35.782272 -21.799164 -1.762979
1.0883892 0.83642399 -1.02447
1.3460939 0.66574937 -1.0801908
1.4994576 0.56609619 -1.0754105
26.949835 -15.908651 0.95673537
1.7957687 0.37087139 -1.1193041
23.172558 -13.421851 1.4797012
2.1382143 0.14561449 -1.1628796
22.702101 -13.083786 2.1058362
2.463387 -0.067069046 -1.1802893
25.234655 -14.684938 3.0648046
2.9006414 -0.35359323 -1.2141801
23.350857 -13.43536 3.5111365
3.3267148 -0.63143402 -1.2203432
25.331539 -14.673368 4.5429978
4.2535515 -1.2403932 -1.3243747
10.597599 -5.4177713 -2.2171726
0.53526986 1.1925197 -0.99313962
21.409933 -12.624764 -3.6042597
0.65160155 1.1150956 -1.0160539
31.352461 -19.176598 -4.2681355
0.71475464 1.0744733 -1.0006021
35.898403 -22.134594 -3.826005
0.84257734 0.98977929 -1.0182906
35.585537 -21.875967 -2.7669573
0.98580801 0.89497602 -1.0361285
35.801594 -21.966848 -1.7616426
1.1459315 0.78907758 -1.054381
1.3403448 0.66036844 -1.0791538
1.4902762 0.56238252 -1.073058
24.710846 -14.562412 0.87880886
1.7371644 0.39927787 -1.0976955
23.259916 -13.580203 1.4920272
2.1689861 0.11223289 -1.175772
22.61311 -13.125187 2.1053038
2.4570229 -0.07680624 -1.1797974
24.082851 -14.046826 2.9353728
2.8853834 -0.3592228 -1.2111726
23.274094 -13.487549 3.5102878
3.3138223 -0.64047265 -1.2183872
24.780888 -14.427524 4.4582939
4.1589832 -1.1988251 -1.30285
25.583197 -14.908721 5.3453002
10.606771 -5.4723716 -2.2213202
0.52861172 1.1919574 -0.99006712
21.304129 -12.637694 -3.5906048
0.65490085 1.1071998 -1.0195522
31.101931 -19.130575 -4.2384629
0.72540736 1.0612779 -1.0083367
35.463562 -21.983435 -3.7832308
0.80681109 1.0080466 -0.99958849
35.592903 -22.017391 -2.767308
0.98118448 0.89128071 -1.0350915
35.742043 -22.06472 -1.7569631
1.0844605 0.82367271 -1.0254408
1.3072941 0.67473251 -1.0653478
1.4753908 0.56376052 -1.0680791
24.625233 -14.601672 0.88060129
1.728047 0.39578685 -1.0954857
23.019844 -13.512782 1.482185
2.1685972 0.10118891 -1.1771162
22.697958 -13.268339 2.1201022
2.4162641 -0.06162978 -1.1676004
23.990082 -14.079275 2.9325941
2.8468609 -0.34722444 -1.2008852
23.202753 -13.531037 3.5089979
3.2711272 -0.62732756 -1.2080567
24.254313 -14.180605 4.3759413
4.1780796 -1.2304208 -1.3089776
25.117893 -14.70525 5.2623191
5.0606327 -1.8146062 -1.3540274
10.654493 -5.5472722 -2.2324314
0.52436531 1.1887143 -0.98888779
21.253325 -12.703711 -3.5863206
0.65619886 1.0995181 -1.0220869
30.829309 -19.09219 -4.2065072
0.71629202 1.0605091 -1.0045642
35.529167 -22.191334 -3.7918649
0.86461246 0.96056938 -1.0337642
0.96838105 0.89187032 -1.0300227
30.445219 -18.701187 -1.5121756
1.1171075 0.79246753 -1.043246
1.3105745 0.66275311 -1.068567
1.4877237 0.54482204 -1.0750569
25.145857 -15.061023 0.90641701
1.5753101 0.48862407 -1.0364647
22.983709 -13.596345 1.4868367
2.1481593 0.1015158 -1.1714278
22.557608 -13.281743 2.1152279
2.4222867 -0.080466695 -1.171363
24.944344 -14.818579 3.0590353
2.7446063 -0.29444665 -1.1714163
23.215946 -13.647762 3.522249
3.3094463 -0.67189258 -1.2202986
25.390476 -15.037375 4.5916386
4.2456331 -1.2987988 -1.3273308
24.813299 -14.622755 5.214643
5.0027409 -1.8022211 -1.343204
10.658566 -5.6020021 -2.2358439
0.53476828 1.1758907 -0.9973743
21.207453 -12.761876 -3.5824327
0.6578092 1.0923356 -1.0246475
30.117783 -18.740061 -4.1169114
0.72078979 1.0510727 -1.0087548
30.171221 -18.731821 -3.2464597
0.86743397 0.95170897 -1.0368849
30.253014 -18.742371 -2.3731148
0.99518216 0.86594051 -1.0457106
30.22616 -18.680391 -1.5004137
1.0754385 0.81342721 -1.024116
32.773827 -20.340448 -0.67763317
1.3250618 0.64404494 -1.0768007
1.5175774 0.51482701 -1.0894111
26.330532 -15.954464 0.95717466
1.6052979 0.45823538 -1.0498412
24.097111 -14.431999 1.5666834
2.1189642 0.10947971 -1.162323
22.474314 -13.320473 2.1147621
2.3780975 -0.063380308 -1.158085
23.411436 -13.907701 2.8812132
2.6307089 -0.23109233 -1.1381241
24.249382 -14.42665 3.687614
3.3823311 -0.73834044 -1.2419327
24.231789 -14.379102 4.3970103
4.1341352 -1.2434769 -1.3015041
24.801912 -14.718069 5.2257533
5.050561 -1.8582637 -1.3550949
10.643805 -5.6384258 -2.2354586
0.52793294 1.1751304 -0.99429178
21.128639 -12.797588 -3.573338
0.63762814 1.1004589 -1.0133661
29.872478 -18.698957 -4.0880756
0.73994154 1.0312865 -1.0217571
29.930229 -18.694136 -3.2233882
0.87914157 0.93657625 -1.0450412
30.001484 -18.698175 -2.3544726
0.92712152 0.90604413 -1.0111923
29.972672 -18.635046 -1.4871198
1.0840471 0.79965562 -1.0298809
32.853802 -20.530071 -0.67542958
1.325652 0.63485008 -1.0786303
1.505458 0.51367104 -1.0857463
26.191826 -15.971164 0.95761192
1.6835841 0.3941417 -1.0825256
2.1402509 0.082783833 -1.1717498
2.3848145 -0.081053987 -1.1619064
2.7393205 -0.31981546 -1.1728586
3.2779868 -0.68388236 -1.2146964
24.092661 -14.387756 4.3839951
4.0698843 -1.2196587 -1.2872616
24.885542 -14.876505 5.2566495
4.9518061 -1.8146819 -1.3352151
10.655071 -5.6926298 -2.2399883
0.54507267 1.1566752 -1.007569
21.056086 -12.848443 -3.5656989
0.64032662 1.091767 -1.0168254
29.620453 -18.667267 -4.0587702
0.73663199 1.0263782 -1.0215099
29.666014 -18.654671 -3.1981568
0.87702233 0.93018615 -1.045611
29.753153 -18.670145 -2.3360848
1.0044483 0.8435604 -1.0539297
29.720741 -18.604713 -1.473729
1.133088 0.75643045 -1.0559628
33.054161 -20.819551 -0.67486751
1.2368689 0.68706691 -1.0392045
33.02578 -20.752138 0.2809529
1.4835258 0.51823902 -1.0780431
26.027008 -15.98319 0.9577204
1.5348155 0.48622531 -1.0248228
23.633545 -14.334109 1.5498338
2.1324096 0.074581891 -1.1707027
22.749086 -13.705147 2.1565776
2.3907027 -0.099902086 -1.1656688
22.344906 -13.400811 2.769155
2.7429521 -0.3387123 -1.1757177
22.313824 -13.347073 3.4176147
3.2404313 -0.67679793 -1.2060601
24.107437 -14.510926 4.4000578
4.0385637 -1.2205442 -1.2813116
24.852499 -14.97135 5.2651582
4.9558258 -1.8439385 -1.3378276
10.681341 -5.7632532 -2.2476864
0.53677595 1.1569307 -1.0035222
20.986963 -12.890271 -3.558198
0.62599283 1.0959208 -1.0092407
29.389191 -18.632698 -4.0317798
0.73221391 1.0230637 -1.0204086
29.445641 -18.628033 -3.1772292
0.87232125 0.9264906 -1.0445324
29.532236 -18.643721 -2.3197591
0.9875071 0.84799522 -1.0465053
29.568922 -18.625587 -1.4651519
1.1263564 0.75310796 -1.0541805
32.543903 -20.609894 -0.66232741
1.2574271 0.66409886 -1.0502808
32.713707 -20.677776 0.28302225
1.456012 0.52806157 -1.0677195
26.240871 -16.237638 0.97178257
1.7109022 0.35312191 -1.0967211
2.1362338 0.05975689 -1.1737574
2.3893623 -0.1121731 -1.1668177
21.420204 -12.871367 2.663765
2.642293 -0.28328642 -1.146383
22.12188 -13.311878 3.3984094
3.2695827 -0.7137152 -1.2156906
4.1598577 -1.3245307 -1.31286
24.792458 -15.035265 5.266377
4.9886131 -1.8902812 -1.3465294
10.666094 -5.7997966 -2.2472956
0.52865219 1.1574613 -0.99948978
20.902433 -12.915619 -3.5480449
0.62196159 1.0931617 -1.008127
29.330439 -18.7082 -4.0271583
0.72797525 1.0200377 -1.0193229
29.409752 -18.719526 -3.1750906
0.84711945 0.9378655 -1.0317268
29.502785 -18.739975 -2.3175814
0.92746168 0.88366878 -1.0160127
29.555931 -18.733257 -1.4630238
1.1213641 0.74908018 -1.0531702
24.846779 -15.462882 -0.52555227
1.3208555 0.61112577 -1.0812573
32.506992 -20.664913 0.28582555
1.4534847 0.52101266 -1.0680864
25.885496 -16.098753 0.96334791
1.5106134 0.48443958 -1.0179563
22.45607 -13.725306 1.4834338
2.0510755 0.10817915 -1.1438776
21.945204 -13.344845 2.0944881
2.4041457 -0.13496117 -1.1733271
21.368992 -12.921684 2.6652701
2.6678872 -0.31458735 -1.1556962
21.630655 -13.067116 3.3329971
3.3118484 -0.7590279 -1.2288954
24.010941 -14.642169 4.4059548
4.0995054 -1.3016903 -1.2994765
24.794132 -15.134167 5.2796683
4.9281416 -1.8706208 -1.3348466
10.67972 -5.8534636 -2.2522168
0.52305692 1.1555043 -0.99736106
20.838768 -12.966314 -3.541683
0.62477612 1.0847222 -1.0115992
29.29365 -18.814478 -4.025867
0.72918904 1.0122912 -1.0217321
29.304096 -18.778343 -3.1660514
0.80388534 0.96149039 -1.0088354
29.483839 -18.859301 -2.3162034
0.8836112 0.90730894 -0.99426031
29.541857 -18.856142 -1.4606556
1.010348 0.81975287 -0.9994036
7.7180605 -3.7616611 -0.22769108
1.2692828 0.63839775 -1.0589262
32.374973 -20.719379 0.29008299
1.450388 0.51317251 -1.0684117
26.099775 -16.362318 0.97789133
1.8206227 0.25434637 -1.1439214
21.492907 -13.166543 1.4251372
2.1374483 0.034421802 -1.17755
2.3456109 -0.10783856 -1.1552534
20.936043 -12.72272 2.6204586
2.8003263 -0.42320988 -1.1981406
21.934315 -13.371558 3.3896031
3.1997228 -0.69838381 -1.1994741
24.20417 -14.881411 4.4538131
4.0766602 -1.307266 -1.2955618
24.347363 -14.942403 5.2007065
4.9535475 -1.9136143 -1.3420825
53.637833 -34.729012 12.915092
10.751936 -5.9542766 -2.2685633
53.790482 -34.751713 14.550466
0.5445621 1.1342189 -1.0135404
20.784096 -13.017541 -3.5365653
0.65359491 1.0577534 -1.0316714
29.061352 -18.77639 -3.9987855
0.72037578 1.0121682 -1.0179931
29.161146 -18.802935 -3.1531177
0.82136172 0.94207323 -1.0203439
29.473003 -18.976824 -2.3154511
0.88478786 0.89932936 -0.99640727
29.51786 -18.964703 -1.4579569
1.0113282 0.81139392 -1.0014044
1.1360526 0.72512484 -0.998299
22.632883 -14.111081 0.18515371
1.4582812 0.49805719 -1.0734189
25.92296 -16.350985 0.97673261
1.7675568 0.28118843 -1.1242672
21.390764 -13.187935 1.4242637
2.0537422 0.081673533 -1.1482457
22.453018 -13.887002 2.1585767
2.4306729 -0.18140243 -1.1857153
2.7806859 -0.42434192 -1.1937281
21.82172 -13.387907 3.3822906
3.2731969 -0.76701665 -1.2214987
23.964935 -14.820573 4.4226365
4.0832434 -1.3322212 -1.298846
24.393278 -15.077 5.2240977
5.4994678 -2.3218384 -1.46295
53.448589 -34.823414 12.902575
10.789498 -6.0285559 -2.2782567
53.598087 -34.844749 14.534722
0.53874618 1.1319941 -1.0113989
20.719204 -13.072652 -3.5303018
0.66614139 1.0416038 -1.0415739
28.81904 -18.745214 -3.9708147
0.7184577 1.0062644 -1.0186285
29.094198 -18.895729 -3.1482167
0.83687288 0.92303699 -1.0309794
29.418436 -19.079771 -2.3115132
0.95535696 0.84013444 -1.0359119
29.492701 -19.088436 -1.4550222
1.0433645 0.77958363 -1.0191799
1.2849594 0.6085068 -1.0696551
22.488245 -14.119423 0.18778192
1.4808594 0.47107196 -1.0850414
22.369352 -14.003532 0.84196711
1.539541 0.43269163 -1.0343215
22.529985 -14.082006 1.5085659
2.0848281 0.04588889 -1.1616514
21.648375 -13.437735 2.0894721
2.434556 -0.1994535 -1.1889296
21.182281 -13.083402 2.6688504
2.7033446 -0.38608983 -1.1716959
21.850752 -13.513002 3.3978915
3.2594974 -0.77646881 -1.2195232
23.503593 -14.617931 4.3523555
4.0773411 -1.3510077 -1.299262
23.790966 -14.780094 5.1126323
5.263998 -2.1845651 -1.4134561
53.244492 -34.934834 12.890576
10.781957 -6.077498 -2.2797859
53.374653 -34.943798 14.515121
0.53450722 1.1289935 -1.0102336
20.624468 -13.100806 -3.5190568
0.6616199 1.0382377 -1.0404302
28.577547 -18.705311 -3.9427433
0.72395217 0.9953236 -1.0236768
28.773506 -18.801294 -3.1172156
0.81729984 0.92990124 -1.0215147
29.406363 -19.204964 -2.3107338
0.96204698 0.82729447 -1.0412132
29.500168 -19.227655 -1.4536846
1.0080221 0.79693878 -1.003098
7.6097708 -3.7982969 -0.2229367
1.1095595 0.72635853 -0.98918462
32.247334 -21.067598 0.30580559
1.3798351 0.53392208 -1.0427729
22.226324 -14.005715 0.841627
1.7303483 0.28432482 -1.112906
22.073982 -13.86641 1.4842014
2.0368555 0.067504317 -1.1456302
22.005775 -13.785902 2.1319659
2.3542426 -0.15620159 -1.1634204
21.175861 -13.175848 2.6770456
2.72913 -0.42028362 -1.1814091
21.440289 -13.327811 3.3453598
3.2510376 -0.78855962 -1.2189142
23.529575 -14.742929 4.3699436
4.1660748 -1.4361758 -1.3231285
23.791798 -14.888866 5.1272769
5.2465801 -2.1991572 -1.4114947
53.037125 -35.029289 12.875726
10.840056 -6.1702847 -2.2936335
53.177055 -35.045708 14.500196
0.52777678 1.1285686 -1.0071673
20.570522 -13.146444 -3.513906
0.65459943 1.0375149 -1.0374713
28.338852 -18.650543 -3.9146073
0.70085359 1.0061872 -1.0111587
28.496555 -18.720371 -3.0904839
0.81135017 0.92775851 -1.0196224
29.378454 -19.303574 -2.3087995
0.88327104 0.87795329 -1.000429
25.503819 -16.516106 -1.2714751
1.0704663 0.74401748 -1.0359594
7.6105852 -3.831882 -0.22210062
1.2736919 0.59895939 -1.0676451
32.186512 -21.154007 0.31015694
1.420002 0.49596992 -1.0617759
21.574228 -13.636785 0.8201493
1.6641202 0.3223325 -1.0877159
22.015516 -13.914775 1.4860938
1.9928272 0.088117354 -1.1308266
21.922947 -13.816963 2.1310036
2.3874528 -0.19274968 -1.1763065
2.5542798 -0.30812758 -1.128795
21.540854 -13.484835 3.3701234
3.1628132 -0.74108475 -1.1958241
23.155333 -14.577081 4.312809
4.1075439 -1.4137564 -1.3101802
24.25609 -15.307533 5.2385721
52.842896 -35.104122 12.859888
10.905414 -6.2628584 -2.3085806
52.98455 -35.122448 14.482114
0.51774102 1.1295629 -1.0021436
20.503716 -13.199591 -3.5074267
0.65416205 1.0307559 -1.0390791
28.106071 -18.621368 -3.8878927
0.70467913 0.99605227 -1.0153149
0.81063545 0.92046607 -1.0210395
25.409405 -16.610765 -2.0161798
0.85141575 0.89329654 -0.98505676
25.20289 -16.425766 -1.2563684
1.0587933 0.74356592 -1.031899
7.616291 -3.8757229 -0.22117631
1.2253151 0.62447912 -1.0467554
22.347219 -14.323178 0.19800316
1.4119716 0.49116009 -1.0600911
22.165451 -14.161197 0.84961081
1.6724055 0.30443019 -1.092913
21.894678 -13.936812 1.4848704
1.972646 0.08944013 -1.1251901
22.023922 -13.995199 2.1493745
2.4099355 -0.22437643 -1.1859066
21.307821 -13.458017 2.7113061
2.7052984 -0.43385133 -1.1774583
3.1555388 -0.75472993 -1.1956369
23.170076 -14.699995 4.3290915
4.1124763 -1.440704 -1.3133651
24.268162 -15.433656 5.2569523
4.976078 -2.0565586 -1.3557295
52.640011 -35.214035 12.848138
10.938725 -6.3423529 -2.3180141
52.786537 -35.236542 14.469313
0.49402362 1.1415923 -0.98752677
20.427624 -13.234575 -3.4990103
0.64980078 1.0276957 -1.0379515
27.890612 -18.587887 -3.8630245
0.69731909 0.99500924 -1.0124625
25.355299 -16.720564 -2.7715776
0.78552485 0.93216628 -1.0082506
25.277893 -16.626743 -2.0066414
0.92030811 0.83503479 -1.0237591
25.120363 -16.476122 -1.2513279
1.0416445 0.74823964 -1.0248684
7.6157894 -3.9108839 -0.22026154
1.2693832 0.58320969 -1.0691463
22.330513 -14.408657 0.20160887
1.4151218 0.47933146 -1.0631013
22.100269 -14.211327 0.85203993
1.7440315 0.24116091 -1.1236064
21.751936 -13.930661 1.4813033
2.0242219 0.03973097 -1.1461331
20.97389 -13.345635 2.0542145
2.3661745 -0.20605516 -1.1726917
21.213522 -13.484047 2.7080441
2.6841903 -0.43338776 -1.1725816
22.806091 -14.578234 3.5877421
3.2343287 -0.82901531 -1.2193755
23.094925 -14.747499 4.3273954
4.0741377 -1.4336991 -1.3055437
24.40678 -15.636325 5.3006659
52.440693 -35.297653 12.83307
10.989016 -6.4284577 -2.3303838
52.571304 -35.309818 14.447268
0.50398999 1.1284146 -0.99599695
20.343483 -13.263452 -3.4893177
0.65111119 1.0203824 -1.0405051
27.665876 -18.5464 -3.8369331
0.7028994 0.98429769 -1.0175225
25.272337 -16.771276 -2.7647529
0.79539573 0.9178831 -1.0155581
25.196632 -16.678415 -2.0008342
0.93741292 0.81480002 -1.0346363
25.07663 -16.554251 -1.2480558
1.0780523 0.71315128 -1.0449013
1.2576911 0.58294791 -1.06531
51.069324 -35.15443 0.56025708
1.4561099 0.43939024 -1.0827253
51.234554 -35.198357 2.048507
1.743484 0.23060909 -1.1251084
23.822733 -15.50773 1.6314055
1.8983281 0.12048592 -1.1007735
2.3334029 -0.19551463 -1.163209
20.847082 -13.315716 2.6702235
2.7428374 -0.49140894 -1.1925291
20.367531 -12.943278 3.2188418
3.2325108 -0.84494144 -1.2205718
23.129356 -14.872569 4.3459487
4.1228933 -1.4901823 -1.3195029
24.300072 -15.666825 5.2921724
5.5414019 -2.5184827 -1.4837042
52.257305 -35.391853 12.821853
11.038904 -6.5149121 -2.3427355
52.391136 -35.406956 14.434748
0.53049731 1.1022261 -1.0159894
20.307905 -13.3331 -3.4877141
0.64229161 1.0202947 -1.0366046
25.273008 -16.927738 -3.5249569
0.68816072 0.98842824 -1.0102652
25.168303 -16.813299 -2.7558975
0.80644774 0.90216053 -1.0236853
25.176596 -16.781258 -1.9995822
0.9541977 0.79415125 -1.0454929
25.137793 -16.715452 -1.2494421
1.1392571 0.65862262 -1.0776815
7.5793076 -3.9581795 -0.21779676
1.2637297 0.56894237 -1.0699574
25.280186 -16.743265 0.24643075
1.4406508 0.4405303 -1.0777349
25.267019 -16.696188 0.99280262
1.6983377 0.2525146 -1.1085945
25.127985 -16.558506 1.7297778
1.9401827 0.077030823 -1.1182293
22.75049 -14.812265 2.2445724
2.2507427 -0.14862235 -1.1367055
20.618107 -13.248878 2.6501932
2.749258 -0.51235026 -1.1963756
20.528774 -13.153857 3.2542424
3.2159989 -0.85116154 -1.2177615
23.124855 -14.976856 4.3581643
3.9355023 -1.3746486 -1.2744577
24.164568 -15.682925 5.2783742
5.3294497 -2.3915901 -1.4390024
52.057556 -35.487686 12.808733
11.06938 -6.5909243 -2.3516178
52.199432 -35.509254 14.421347
0.52618796 1.0992738 -1.0148259
20.208208 -13.355654 -3.4758065
0.63207006 1.0213244 -1.031786
25.107975 -16.924902 -3.5066769
0.6405409 1.017619 -0.98280418
25.109255 -16.887861 -2.7516966
0.76962882 0.9225499 -1.0041993
31.963053 -21.865772 -2.5006974
0.97380745 0.77117801 -1.0579317
8.509387 -4.6877189 -0.50041699
1.1320739 0.65503651 -1.0758865
7.5628605 -3.9842463 -0.21657142
1.2577441 0.56388068 -1.0689386
21.802053 -14.331027 0.20686278
1.437289 0.43268803 -1.0780617
25.196373 -16.762871 0.99608541
1.7568439 0.19718352 -1.1342679
21.251415 -13.86678 1.4660321
1.9910133 0.026432492 -1.1391281
21.045584 -13.685821 2.0843694
2.2688692 -0.17616798 -1.1447449
20.601042 -13.333346 2.6570957
2.7275667 -0.51251161 -1.1914679
20.576231 -13.28436 3.272047
3.2574396 -0.90033209 -1.2312745
23.26926 -15.188618 4.3981414
3.9473293 -1.405079 -1.2792848
23.281574 -15.162113 5.1037908
5.3146439 -2.4086342 -1.4377371
51.860889 -35.58498 12.796339
11.089961 -6.6601582 -2.3586652
51.988522 -35.597137 14.402679
0.53195977 1.0893376 -1.0204145
20.18247 -13.421194 -3.4753635
0.60954052 1.0326216 -1.0187172
25.03134 -16.972519 -3.4996779
0.68916726 0.97454876 -1.0142331
25.093494 -16.980421 -2.7517636
0.775258 0.91177928 -1.0090086
31.948784 -21.986895 -2.4999545
0.9557569 0.7775799 -1.0497574
1.11061 0.66335571 -1.0666165
7.4984646 -3.9706969 -0.21469
1.2552615 0.55730999 -1.069373
21.729843 -14.368884 0.20946054
1.4043572 0.44836283 -1.0651494
25.266222 -16.918076 1.0044698
1.5772066 0.32193717 -1.0626272
21.202845 -13.919762 1.4684772
2.0193338 -0.0062295254 -1.1514249
21.028032 -13.760554 2.0896435
2.2999995 -0.21200362 -1.157079
20.603634 -13.420882 2.6654794
2.6928258 -0.50087744 -1.1822534
21.155651 -13.78951 3.3722713
3.2308908 -0.89699388 -1.2254483
20.676489 -13.410832 3.9267516
3.9146421 -1.3999784 -1.2727304
23.251549 -15.236653 5.1104021
5.2650032 -2.3964777 -1.4285403
51.666416 -35.655087 12.780249
11.092648 -6.7101092 -2.3619633
51.802082 -35.673706 14.386087
0.5329994 1.0818666 -1.0230833
20.062559 -13.433672 -3.4604774
0.58512592 1.0443739 -1.0046983
24.981422 -17.060637 -3.4968739
0.68567878 0.96979964 -1.0139946
26.802439 -18.374224 -2.9300714
0.79176313 0.89129245 -1.0204638
32.019348 -22.197708 -2.5055721
0.96040624 0.76530707 -1.0542386
1.1223679 0.6449222 -1.0745707
7.4776964 -3.9956007 -0.21335287
1.2460058 0.55418652 -1.0669222
6.9716015 -3.6108308 0.021216772
1.4367895 0.41285321 -1.0813907
20.684898 -13.677263 0.81944931
1.6398833 0.26273635 -1.0901386
50.635025 -35.612751 3.5542238
1.985281 0.0056455843 -1.1406182
2.3251333 -0.24618503 -1.1677289
21.161478 -13.931649 2.7469258
2.6878281 -0.51423603 -1.1826711
23.533785 -15.629171 3.7584434
3.1638415 -0.86635244 -1.2085065
20.674934 -13.513165 3.9391072
3.9084384 -1.4183593 -1.2731695
25.161655 -16.739408 5.5391917
5.2241793 -2.3955064 -1.4216423
51.456554 -35.755249 12.766665
11.160263 -6.8184037 -2.3783023
51.609676 -35.787319 14.374766
0.53297275 1.075929 -1.0248145
20.048122 -13.51325 -3.4621832
0.60469103 1.0230448 -1.0192097
24.942629 -17.143244 -3.4951625
0.68541044 0.96339154 -1.0155387
0.75964677 0.90896326 -1.003517
49.774372 -35.567356 -3.8169482
0.91160476 0.79501545 -1.0293936
8.2296438 -4.602632 -0.48650256
1.1021738 0.65190423 -1.0660412
7.3802948 -3.9591508 -0.21091491
1.2105403 0.57228827 -1.0517766
1.3241602 0.48898894 -1.0333019
20.806158 -13.859585 0.8294239
1.6423692 0.25010461 -1.0928906
25.501459 -17.292149 1.7866571
1.8849529 0.069689289 -1.1045557
21.855871 -14.569472 2.1884661
2.3155749 -0.25263149 -1.1662275
20.258566 -13.362721 2.6393905
2.5754058 -0.44438884 -1.1491636
23.909157 -16.009165 3.8291092
3.224117 -0.92921102 -1.2273254
22.730679 -15.110089 4.3357692
3.9863608 -1.4976475 -1.2946094
24.27449 -16.202984 5.3621016
5.1267529 -2.3484182 -1.4019431
51.275875 -35.847862 12.756029
6.5908852 -3.43894 -1.5044758
51.413223 -35.869205 14.357682
0.53412867 1.0686667 -1.0274929
19.965782 -13.54755 -3.4531734
0.60854799 1.0133519 -1.0235933
24.957439 -17.273294 -3.5008168
0.67214942 0.96663535 -1.0091705
0.78344184 0.88311887 -1.0191616
0.8700183 0.81907493 -1.0085136
8.3281307 -4.7180452 -0.4904575
1.1023332 0.64279902 -1.0680058
7.334981 -3.9631076 -0.20926489
1.1897508 0.57881355 -1.0436946
1.2670583 0.52285397 -1.0097681
50.068851 -35.724411 2.0724652
1.6776886 0.21156195 -1.109246
25.573355 -17.466515 1.7998214
1.9702766 -0.0081613697 -1.1386569
2.2841311 -0.2432082 -1.1572778
2.6713333 -0.53322655 -1.1811726
20.764196 -13.801801 3.3428354
3.1748216 -0.91050071 -1.2152793
22.552999 -15.087227 4.3156238
3.9539027 -1.4952998 -1.288371
24.28746 -16.327511 5.3806777
5.1513348 -2.3945637 -1.4094319
51.083584 -35.945335 12.744632
6.7496376 -3.5931706 -1.5370196
51.211514 -35.960567 14.341449
0.53663504 1.0603062 -1.0311325
19.859709 -13.563507 -3.4403327
0.59837955 1.0145836 -1.0187852
25.309446 -17.659351 -3.5513072
0.63626462 0.98765701 -0.98876417
0.79420567 0.86718059 -1.0272787
49.372707 -35.731842 -3.7887371
0.94886422 0.74978846 -1.0534588
8.4004784 -4.8148618 -0.49323782
1.1171024 0.6223129 -1.0774713
7.0499001 -3.7866607 -0.20387158
1.2414927 0.5293135 -1.0702603
6.951601 -3.7013917 0.02503288
1.2639143 0.51550496 -1.0101198
20.579502 -13.889317 0.83026671
1.5742555 0.27964148 -1.0686313
1.8228968 0.092212915 -1.0847802
21.448927 -14.474883 2.1642842
2.2191229 -0.20777775 -1.136678
20.034655 -13.390098 2.6286614
2.660507 -0.54121566 -1.1796827
20.958454 -14.045507 3.3845487
3.1318676 -0.89626557 -1.2050056
22.558384 -15.198858 4.3298874
3.9339659 -1.5023061 -1.2852956
24.067085 -16.280073 5.3484936
5.1584673 -2.4277649 -1.4130757
50.875446 -36.030384 12.729287
51.02544 -36.062618 14.329541
0.52946824 1.0595354 -1.0280493
19.777363 -13.597027 -3.4313638
0.58404356 1.0191646 -1.011224
25.915695 -18.242918 -3.6357529
0.64289427 0.97555077 -0.99468756
0.79345429 0.8601411 -1.0287088
0.88562459 0.79093629 -1.0206933
8.180748 -4.6913252 -0.48297113
0.93449628 0.75578558 -0.98569047
6.9892683 -3.7774191 -0.20203145
1.2176998 0.53814346 -1.0607648
6.9438419 -3.7316523 0.026320728
1.269685 0.50120986 -1.0144489
20.555729 -13.970737 0.83447325
1.6169906 0.23523037 -1.0880795
20.819326 -14.137674 1.4745815
1.851835 0.05739842 -1.0976033
21.662386 -14.738228 2.1942072
2.2047071 -0.21089494 -1.1335777
19.88303 -13.3732 2.6180699
2.6865456 -0.5776003 -1.1898309
21.118069 -14.265585 3.4210043
3.2050045 -0.97104031 -1.2277225
23.422468 -15.951365 4.5066695
3.9809015 -1.5605812 -1.2991664
23.589613 -16.039795 5.2599154
5.1482601 -2.4478707 -1.4128841
50.686119 -36.128609 12.718588
6.177412 -3.2259932 -1.4309608
50.826679 -36.154648 14.314091
0.52541292 1.0570863 -1.0269119
19.717752 -13.636326 -3.4255912
0.57846946 1.017688 -1.0092016
25.714399 -18.199047 -3.6125004
0.6822893 0.93827385 -1.0208098
0.79310423 0.85366011 -1.0301667
8.1896095 -4.7484164 -0.74698865
0.91543001 0.7603485 -1.0386976
8.3362598 -4.8468499 -0.48952493
1.0753942 0.63783228 -1.0596839
6.9913187 -3.8111486 -0.20127724
1.2490069 0.50511324 -1.0774542
6.9619236 -3.7773366 0.027804747
1.4082642 0.38417038 -1.0777879
6.8629084 -3.6909871 0.25026482
1.6151576 0.22651012 -1.0889971
1.8601446 0.039814726 -1.1024224
2.1987126 -0.21880965 -1.1331799
20.228251 -13.718015 2.6712511
2.665796 -0.57607263 -1.185009
23.393513 -16.065065 3.7948761
3.1121547 -0.91590434 -1.2030214
23.939257 -16.438208 4.6169677
3.789798 -1.4329313 -1.2524629
23.475054 -16.054028 5.2485938
5.1692095 -2.4887176 -1.4194139
50.515018 -36.211601 12.708126
50.650898 -36.234859 14.300325
0.5059166 1.0662311 -1.0151957
19.640066 -13.672859 -3.417423
0.57391441 1.0146382 -1.0080749
25.434044 -18.107588 -3.5791798
0.68029612 0.9326902 -1.0214622
25.919378 -18.441893 -2.8516259
0.77806509 0.85790461 -1.0232463
8.1360302 -4.7495708 -0.74319148
0.89710617 0.76659214 -1.0305158
1.0318201 0.6632359 -1.0391648
7.4232492 -4.1781039 -0.20700651
1.2296345 0.51055396 -1.0700829
7.028615 -3.8647037 0.030148238
1.3082919 0.45221633 -1.035061
6.8741894 -3.7355571 0.25264478
1.5961871 0.22985344 -1.0830679
1.8963234 -0.0012082569 -1.1181008
2.1189511 -0.17075627 -1.1073254
20.210892 -13.803184 2.6783285
2.6181421 -0.55538005 -1.1718965
21.03949 -14.39856 3.4294224
3.1725686 -0.9814868 -1.2222041
23.114679 -15.931589 4.4744096
3.97452 -1.5981542 -1.3013667
23.967846 -16.538355 5.3726335
5.1012163 -2.464221 -1.4063437
23.77133 -16.353493 6.0644193
6.0446129 -3.1851139 -1.4090588
50.450409 -36.324135 14.284358
0.50717723 1.0592228 -1.0178882
19.588572 -13.723759 -3.413286
0.57231152 1.0096264 -1.0087968
25.267975 -18.095423 -3.5608366
0.66865677 0.93523014 -1.0159913
0.72207731 0.89537656 -0.99213409
7.9667711 -4.6586151 -0.73083985
0.88624394 0.76751053 -1.0263141
1.0830312 0.61423326 -1.0673789
7.1092129 -3.9730787 -0.20134202
