# .PCD v0.7 - Point Cloud Data file format
VERSION 0.7
FIELDS x y z
SIZE 4 4 4
TYPE F F F
COUNT 1 1 1
WIDTH 1557
HEIGHT 1
VIEWPOINT 0 0 0 1 0 0 0
POINTS 1557
DATA ascii
1.8081468 5.2930698 1.0867172
-4.4181194 3.9137166 1.1038256
-4.4020939 3.9234729 1.1038393
-4.3858876 3.9286683 1.1031635
-4.3678513 3.9372084 1.1028337
-4.3476586 3.9377856 1.101128
-4.3305573 3.9456415 1.1007956
-4.3124375 3.9517412 1.1001201
-4.2952156 3.954973 1.0990995
-4.2771235 3.9632108 1.0987662
-4.2579994 3.9674256 1.0977455
-4.2417579 3.9721987 1.0970666
-4.2216806 3.9768362 1.096045
-4.2064319 3.9877217 1.0963961
-4.1892071 3.9906261 1.0953717
-3.7441072 4.2432623 1.0994782
-3.729104 4.2501078 1.0994712
-3.3313394 4.4379683 1.1029028
-2.7902079 -7.6526766 1.0074977
-2.7699828 -7.6417522 1.0049087
-2.7486863 -7.63515 1.0029262
-2.7067442 -7.6236439 0.99927312
-2.7274427 -7.6284752 1.0009444
-1.110545 -7.0520573 1.0044435
-1.0959893 -7.0480757 1.0036732
-1.0148571 -7.0254488 0.99943644
-1.0785601 -7.0420609 1.0025368
-1.0640752 -7.0360241 1.0014143
-1.0476854 -7.0299234 1.0002832
-1.0312992 -7.0257425 0.99950653
-0.99956316 -7.0172558 0.99795824
-0.98426282 -7.0109911 0.99683368
-0.96905184 -7.0027132 0.99535662
-3.300528 -7.4914246 1.0111428
-3.310894 -7.4645205 1.0078542
-3.3224859 -7.4413118 1.0051874
2.0818629 -5.9827671 0.99105787
2.0985746 -5.982933 0.99283385
2.1126924 -5.9727945 0.99285924
2.1306157 -5.9695568 0.99428934
2.1602731 -5.957674 0.99574238
2.2121463 -5.9462185 0.99968535
2.1419687 -5.9588671 0.9939608
2.1766534 -5.95051 0.99647242
2.1906815 -5.9450216 0.99719852
3.8662558 -5.3831968 0.98796332
3.8909616 -5.3772116 0.99049962
3.91255 -5.3686972 0.9924233
3.9329944 -5.3648176 0.99463624
3.9561572 -5.3573189 0.99686843
-3.6577835 -6.4453783 1.02167
-3.6662407 -6.4277754 1.0196375
-3.6763382 -6.4092684 1.0176197
-3.6820121 -6.3907948 1.0152118
4.1516676 -3.1777394 1.0090914
4.1757092 -3.1671491 1.0127807
-6.1568432 0.77938581 1.0854411
-6.163023 0.79909068 1.08823
-6.1655583 0.81722295 1.0902499
-6.1493855 0.82896709 1.0884287
-6.1361828 0.83882976 1.0869734
-6.1235194 0.85208583 1.085921
-6.1281652 0.90658873 1.0915968
-6.1400895 0.93164879 1.095939
1.347491 4.3669863 1.0864905
1.3692373 4.3727627 1.0887148
1.3954208 4.3830204 1.0919304
2.7442322 4.8643398 1.0858414
2.7733426 4.8720741 1.088841
1.1912704 4.4727793 1.0945791
2.7357254 4.8903408 1.0886077
2.3740211 5.0821686 1.0901918
0.51539934 4.6641912 1.0946763
0.53831297 4.6723356 1.0969158
0.49764866 4.670927 1.0951375
0.55806434 4.6812811 1.0991753
0.48751304 4.6980267 1.0993072
-5.4402938 3.2200353 1.1124039
-5.4196715 3.225554 1.1107391
-5.4008827 3.2346544 1.1097617
-5.3815837 3.2414839 1.1084381
-5.3687053 3.2504091 1.1081346
-5.3477349 3.2585864 1.106815
-5.3326874 3.2666874 1.1061704
-5.3276939 3.2895074 1.1086152
1.8357754 5.3048077 1.0897585
1.8646814 5.3159246 1.0927887
1.8920692 5.3233137 1.095237
1.9183398 5.3311281 1.0976931
-4.5765038 3.8536813 1.1095186
-4.563715 3.8666232 1.1102228
-4.5235724 3.8759081 1.107856
-4.5064864 3.8820586 1.1071846
-4.5467629 3.8751547 1.1098964
-4.4903336 3.8875608 1.1065128
-4.471354 3.894778 1.1058428
-4.4532104 3.8990839 1.1048268
-4.4372187 3.9089432 1.1048417
-4.2122202 4.0725508 1.1097999
-3.7329412 4.3067684 1.1087315
-3.7165499 4.3162928 1.1090657
-3.7005563 4.3212624 1.1087145
-1.6954241 4.8562727 1.1067469
-1.6774633 4.8677664 1.1083881
-1.6609988 4.8711653 1.1086689
-1.642616 4.8786297 1.1096247
-1.6241978 4.8860435 1.11058
-1.7173508 4.8760204 1.1105804
-3.3503022 4.4413853 1.1046373
-3.6800284 4.3712187 1.1152154
-2.6158156 4.6678152 1.1033483
-2.1546559 4.7957954 1.1079286
-3.4553471 4.4579945 1.114
-2.1719432 4.8049126 1.1100291
-2.8767133 -7.6799774 1.0157502
-2.8524647 -7.6683311 1.0128257
-2.8293562 -7.6604052 1.0105217
-2.81218 -7.6569347 1.0091791
-1.24185 -7.1039333 1.0145743
-1.2240582 -7.0964108 1.0130792
-1.2102556 -7.0907373 1.0119563
-1.192548 -7.0831213 1.010463
-1.1768947 -7.0813236 1.0100386
-1.1612133 -7.0735846 1.0085547
-1.1436357 -7.0677757 1.0074167
-1.1270678 -7.0619106 1.0062833
-3.2854557 -7.5556297 1.0196013
-3.294127 -7.5231466 1.0153805
2.2285171 -5.9388695 1.0004175
2.244503 -5.9342146 1.0014979
2.2597194 -5.9300833 1.0025774
2.2764826 -5.9247246 1.0036603
2.3063884 -5.9091549 1.0047737
2.322361 -5.9042244 1.0058565
2.358283 -5.8960829 1.0087308
2.2864676 -5.9120979 1.0029846
2.3391056 -5.8986349 1.0069418
2.3710456 -5.8884964 1.0091101
2.3865514 -5.881196 1.0098456
3.9757204 -5.3511829 0.99878073
3.9966354 -5.3431902 1.000703
4.0207109 -5.3374767 1.0032401
4.0384583 -5.3269262 1.0045496
4.0616202 -5.3189316 1.0067861
-3.6459417 -6.4933128 1.0282396
-3.6519475 -6.47264 1.0254822
4.195694 -3.1561687 1.0157496
4.2381983 -3.1521263 1.0230027
4.2500653 -3.1404185 1.024533
4.247716 -3.1212287 1.0232276
-6.1425786 0.94905049 1.0979521
-5.7767529 1.6163894 1.104689
-5.7990346 1.6112152 1.1077054
-6.5452094 1.9280226 1.1096978
-6.5556512 1.9557877 1.1138748
-6.5626526 1.9815254 1.1173704
1.4165002 4.3868227 1.0938157
1.439203 4.3941622 1.0963732
1.4637907 4.4027777 1.0992569
1.4884495 4.4113007 1.1021398
2.8089094 4.8850527 1.092972
2.8381877 4.8925362 1.0959696
2.8760056 4.910943 1.1009717
1.1948866 4.53479 1.104826
2.7546906 4.9621029 1.0991652
2.7445889 4.9912262 1.1022451
0.60048229 4.6879911 1.1019642
0.58110958 4.68927 1.1014121
0.62307656 4.7062206 1.1059132
0.64414531 4.706398 1.1067945
0.66309851 4.7153244 1.1090569
-5.6138296 3.1346714 1.1218365
-5.5995436 3.1457806 1.1215453
-5.5795054 3.1541526 1.1202316
-5.5591755 3.1572642 1.1182232
-5.5453796 3.1704087 1.1182766
-5.5247793 3.1763542 1.1166154
-5.5122824 3.1908352 1.1170093
-5.49301 3.1980863 1.1156899
-5.4775276 3.2044246 1.1147033
-5.4574237 3.2122965 1.113386
1.9478735 5.3395824 1.1004205
1.9751726 5.3554907 1.1040549
-4.2262325 4.1346226 1.1204486
-4.1918917 4.1512203 1.1201161
-4.2133727 4.1484499 1.1214849
-1.6069978 4.8952818 1.1118808
-1.588353 4.9006271 1.1124929
-1.5694059 4.9019852 1.112421
-1.5507181 4.9072199 1.1130326
-1.5344843 4.9161854 1.1143351
-1.4969507 4.9263945 1.1155543
-1.5159695 4.9252548 1.1156288
-1.4782521 4.9333849 1.1165053
-1.4596188 4.9422884 1.1177971
-1.4432766 4.9529953 1.1194383
-1.4243555 4.95786 1.1200454
-3.9743142 4.2973995 1.1252817
-3.9565635 4.2995415 1.1242485
-3.9402504 4.3097029 1.1245885
-3.9204793 4.3127184 1.123554
-3.9013996 4.3197069 1.1232054
-3.8655744 4.3280134 1.1218228
-3.8868718 4.331007 1.1238885
-3.6717482 4.3941622 1.1182948
-3.6550703 4.4035168 1.1186264
-3.6188121 4.4125662 1.1175715
-3.6013041 4.4199533 1.1175584
-3.581502 4.4218292 1.1165147
-3.567255 4.4341393 1.11753
-3.5484791 4.4354782 1.1164862
-3.5301595 4.4408293 1.1161268
-3.5147786 4.4534321 1.1171401
-3.4964161 4.4586782 1.1167805
-3.4773216 4.4620371 1.1160767
-3.6437755 4.4255075 1.1213603
-2.1433663 4.8515348 1.1171137
-2.1246848 4.862504 1.1184241
-2.5848989 4.7784891 1.1207037
-2.547709 4.7870646 1.1206137
-2.2596846 4.8657055 1.1232634
-2.5685201 4.7924061 1.1223729
-2.5323439 4.8006353 1.1222839
-2.4969597 4.8125143 1.1228787
-2.4587517 4.8167095 1.1220978
-2.5160637 4.8103266 1.1232688
-2.4795122 4.82234 1.1238598
-2.4420624 4.8302917 1.1237625
-2.9832764 -7.7189388 1.0269088
-2.9614248 -7.7130566 1.0249177
-2.9396043 -7.7029982 1.0223138
-2.9200416 -7.7004566 1.0209528
-2.8956337 -7.6889763 1.0180256
-1.3735907 -7.1527748 1.0247328
-1.3577614 -7.1534548 1.024657
-1.3235676 -7.1390171 1.021668
-1.3073959 -7.1277523 1.0194722
-1.2903064 -7.1164742 1.0172721
-1.2733892 -7.1090775 1.01578
-1.2586635 -7.1094561 1.0157115
-3.2673616 -7.616498 1.0274268
-3.2729239 -7.5810385 1.0225689
2.4057431 -5.8784475 1.0116363
2.4212346 -5.871027 1.0123726
2.4367199 -5.863555 1.0131091
2.4551625 -5.8612251 1.0148993
2.5058074 -5.844986 1.018519
2.4678588 -5.8533688 1.0152813
2.4865837 -5.8481445 1.0167251
2.5204954 -5.8378601 1.0192562
4.0843716 -5.3147297 1.0093157
4.1039486 -5.3080988 1.0112324
4.1303129 -5.3021336 1.0140859
4.1496248 -5.2923279 1.0157069
4.1650529 -5.2810507 1.0167086
-3.6165156 -6.5826149 1.03993
-3.6212025 -6.556201 1.0361048
-3.6327605 -6.539506 1.0344487
-3.6398482 -6.5161877 1.0313483
-6.1331997 1.0908632 1.1095037
-5.8005862 1.6724572 1.114907
-5.8069296 1.6945951 1.1184586
-6.5761952 2.0115743 1.1222289
-6.5867195 2.0425661 1.1267575
1.5129558 4.4219856 1.1053666
1.5387987 4.4298544 1.1082377
1.5605764 4.4394932 1.1111436
2.9034085 4.9124489 1.1030902
2.9382873 4.9255466 1.1072249
2.9689031 4.936574 1.1108037
1.1897035 4.568449 1.110003
1.1766094 4.5945091 1.113529
2.7355947 5.0173044 1.1050152
2.7244711 5.039978 1.107208
2.7139721 5.0690956 1.1102896
1.0058106 4.6146135 1.1079715
0.98857719 4.6268511 1.109126
1.0344065 4.6380138 1.1132356
0.97534531 4.6439047 1.1112776
0.96520823 4.6702652 1.1151162
0.68865114 4.7305002 1.1126422
0.71096373 4.7342319 1.1141968
-5.6830921 3.1246879 1.1288656
-5.3732567 3.3701286 1.1244282
-4.1536818 4.2321634 1.129401
-4.1338701 4.2381725 1.1287168
-4.0614638 4.2602148 1.1263175
-1.4046263 4.9705925 1.1220136
-1.3875655 4.9673729 1.121262
-1.3675921 4.9760561 1.122546
-1.3486242 4.9826679 1.1234915
-1.3317534 4.9852123 1.1237631
-1.3116537 4.9937172 1.1250451
-1.2756523 5.0025625 1.1262592
-4.1742716 4.2323589 1.1311148
-4.1177025 4.2510986 1.1294054
-4.0811043 4.2589884 1.1276906
-4.0463033 4.2701645 1.1266607
-1.2937661 5.0021057 1.126336
-1.2554681 5.012866 1.1278807
-1.2374943 5.0230694 1.1295108
-1.219318 5.0233679 1.1294329
-4.1045842 4.2601528 1.1297503
-4.0309887 4.2823286 1.1273468
-4.0119781 4.2896833 1.1270025
-3.9940872 4.2942057 1.1263133
-1.782425 4.9646759 1.1271974
-1.7441435 4.9803686 1.1291095
-1.7650629 4.9961338 1.1322566
-2.4252176 4.8378134 1.1244016
-2.4083385 4.8452969 1.1250404
-2.3530703 4.8623056 1.1259156
-2.3168759 4.8652163 1.125133
-2.3899918 4.8570395 1.1263576
-2.373004 4.8584061 1.1259704
-2.3005371 4.8822947 1.1274776
-2.2826958 4.8915854 1.1284513
-2.3382959 4.8812037 1.1286076
-2.0828009 4.9466991 1.1316115
-2.0659781 4.9571581 1.1329244
-3.092885 -7.7535324 1.0377954
-3.0713515 -7.749918 1.0361096
-3.049787 -7.7421169 1.0338119
-3.0074067 -7.7281895 1.0295299
-3.0248976 -7.7270126 1.0302651
-3.2346954 -7.6967363 1.0372905
-3.2443638 -7.668375 1.0336862
-1.4906853 -7.1996126 1.0348442
-1.474246 -7.1927624 1.0333494
-1.4594139 -7.1956339 1.0336294
-1.4421409 -7.190712 1.0324845
-1.4238017 -7.1838303 1.030982
-1.4073027 -7.1728544 1.0287819
-1.3905149 -7.175642 1.0290538
-3.2545342 -7.641881 1.0303936
2.535172 -5.8306913 1.0199944
2.5538974 -5.8251925 1.02144
2.5695934 -5.8221989 1.0228777
2.5883226 -5.8165693 1.024325
2.6037321 -5.8085251 1.0250669
2.6216984 -5.8034105 1.0265131
2.6415029 -5.8018494 1.0286613
2.6542993 -5.7906599 1.0287009
4.1930318 -5.2759142 1.0198717
4.2116551 -5.2667818 1.0214891
4.2360687 -5.263073 1.024332
4.2585816 -5.255105 1.0265707
-3.5931582 -6.6463871 1.048164
-3.5990424 -6.6217299 1.0446992
-3.6082716 -6.6019583 1.0423192
4.5540991 -0.73082495 1.0636162
4.5459909 -0.71477455 1.0626795
4.5457687 -0.69868618 1.0631894
-6.1599946 1.2337065 1.1278895
-5.8131294 1.720354 1.1224115
-5.8235774 1.7467649 1.1271296
-5.835535 1.7743672 1.1322347
-6.5960727 2.0716338 1.130941
-6.6082025 2.0999515 1.1354548
1.585742 4.4453802 1.1136775
1.6122049 4.4592791 1.1175712
1.6354409 4.4659243 1.1201208
1.6599767 4.4697323 1.122315
3.0039377 4.9517679 1.1152338
3.0413399 4.9653664 1.119639
1.1672615 4.6211967 1.1173673
1.1564051 4.644187 1.1205316
1.1436765 4.6657104 1.1233679
2.7087679 5.0996304 1.1139162
1.0716035 4.6917715 1.1239113
0.95260197 4.6932411 1.1182888
0.94391757 4.7210855 1.1224585
0.92998141 4.7443857 1.1256399
2.2099609 5.4380465 1.1282271
-1.2012376 5.0315008 1.1307207
-1.1819693 5.0395899 1.1320022
-1.1614745 5.0397511 1.1319131
-1.1432801 5.0496922 1.1335392
-1.1261737 5.0556374 1.1344883
-1.1044604 5.0635061 1.1357578
-1.0872829 5.0693512 1.1367046
-1.0689447 5.0731707 1.1373048
-1.0481794 5.0867682 1.1396008
-1.8808068 5.0073986 1.1367558
-2.0468507 4.9678946 1.1342294
-2.0285196 4.9764709 1.1351954
-2.0116024 4.9788227 1.1351411
-1.9923379 4.989399 1.1364444
-1.9739982 4.989852 1.1360431
-1.9556645 4.9902544 1.1356413
-1.9371845 4.9985695 1.1366044
-1.9184242 5.0048742 1.1372247
-1.8996315 5.0111246 1.1378436
-1.8626496 5.0194159 1.1384006
-3.1597753 -7.777812 1.0450145
-3.2037439 -7.782135 1.0480894
-3.1814985 -7.7811317 1.0467031
-3.1390781 -7.7699528 1.0427209
-3.1162481 -7.7627268 1.0404129
-3.2121224 -7.7522869 1.0441688
-3.2250538 -7.7292004 1.0415069
-1.6104311 -7.2400064 1.0442827
-1.5947227 -7.2334185 1.0427887
-1.5442549 -7.2195873 1.0393524
-1.5258253 -7.2149935 1.0381998
-1.5760465 -7.2270298 1.0412803
-1.5605646 -7.2223091 1.0401415
-1.509295 -7.2082443 1.0367036
2.6726179 -5.7902927 1.0308453
2.6874309 -5.7798233 1.0312405
2.7048392 -5.7722473 1.0323404
2.7246814 -5.7703409 1.0344907
2.743228 -5.7668953 1.0362902
2.756494 -5.7575483 1.0366832
2.776372 -5.7554274 1.038835
4.2817469 -5.2460976 1.0288166
4.3287082 -5.2338066 1.0339034
4.3019743 -5.237751 1.0307446
4.3486152 -5.2222462 1.0355361
-3.5654836 -6.7052031 1.0553108
-3.573288 -6.6863194 1.052916
-3.5837235 -6.6661453 1.0505438
6.5743175 -2.3648231 1.0505068
6.5728073 -2.3428836 1.050146
6.5832019 -2.3209217 1.0514036
4.5936012 -0.80870819 1.0683241
4.5838828 -0.79368585 1.0670152
4.5682678 -0.77942431 1.0646152
-6.2415524 1.1633486 1.1350491
-6.2436523 1.184854 1.1374658
-6.2274823 1.1945959 1.1356274
-6.2056241 1.2024134 1.1326345
-6.1929021 1.2138402 1.1315666
-6.1814141 1.2270254 1.1308891
-6.1592846 1.2515047 1.1295215
-6.16961 1.2776617 1.1338663
-6.1116991 1.4357282 1.1401598
-6.0911722 1.4435605 1.1375443
-6.0836315 1.4601594 1.1380248
-6.0657902 1.4671153 1.1357841
-6.068275 1.4897003 1.1385818
-5.9317722 1.6808196 1.137037
-5.8322854 1.7928182 1.1338608
-6.61935 2.1332722 1.1403315
-6.6279402 2.1596048 1.1441635
-6.6318765 2.1857495 1.1473246
1.6902615 4.4881964 1.1272041
3.078867 4.9787884 1.1240442
3.1054907 4.9850645 1.1267638
1.134233 4.6964664 1.1278908
1.1236926 4.7212696 1.1313938
1.1090218 4.7349367 1.1328739
0.92130244 4.7804184 1.1311772
0.91048539 4.8067255 1.1350189
0.85068733 4.805069 1.1320251
0.87242419 4.8126869 1.1342657
0.89723158 4.8296185 1.1381931
2.2370639 5.4447346 1.1306698
2.2671804 5.4542904 1.1336815
2.2982602 5.4655075 1.1369805
-1.0286492 5.0884895 1.1398531
-1.0101925 5.0941181 1.1407933
-0.99170184 5.0996962 1.1417326
-0.9708302 5.1071377 1.1430016
-0.95347232 5.1106625 1.1436038
-0.9127388 5.1233025 1.1458025
-0.93355715 5.1219549 1.1455587
-0.89495909 5.1365213 1.1481076
-0.87523645 5.1377869 1.1483562
-1.7169716 -7.2913046 1.0557899
-1.6991605 -7.2871695 1.0546361
-1.664276 -7.2747202 1.0516274
-1.6828399 -7.2769051 1.0524312
-1.6482296 -7.2663231 1.0497776
-1.6298779 -7.2541294 1.0472094
2.7937636 -5.7475119 1.0399377
2.8123264 -5.7438002 1.0417393
2.8270288 -5.7328653 1.0421392
2.8461986 -5.7311478 1.0442913
2.8614788 -5.7222271 1.0450419
2.8800535 -5.7182474 1.0468452
2.8966627 -5.7106419 1.0479485
4.3724346 -5.2188816 1.0383782
4.3955989 -5.2093515 1.0406281
4.416472 -5.1995783 1.0425657
4.4442482 -5.1971493 1.0460309
-3.5444226 -6.7778301 1.0653305
-3.5614634 -6.7396431 1.0605513
-6.2237935 1.3257699 1.1478522
-6.1871557 1.4031788 1.14947
-6.1761718 1.4144835 1.1487781
-6.1517353 1.4215306 1.1453984
-6.1278124 1.4275781 1.1420119
-6.0812621 1.5175544 1.1436944
-6.0241003 1.6793114 1.1518742
-6.0031638 1.6863744 1.1492507
-5.9866257 1.6937863 1.1473897
0.54848671 4.0676107 1.1364276
0.56857008 4.0779467 1.1393907
0.58680207 4.0785341 1.1404262
0.60758501 4.0906096 1.1437715
-6.6461706 2.2175605 1.1525261
-6.6573977 2.2503095 1.1573982
3.1443172 4.9998417 1.1314517
3.1776953 5.0133953 1.1355968
3.212337 5.0236597 1.1394298
-4.6368032 3.1429396 1.1539382
-4.6934719 3.1316292 1.1589043
-4.6761694 3.1375425 1.1577681
-4.6600528 3.1449587 1.1570202
-4.6242371 3.1549151 1.1543558
-4.5908661 3.1627996 1.1516846
-4.5715704 3.1673746 1.1501578
-4.6097226 3.1609342 1.1536036
-4.5592651 3.1813521 1.1509637
-4.5493598 3.1934986 1.1517663
2.4001727 5.4721518 1.1438265
2.3276777 5.473052 1.1397002
2.355062 5.4793224 1.1421384
2.3881855 5.4937134 1.1460136
-0.85626578 5.1488905 1.1503143
-0.83739793 5.1560001 1.151589
-1.822798 -7.3270578 1.0648369
-1.8055711 -7.3211737 1.0633307
-1.788602 -7.317193 1.0621789
-1.7695675 -7.3034925 1.0592501
-1.7541211 -7.3032131 1.0588144
-1.7346079 -7.2934284 1.0565908
2.9159889 -5.7058144 1.0497562
2.933949 -5.6994972 1.0512128
2.9525485 -5.6952343 1.0530196
2.965661 -5.6852512 1.0534172
2.9863667 -5.6815538 1.0555804
3.0070834 -5.6777716 1.0577435
3.0229321 -5.6704264 1.058848
4.4641237 -5.1851063 1.0476687
4.4876299 -5.1782017 1.0502181
4.5111451 -5.1711922 1.0527691
4.538619 -5.1652517 1.0559413
-3.5249333 -6.8212519 1.0707945
-3.5367007 -6.8051357 1.0691342
-6.2617927 1.366545 1.1583712
-6.2442384 1.3779067 1.15654
-6.2276659 1.3873985 1.1546977
-6.2115822 1.3959329 1.1528484
-6.1203423 1.5590558 1.1545942
-6.1017685 1.6487128 1.1612111
-6.0863638 1.6584169 1.1597455
-6.0643144 1.6638504 1.1567326
-6.048893 1.6734093 1.1552656
0.64658791 4.098958 1.1473744
0.66517365 4.1033468 1.1491817
0.62921858 4.098259 1.1463352
0.68719679 4.1148262 1.1525167
3.2404642 5.0239134 1.1415349
-4.8268723 3.0809717 1.1672035
-4.810411 3.0867231 1.166069
-4.7948031 3.0967598 1.1657168
-4.7795467 3.1039331 1.1649706
-4.7425361 3.1132364 1.1619247
-4.7626748 3.1123281 1.1642287
-4.7284722 3.1217844 1.1615661
-4.7107711 3.1256514 1.1600404
-4.5697923 3.2490246 1.1630752
2.535253 5.4804401 1.1530436
2.4752359 5.5138416 1.1538758
-1.9498504 -7.3680468 1.075783
-1.931324 -7.3626814 1.0742669
-1.9130974 -7.3592081 1.0731049
-1.8956672 -7.3535862 1.0715954
-1.8770003 -7.3460989 1.069726
-1.8609197 -7.3421946 1.068578
-1.8415592 -7.3366737 1.0670587
3.0415444 -5.6658125 1.0606569
3.0595016 -5.6590128 1.0621178
3.0781255 -5.6542654 1.0639284
3.0988817 -5.6500874 1.0660943
3.1196485 -5.6458292 1.068261
4.5634303 -5.1560421 1.0585057
4.5823512 -5.1485558 1.0604322
4.605495 -5.1380692 1.06269
4.6306868 -5.1315994 1.0655533
-3.4964261 -6.9221516 1.0849813
-3.5070157 -6.9024668 1.0826054
-3.535779 -6.8832464 1.0817876
-3.5140347 -6.8800077 1.0794975
-6.1676688 1.6095678 1.1678302
-6.1640182 1.6267337 1.1690733
-6.1436296 1.6335719 1.1664501
-6.1271482 1.6451787 1.1649958
0.70649296 4.1209488 1.1547067
0.72743148 4.1285477 1.1572715
0.74816865 4.1320162 1.1590618
0.76663035 4.1382675 1.1612558
0.51737434 4.2077084 1.1614747
0.50886631 4.2305593 1.165413
-4.8647695 3.0753605 1.1710259
-4.8482971 3.0812404 1.1698927
-4.5960131 3.3148441 1.1767205
2.5393167 5.5386105 1.1610435
0.56477004 5.0730295 1.1651092
-2.0417719 -7.4061699 1.0854886
-2.06037 -7.4032478 1.085596
-2.0234637 -7.3970375 1.0832647
-2.0041823 -7.3880081 1.0810355
-1.9852442 -7.3808603 1.0791621
-1.9686935 -7.375309 1.0776554
3.1390195 -5.6401014 1.0700767
3.1541214 -5.6330509 1.0711819
3.1935644 -5.6233587 1.0751649
3.1699643 -5.6223364 1.0719451
3.2100954 -5.6146173 1.0762781
3.2301903 -5.6077642 1.0781
4.6492047 -5.1207943 1.0671858
4.6806908 -5.1152496 1.0709859
4.7059054 -5.1084337 1.0738513
4.7239823 -5.0942707 1.0751911
-3.4725471 -7.0010357 1.0960451
-3.479609 -6.9723272 1.0918803
-3.4857421 -6.9418201 1.087357
5.645144 -0.3666715 1.1099856
5.6591282 -0.34249559 1.1130512
0.79089886 4.1549387 1.1657368
0.80982906 4.1588593 1.1675383
0.83458519 4.1794081 1.1727912
0.49731815 4.2583113 1.1701472
0.48492339 4.2719803 1.1721715
-6.7337723 2.4693325 1.1904299
-4.6192775 3.3754716 1.1891969
0.56448781 5.1483755 1.1777577
-2.1373577 -7.4444304 1.0955795
-2.1536608 -7.4396315 1.0953223
-2.0982533 -7.4210491 1.0900536
-2.1713428 -7.4305439 1.0943679
-2.1144347 -7.4223547 1.0908549
-2.0797987 -7.4120932 1.0878272
3.2474165 -5.600997 1.0795639
3.2653556 -5.5934048 1.0810311
3.2832952 -5.588624 1.082845
3.299067 -5.5803289 1.0839583
3.3191471 -5.5730896 1.0857835
4.7508745 -5.0882826 1.0783666
4.77209 -5.0801172 1.0806129
4.7979331 -5.0718451 1.0834886
4.8203993 -5.06141 1.0857495
-3.4466062 -7.0696125 1.1053373
-3.4543915 -7.047164 1.1022323
-3.4609523 -7.0166483 1.0977111
5.7074428 -0.49800259 1.115386
5.7066135 -0.47865534 1.115881
0.55619341 4.2741137 1.1759483
-6.7436194 2.4997883 1.1949527
-6.7558475 2.5335989 1.2001618
-4.5217662 3.5107825 1.2003028
-4.5047288 3.5176013 1.1995459
-4.4907451 3.5270324 1.1995652
-4.4800048 3.5413132 1.2007529
-0.74289507 5.4355221 1.2002774
-0.72322375 5.4403439 1.2012056
11.075217 9.3291855 1.1827821
-2.2670522 -7.4769812 1.1062402
-2.2303829 -7.4718647 1.1039009
-2.2098002 -7.4536362 1.0998932
-2.188971 -7.4454012 1.0976504
3.3421602 -5.5713196 1.0886601
3.3622818 -5.5667963 1.0908316
3.400342 -5.5540838 1.0944765
3.380919 -5.5579758 1.0923069
3.4153304 -5.5432777 1.0952445
3.4339976 -5.5371428 1.0970663
4.846242 -5.0529051 1.0886269
4.8771772 -5.0473137 1.0924293
4.8956118 -5.0355721 1.0940707
-3.4287901 -7.1237965 1.1129379
-3.437511 -7.0946827 1.108784
-6.7661376 2.5632501 1.2046787
-6.7757726 2.5970972 1.209553
-6.7827778 2.6277421 1.2137398
-6.7162876 2.7046103 1.2128119
-6.6920753 2.713866 1.2105154
-6.6692266 2.7179565 1.2078556
-6.6457524 2.7260485 1.2055522
-6.6316671 2.7412186 1.2052965
-6.6417046 2.7734292 1.2101582
-4.6349869 3.4607074 1.2048146
-4.6274228 3.4756873 1.2063916
-4.6073122 3.4802575 1.2048609
-4.5905724 3.4895768 1.204497
-4.574183 3.4938078 1.2033503
-4.5560532 3.4991882 1.2022054
-4.5392652 3.5083361 1.2018406
2.7718453 5.6320524 1.1878239
2.7996459 5.632596 1.1896538
2.8322887 5.6416874 1.1929283
-6.2352028 3.2799246 1.215654
-6.2146831 3.2874556 1.2140065
-0.39874554 5.4477549 1.2053484
-0.37933338 5.4575958 1.2072929
-0.35600212 5.4689445 1.2095577
-0.33636415 5.4687376 1.2097939
-0.66201437 5.4484081 1.2029501
-0.70231688 5.4450321 1.202126
-0.68258762 5.4497395 1.2030526
-0.6218676 5.4653988 1.2061626
-0.5970307 5.4872837 1.210132
-0.63802648 5.4783878 1.2082915
11.206349 9.3191919 1.1885347
11.051614 9.37673 1.1842734
-2.3826871 -7.5100212 1.1168351
-2.3632226 -7.5060244 1.115302
-2.3434048 -7.5000372 1.1134144
-2.3258338 -7.4995689 1.1126002
-2.3039055 -7.4878712 1.1096419
-2.2873654 -7.4810839 1.1077762
3.4555497 -5.5306416 1.0992494
3.4742188 -5.5243483 1.1010725
3.4921088 -5.5158806 1.1025484
3.5107737 -5.509449 1.104373
3.5346074 -5.5059872 1.1072608
4.9276547 -5.0317736 1.0981772
4.9500952 -5.0207787 1.1004429
4.9793715 -5.0136547 1.1039419
-3.4013009 -7.1985722 1.1232808
-3.4119139 -7.1731243 1.1198444
-3.4196744 -7.146637 1.1160336
-6.8006501 2.6634541 1.2199627
-6.7891765 2.6824419 1.2204003
-6.7625165 2.6887033 1.2174187
-6.7405005 2.6952288 1.215108
-6.6594424 2.8149016 1.2170804
-6.6668582 2.8470716 1.2216057
-4.5021811 3.6090405 1.2143958
2.874692 5.6679106 1.1990917
2.9036775 5.6698179 1.2012067
2.9409499 5.6919622 1.2065217
-6.3666015 3.2356412 1.2268764
-6.3469143 3.242753 1.2252289
-6.3218288 3.2498643 1.2229106
-6.3013167 3.2577217 1.2212665
-6.2778959 3.2628319 1.2189376
-6.2571664 3.2736547 1.2176418
-6.2283554 3.3304565 1.2209237
-6.2423306 3.3673027 1.2271396
0.5084042 5.3448839 1.208885
0.49493748 5.3784628 1.2140977
0.095408075 5.4643888 1.2172525
-0.55713522 5.4960346 1.2119774
-0.51746905 5.5006304 1.2131385
-0.49410287 5.5144043 1.2157482
-0.57800561 5.4957094 1.2117423
-0.53492922 5.5120049 1.2149352
-0.47327694 5.5263634 1.2180294
-2.4632211 -7.5409851 1.1258109
-2.4414644 -7.5377131 1.1242614
-2.4241929 -7.5293732 1.1220354
-2.4025927 -7.5158796 1.1187238
3.5510907 -5.4989185 1.1087297
3.571156 -5.4906206 1.1105645
3.5898252 -5.4838781 1.1123915
3.6128936 -5.4779491 1.1149337
3.6278543 -5.4693375 1.1160524
-3.3851256 -7.2515392 1.1308993
5.0080366 -5.007452 1.1074356
5.0327978 -4.996026 1.1100192
5.0551043 -4.9887943 1.1125771
5.0809608 -4.9791937 1.1154643
-3.393558 -7.2228317 1.1267402
-6.677207 2.8786018 1.2264628
-6.6920757 2.9170394 1.2326977
2.9671383 5.6884708 1.2077684
3.0051808 5.705472 1.2124791
3.0393949 5.7154617 1.2160338
-6.4571452 3.2020156 1.234444
-6.4086056 3.2152848 1.2298052
-6.4789748 3.1980371 1.2367753
-6.4350042 3.2122366 1.2328137
-6.3864636 3.2253098 1.2281717
-6.2513108 3.4064758 1.2330296
-6.2515683 3.4375646 1.2368666
-6.2324286 3.443248 1.2352097
-6.2126746 3.4551718 1.2342522
-3.2626042 4.3065796 1.2264235
-6.1553946 3.5414512 1.237987
-3.2457442 4.3169603 1.2271791
-3.2122917 4.3291073 1.2271357
-3.1950288 4.3352852 1.2271129
-3.1086006 4.3591499 1.2258258
-6.1376734 3.5535758 1.2373646
-3.2325568 4.3280401 1.228327
-3.180438 4.3425455 1.2274816
-3.1608229 4.3452845 1.2266777
-3.1282282 4.3565855 1.226631
-3.0961938 4.369566 1.2269716
-3.0601826 4.3774624 1.2261405
-3.044414 4.384717 1.2265037
-3.1497827 4.359519 1.2286036
-3.0790324 4.3794632 1.2277231
-3.0265679 4.3926001 1.2268633
-3.0103173 4.4019613 1.2276137
-2.9954915 4.4087563 1.2279772
-2.97579 4.4108753 1.2271674
-2.959898 4.4179068 1.2275288
-2.9434061 4.4230185 1.2274997
-2.9264379 4.4302759 1.2278576
-2.9078469 4.4359198 1.2278242
-2.8907413 4.4390078 1.2274051
-2.8741927 4.4439297 1.2273743
-2.8581781 4.4506836 1.2277315
-2.8411007 4.4577036 1.2280872
-2.8047652 4.4680939 1.2280167
-2.8256159 4.4703207 1.2296097
-2.7912869 4.4800406 1.2295421
-2.772532 4.4811907 1.2287285
-2.7553387 4.4879599 1.2290813
-2.739696 4.4922152 1.2290488
-2.7214146 4.4991665 1.2293981
-2.7016053 4.5003729 1.2285806
-2.6879649 4.5080109 1.2293274
-2.6711559 4.5164394 1.2300657
-2.6523719 4.5172081 1.2292494
-2.63656 4.5252676 1.2299898
-2.6176691 4.5300026 1.2299465
-2.6013331 4.5360613 1.2302974
0.48428053 5.4194174 1.22066
0.11620118 5.4687252 1.2184955
0.13823842 5.472785 1.2197301
0.16174854 5.4845209 1.2223219
0.18497419 5.4942417 1.224573
0.20630738 5.5002527 1.2261512
0.23012644 5.505724 1.227715
0.080832914 5.502923 1.2234862
11.533144 9.3502121 1.2060543
-2.5613194 -7.5750542 1.1363193
-2.542078 -7.5694656 1.1344304
-2.5220032 -7.5599852 1.1318319
-2.502234 -7.5564318 1.1302934
-2.4816432 -7.5489788 1.1280453
-3.1515646 -7.4003105 1.1396933
3.6502295 -5.4640684 1.1185917
3.6702809 -5.4553461 1.1204299
3.6897697 -5.4503098 1.1226094
3.7121673 -5.4447584 1.1251506
3.7330494 -5.4378633 1.1273395
-3.356441 -7.3280754 1.141592
-3.3659997 -7.3012171 1.1377925
-3.3765426 -7.2802458 1.1350574
5.113708 -4.9733343 1.1195855
5.137845 -4.9625139 1.1221669
5.1613641 -4.9526749 1.1247417
3.8314505 5.2521334 1.2149379
2.0174618 4.9413376 1.2201378
-6.7021403 2.9519317 1.2379068
-6.718987 2.9908648 1.244478
-6.5959725 3.1587956 1.2473303
-6.5701742 3.1647942 1.2446736
-6.5496864 3.1735821 1.2430376
-6.5245762 3.1816032 1.2407259
-4.5475488 3.7107511 1.236212
-6.5055709 3.191509 1.2394303
-6.1867218 3.5462971 1.2423822
-6.2221503 3.5497234 1.2471085
0.47130936 5.4568024 1.2265519
0.45682505 5.4884005 1.2314279
0.27257004 5.5215044 1.2315542
0.29692882 5.5286865 1.2334546
0.32012403 5.5360289 1.235361
0.25185418 5.5195684 1.2306567
0.068154827 5.5390778 1.2293663
0.052572511 5.5816584 1.2362876
0.013715681 5.5919905 1.2371968
-0.25600639 5.6121101 1.2356434
-0.23571225 5.6235104 1.2379224
-0.2131293 5.6226492 1.2381397
-0.19174416 5.6318121 1.2400696
11.662883 9.3917856 1.2146302
-2.6448522 -7.6033792 1.1453308
-2.6248207 -7.6002226 1.1437887
-2.6023712 -7.5915279 1.1411718
-2.5831823 -7.5819817 1.1385776
-3.1172376 -7.4700975 1.1493082
-3.1274748 -7.4417591 1.1451542
-3.1400881 -7.4208689 1.1424277
-3.1783419 -7.4243841 1.145529
-3.2170796 -7.4254313 1.1482831
-3.1982841 -7.4216061 1.146382
-3.2566452 -7.4217815 1.1503412
-3.2363896 -7.4206715 1.1487796
-3.2675004 -7.4032154 1.1479573
-3.3080149 -7.4051456 1.151082
-3.2877469 -7.404213 1.1495193
-3.3218007 -7.3916388 1.1497781
-3.3498545 -7.3600683 1.1464716
3.7510276 -5.4313459 1.1291683
3.7725949 -5.4234352 1.1313637
3.793479 -5.4162817 1.1335551
3.8121357 -5.4086742 1.1353898
5.1889486 -4.9435329 1.1279415
5.2159262 -4.9353638 1.1311353
5.2429094 -4.9270687 1.1343303
15.640525 1.4381163 1.144454
15.618011 1.4854114 1.1439852
15.604287 1.528162 1.1439962
15.579583 1.5749044 1.1433928
15.572387 1.6248001 1.1439947
15.555243 1.6728402 1.1439265
15.579119 1.7286891 1.1466757
15.519685 2.0619497 1.1503727
15.503245 2.1100428 1.1504413
15.482745 2.1572204 1.1502414
15.469916 2.2060306 1.1505806
15.44722 2.2526188 1.1502457
15.436712 2.298866 1.1506913
15.423469 2.3475206 1.1510299
15.40172 2.3881011 1.1506399
15.383651 2.4386106 1.1507366
15.375815 2.4884915 1.1514809
15.35108 2.5312366 1.1509823
15.332048 2.5753069 1.1508892
15.323797 2.6250727 1.1516342
15.305253 2.6661584 1.1515125
15.290921 2.7143769 1.1518521
15.271114 2.7672825 1.1519778
15.257252 2.812531 1.1522903
15.241327 2.8572257 1.1524673
15.232991 2.9039357 1.1531863
15.205257 2.9454165 1.1525506
15.19896 2.9987917 1.1535975
15.257537 3.0640566 1.1590643
15.173992 3.0960855 1.154687
15.183863 3.1418703 1.1565734
14.818613 4.1571331 1.1641594
14.43014 5.2742863 1.1788669
3.9411426 5.2767372 1.2266359
3.8738165 5.2700806 1.2204733
3.9151382 5.2837934 1.2254198
0.35253805 4.6105881 1.2312278
0.37283584 4.6197901 1.2338095
0.3955662 4.6384506 1.2383134
-6.7271867 3.0247316 1.2493459
-6.7336998 3.0574524 1.2538724
-6.7113829 3.1190562 1.2578727
-6.6901059 3.1293454 1.2562456
-6.6688161 3.1395409 1.2546191
-6.641469 3.1445959 1.2516233
-6.6171594 3.1520655 1.2493111
-4.359889 3.923722 1.2524045
-4.3477802 3.9378042 1.253584
-4.3296766 3.9439781 1.2528169
-4.3115668 3.9500883 1.2520489
-4.2953486 3.9550357 1.2512794
-4.2762718 3.961587 1.2505107
-4.25912 3.9692259 1.2501304
-4.243854 3.9757185 1.2497494
-4.222806 3.9786818 1.2481998
-4.2065778 3.9878635 1.2482082
-4.1893606 3.9907854 1.2470454
-3.3572812 4.4072742 1.2517803
-3.3229632 4.4159985 1.2509633
-2.6099367 4.6450357 1.2516435
0.44719782 5.5309725 1.2383225
0.34458503 5.5490894 1.2382841
0.36463451 5.5529385 1.2395254
0.3900573 5.563653 1.2420995
0.4106088 5.5692997 1.2436799
0.43238592 5.5685768 1.2442255
0.036385279 5.6142817 1.2415047
-0.14683929 5.6457071 1.2432336
-0.1273516 5.648983 1.244149
-0.083140157 5.6645975 1.247655
-0.05981173 5.6671495 1.248547
-0.16728337 5.6444855 1.2426652
-0.10311187 5.6674643 1.2477683
11.780829 9.4377918 1.2228777
-2.747848 -7.6358547 1.1562451
-2.7271132 -7.631135 1.1543422
-2.706913 -7.6282434 1.1527966
-2.6662402 -7.6162777 1.1486471
-2.6832533 -7.6160307 1.149465
-2.9429798 -7.5870676 1.1586388
-3.1107922 -7.5033398 1.1545479
3.8338757 -5.4034376 1.1379311
3.8516665 -5.3935909 1.1394185
3.8958488 -5.3818111 1.1445099
3.8696322 -5.3866262 1.141251
3.915854 -5.3720493 1.1463575
5.2658696 -4.9136143 1.1366148
6.8458791 -4.3749065 1.1343933
15.611372 1.935172 1.1533377
15.565242 1.9712946 1.1512024
15.541231 2.0179334 1.1507347
14.091649 6.364006 1.2010686
14.050985 6.403492 1.200333
14.03204 6.4441013 1.2009076
13.702835 7.1154804 1.210668
13.664893 7.204195 1.2124377
13.642466 7.2500553 1.2132124
13.61307 7.291769 1.2134236
13.563982 7.377512 1.2145196
4.0255022 5.3073673 1.2371044
3.9981604 5.3106546 1.2353061
3.8741455 5.3900833 1.2351474
3.8722949 5.4305229 1.2399584
-6.7515726 3.0979681 1.2607869
-6.7341719 3.1099315 1.2598408
-4.5733581 3.8485467 1.261957
-4.5552626 3.8532214 1.2608063
-4.541523 3.866693 1.2616028
-4.4883251 3.8841181 1.2589258
-4.4683242 3.8896732 1.2577751
-4.4512382 3.8956664 1.2570103
-4.5246906 3.8774087 1.2616204
-4.5065584 3.8819177 1.2604687
-4.4352555 3.9055274 1.2570245
-4.4141312 3.9069679 1.2550918
-4.3981171 3.9167111 1.2551053
-4.3829465 3.9236004 1.2547275
-4.2112441 4.0706892 1.2630161
-3.8187847 4.2758207 1.2637938
-3.7493892 4.2948866 1.2614299
-3.7296004 4.2995396 1.2606418
-3.7124243 4.3072577 1.2606328
-1.6936336 4.842576 1.2578191
-1.6753666 4.8501158 1.2589139
-3.7012305 4.3229847 1.2625707
-3.4181914 4.4090672 1.2565088
-3.3459997 4.4304152 1.2552634
11.911293 9.478055 1.2314385
12.033713 9.5183535 1.239617
-2.8305421 -7.668539 1.1663271
-2.8123245 -7.6613016 1.1640873
-2.7898455 -7.6551819 1.161819
-2.7706475 -7.648119 1.1595731
-2.9723406 -7.6152353 1.1651915
3.9378176 -5.3693342 1.1492462
3.9836159 -5.3579941 1.1546967
3.9562535 -5.3581991 1.1507424
3.9997969 -5.3463964 1.1558363
5.3790727 -4.8771572 1.1500481
15.771827 1.814592 1.1609365
15.411781 3.2594204 1.1741604
14.726233 5.3436546 1.1990854
13.638256 7.4821005 1.2233257
4.069685 5.326004 1.2429166
4.1175981 5.3441896 1.248986
3.8667169 5.4686756 1.2442085
3.8484955 5.4817076 1.2444016
3.8436995 5.523962 1.2492421
-4.2213321 4.1256561 1.2735332
-4.2075419 4.1377335 1.2743173
-4.1898565 4.1474037 1.2743232
-1.6600958 4.8671827 1.2619573
-1.6417176 4.8746252 1.2630507
-1.6053727 4.8814335 1.2636902
-1.6233069 4.8820105 1.2641447
-1.5870464 4.8906727 1.2651708
-1.5688047 4.9018135 1.2670374
-1.5497215 4.9011593 1.2665772
-1.5333744 4.9081383 1.2676759
-1.5146363 4.913249 1.2683779
-1.4958768 4.9183092 1.2690798
-1.7164217 4.8720026 1.2640995
-3.9108539 4.2928581 1.2747166
-3.8739848 4.3040066 1.2735386
-3.6668358 4.3830786 1.2707139
-3.6455326 4.3815966 1.2687558
-3.5942345 4.4034042 1.2687176
-3.5737343 4.4034777 1.2671463
-3.556531 4.4084911 1.2667428
-3.6311932 4.3962812 1.2703004
-3.6147552 4.403265 1.2702883
-3.5437813 4.424345 1.2686754
-3.5262356 4.4315109 1.2686592
-3.5064678 4.4331656 1.267476
-3.4874382 4.4365788 1.2666807
-3.4705791 4.4453945 1.2670522
-3.4508204 4.446867 1.2658668
-2.1763039 4.833869 1.2698742
-2.1608572 4.8364286 1.2698286
-2.1422353 4.8474112 1.2713227
-2.5817776 4.7667007 1.2736776
-2.5623398 4.7671871 1.272855
12.161452 9.5582914 1.2480481
-2.9168749 -7.6932001 1.1753831
-2.8946719 -7.6893454 1.1734666
-2.8763018 -7.6822958 1.1712248
-2.8541842 -7.6783009 1.1693097
-2.9504075 -7.6792946 1.1749103
-3.0003853 -7.6499119 1.1727924
-3.1229639 -7.604991 1.1726109
4.0191045 -5.3370962 1.1576831
4.0494423 -5.3359528 1.1620028
4.0662599 -5.323204 1.1631498
4.0857978 -5.3166189 1.1653417
15.531785 3.3472946 1.1841558
15.599728 3.420784 1.1904894
4.1717858 5.377429 1.2573833
3.8402629 5.5554705 1.2528683
3.8267002 5.6253681 1.260491
3.80896 5.6448965 1.2615734
3.768929 5.6748009 1.2622864
-4.1591921 4.2040653 1.2813421
-4.1414514 4.2090616 1.2805666
-4.1217184 4.2150507 1.2797904
-4.1037922 4.2244549 1.2797927
-1.4773024 4.927228 1.2705562
-1.458478 4.9321785 1.2712564
-4.092545 4.2369471 1.2809615
-4.038043 4.2539215 1.2790159
-3.9798532 4.2656088 1.2758965
-1.4422522 4.9447975 1.2735151
-1.4231689 4.9457254 1.2734389
-1.403133 4.9505644 1.2741332
-1.3865985 4.9591255 1.2756153
-1.3665711 4.9658089 1.2766956
-1.3474936 4.9684725 1.277005
-1.3307804 4.9749298 1.2780975
-1.310708 4.9834061 1.2795637
-4.0745497 4.2462568 1.2809623
-4.0209999 4.2625532 1.2790151
-4.0002937 4.2663746 1.2778453
-3.9645119 4.2775869 1.2766727
-3.9476852 4.2814884 1.2758919
-3.9314179 4.2916136 1.2762779
-4.0629997 4.263216 1.2829092
-3.8969226 4.3104439 1.2766587
-3.8628287 4.3223152 1.2758695
-2.1238618 4.8602848 1.2732038
-2.3817992 4.8180933 1.2747194
-2.256752 4.8517952 1.2763097
-2.5468197 4.7848291 1.2755316
-2.4927216 4.794879 1.275009
-2.4744949 4.8008432 1.27535
-2.4574609 4.8125095 1.276857
-2.4023776 4.8179455 1.27555
-2.3671851 4.8309984 1.276618
-2.312737 4.8454924 1.2772434
-2.5318761 4.8002758 1.2778207
-2.5138941 4.8022766 1.2773881
-2.4407701 4.8260489 1.2787517
-2.4227448 4.8277903 1.2783172
-2.3318844 4.8498487 1.2788463
-2.2953739 4.8567209 1.2787449
-2.2775993 4.8659687 1.279857
-2.3510633 4.854146 1.2804501
12.292632 9.6000996 1.2567585
-2.9391527 -7.7051659 1.1787109
-3.0336723 -7.6932278 1.1821942
4.1100998 -5.3134527 1.1685951
4.130055 -5.3027954 1.1704507
4.1525221 -5.2952757 1.1730086
4.1743307 -5.2885799 1.175562
16.132538 1.9348527 1.1867511
15.640585 3.4867876 1.1949252
15.631483 3.5382152 1.1958274
15.619306 3.585551 1.1964295
15.603168 3.6316895 1.1967595
15.584101 3.6801157 1.1969826
15.574428 3.7314255 1.1978866
15.562609 3.7757237 1.1984606
15.540293 3.8262918 1.1985776
15.523493 3.8721902 1.1989084
15.506577 3.9180305 1.1992395
15.485721 3.9689894 1.1994923
15.473261 4.0194874 1.2002623
15.450262 4.0632734 1.2001832
15.434689 4.1095266 1.2006514
15.416128 4.1579742 1.2010113
15.403187 4.2019014 1.201588
15.375669 4.3053675 1.2031604
15.347675 4.4022875 1.2045389
15.376244 4.4644661 1.2082978
15.340807 4.5037022 1.2073983
2.7426486 4.8589458 1.2616197
2.7727399 4.8682938 1.2654587
2.7259369 4.8713989 1.2621253
2.7254801 4.9108152 1.2679802
4.22857 5.4060726 1.2654527
3.8591471 5.6268587 1.2631445
0.60411549 4.7684956 1.2722149
3.7978845 5.6741619 1.2643806
3.7710371 5.7236443 1.2685446
-1.292793 4.9897947 1.2806503
-1.2748897 4.9980955 1.2821246
-1.2545581 5.0005121 1.2824253
-1.2365453 5.0067492 1.2835113
-1.2184951 5.012929 1.2845953
-1.200439 5.0210285 1.2860669
-1.1811472 5.0231962 1.2863712
-1.1607411 5.0312071 1.2878307
-1.142552 5.0352182 1.2885261
-1.125479 5.0411415 1.2896124
-1.7420309 4.9641685 1.2827834
-1.7826138 4.971962 1.2852517
-1.7630916 4.981822 1.2867318
-2.0230274 4.9407911 1.2856748
-1.9329093 4.9686213 1.2884791
-1.8776881 4.9852095 1.2902298
-1.8589236 4.9913321 1.2909403
-2.0819287 4.9441452 1.2881852
-2.0631194 4.940979 1.2869637
-1.987819 4.9594955 1.288272
-1.9710906 4.9716167 1.2901549
-2.0099306 4.9703445 1.2910562
-1.954303 4.9837008 1.2920365
-2.0459757 4.9652777 1.2911718
-3.1318913 -7.7510386 1.1980525
-3.1121068 -7.7532253 1.1972054
-3.0899725 -7.747838 1.1949329
-3.0620661 -7.7235813 1.1890937
-3.1440597 -7.7326431 1.1956726
4.220871 -5.2741985 1.1810355
4.2661147 -5.2612715 1.1865022
4.195857 -5.2787962 1.1777732
4.240418 -5.2670155 1.1832333
12.065187 -0.11989369 1.1937952
14.640031 6.5319328 1.2395808
14.586356 6.5668669 1.2378867
1.6575421 4.4616785 1.2793567
1.6818857 4.4676113 1.2822627
1.6363609 4.4650383 1.2783684
1.6238476 4.4816256 1.2804185
13.732413 8.1388626 1.2585756
13.623538 8.1306343 1.2522891
13.586615 8.1652021 1.2519134
13.577905 8.2219753 1.2541161
13.572392 8.2736597 1.2562602
13.571516 8.3397083 1.2593453
13.310568 8.5976877 1.2578411
13.290524 8.6436729 1.2590247
-1.1038272 5.0430851 1.2899042
-1.0866289 5.0606766 1.2933125
-1.0683281 5.0625191 1.2936181
-1.0476842 5.0682106 1.2946874
-1.0280896 5.0777731 1.296535
-1.0096586 5.0833731 1.297613
-0.99123412 5.0869637 1.2983034
-1.9166117 4.9943771 1.2930734
-1.8976105 4.9986563 1.2933966
4.2876377 -5.2510881 1.1887176
4.3062177 -5.2415791 1.1905684
4.3312716 -5.2364655 1.1938348
4.3544006 -5.2271023 1.1964058
15.537819 4.6906986 1.2255821
-0.97039753 5.0943747 1.2997561
-0.95296758 5.1018066 1.3012246
-0.93313122 5.1110859 1.3030694
-0.91227931 5.1143856 1.3037462
-0.89458829 5.1255865 1.3059872
-0.87489474 5.1268444 1.306281
-0.85619241 5.132019 1.307354
-0.83753878 5.1351767 1.3080395
13.153916 9.1087132 1.2749429
13.120569 9.1534986 1.2754765
13.103565 9.2027988 1.2770938
13.086119 9.2557802 1.2788838
13.059238 9.2978163 1.2796441
13.008788 9.4553051 1.2851334
4.3749156 -5.2214727 1.1989563
4.4012995 -5.2141113 1.2022359
4.4237738 -5.2053995 1.2048041
6.4880075 -2.3994141 1.2210135
15.752313 4.8236933 1.2430837
15.419302 5.5905132 1.2494994
1.7269815 4.5223026 1.2954967
1.4069996 4.7019348 1.3051267
1.3643606 4.7022581 1.3023546
1.3871489 4.7057705 1.3045065
1.3467189 4.7114258 1.3028827
0.63627714 4.9631901 1.3107855
2.1737399 5.4088621 1.3038992
-0.81573123 5.1558132 1.3121953
12.726445 9.8892212 1.2936133
4.4433079 -5.1974392 1.2070088
4.4729891 -5.1919107 1.2109989
4.4915276 -5.1816969 1.2128565
4.5182877 -5.1768084 1.216484
6.5178351 -2.3827524 1.2255656
5.5211682 -0.42654696 1.2504667
15.788774 4.8911715 1.2475516
15.800372 4.9563036 1.2504343
15.792029 5.0004826 1.2514105
15.782735 5.0578985 1.2527837
15.756512 5.1087856 1.2529203
15.749174 5.1602688 1.254234
15.737968 5.2102957 1.2552731
15.704397 5.2514067 1.2546605
15.692912 5.3013515 1.2557003
15.680758 5.3578997 1.2569401
15.661566 5.4047823 1.2574294
15.63921 5.4537821 1.2578115
15.622229 5.5050249 1.2586082
15.613067 5.5526896 1.259758
15.586605 5.5999727 1.2598642
15.513569 5.7996311 1.2627475
1.4317678 4.7129965 1.3088164
1.4565191 4.7176332 1.3113385
1.4754715 4.7203646 1.3131305
14.081417 8.3008051 1.2850801
0.62759894 4.9980783 1.3170494
0.61279941 5.0243959 1.3214165
13.759799 8.7726593 1.2901553
13.460697 9.2103777 1.295952
4.5457077 -5.1708088 1.2201185
4.5655174 -5.1583395 1.2219898
4.5877171 -5.152956 1.2249011
6.561667 -2.3648551 1.2323354
6.5817561 -2.3453898 1.2353333
5.6085773 -0.82942706 1.2532686
5.6006098 -0.80887091 1.2523705
5.5986938 -0.7901032 1.2525409
5.6006355 -0.77093887 1.2534385
5.608264 -0.7499482 1.255437
5.619998 -0.7308231 1.2581429
5.5453625 -0.4036369 1.2557421
15.503573 5.8471794 1.2638994
15.487754 5.9025908 1.2650051
15.483445 5.9562807 1.2667433
15.461278 6.0055161 1.2672666
15.446749 6.0616941 1.268513
15.440122 6.114583 1.2701153
15.426083 6.1641388 1.2711631
15.419122 6.2170391 1.2727665
15.403428 6.2694578 1.2738458
15.383498 6.3164234 1.2744796
15.371097 6.3705063 1.2758381
15.350896 6.4173841 1.2764714
15.334571 6.469676 1.277553
15.316271 6.5210962 1.278496
15.303183 6.575079 1.2798564
15.284566 6.6264381 1.2808009
15.25971 6.6675711 1.2809873
15.226879 6.7154102 1.2809871
15.214257 6.7626648 1.2821478
14.363858 8.1719084 1.2945799
14.269217 8.1727314 1.2894237
14.274237 8.2396345 1.2927698
14.253783 8.2831078 1.2936536
14.231483 8.3292255 1.2945689
2.3894277 5.4477816 1.3246828
0.60149682 5.059866 1.3276973
13.862326 8.7855091 1.2962314
4.6124792 -5.1434841 1.2278355
4.6326394 -5.1337948 1.2300528
4.6594481 -5.1282215 1.2336848
4.6791973 -5.1152811 1.2355616
5.6332192 -0.70787996 1.2612447
5.6063595 -0.37455857 1.2679437
15.133126 7.0808554 1.2904147
15.114699 7.132782 1.2915026
15.094332 7.1837263 1.2924509
15.077322 7.2365208 1.2936794
15.063214 7.283638 1.2948456
15.040609 7.3335247 1.2956554
15.026424 7.3843851 1.2969937
15.010697 7.4418154 1.2985357
14.989197 7.4887609 1.2993152
1.1790009 4.9259348 1.3321375
2.542624 5.394906 1.3274415
2.5814319 5.4211254 1.3343059
2.3854733 5.4851141 1.3302114
0.59329289 5.0985327 1.3347335
0.58062577 5.1301861 1.3402468
-5.4896784 3.7422957 1.3517414
-5.5253816 3.7533252 1.3579192
13.102258 10.069285 1.3218306
4.7026782 -5.107398 1.2384882
4.7290907 -5.0984097 1.2417818
4.7559214 -5.0923729 1.245419
5.6963987 -0.52054316 1.278877
5.6897812 -0.50206518 1.278325
5.6811709 -0.48390335 1.2774092
5.6760411 -0.46283254 1.277243
14.974511 7.5395555 1.3006548
14.949554 7.5920382 1.3014977
-6.7389917 2.4955981 1.3601997
14.63167 8.2701244 1.3137778
1.2089652 4.9526958 1.3389025
1.2808514 4.9744244 1.3472904
1.2336884 4.9646025 1.3425995
1.259629 4.9759989 1.3462863
2.4489222 5.5104408 1.3385807
2.4814124 5.5225992 1.3427577
2.5115476 5.5359011 1.3469546
0.5684557 5.1596317 1.3453685
-5.7506485 3.5872898 1.3619254
-5.7749748 3.5836396 1.3645934
-5.7307305 3.5974507 1.3608147
-5.7327061 3.6300428 1.3659189
-5.7070823 3.6609135 1.3671827
-5.6808562 3.6893954 1.3680531
-5.6415625 3.702956 1.3650342
-5.6303763 3.7230668 1.3666397
-5.5824251 3.7280948 1.361287
-5.5643935 3.7383242 1.3605551
-5.5412669 3.7425025 1.3582668
-5.6148982 3.7364252 1.3666867
4.780457 -5.0862179 1.2486964
4.8045745 -5.0768671 1.2516333
4.8286829 -5.0674067 1.2545706
-6.7511292 2.5293226 1.3660991
-6.7629318 2.5600369 1.3716011
-6.6363549 2.7180092 1.370924
-6.6285286 2.7379355 1.3721721
1.3044147 4.9823933 1.3502175
1.3322215 5.0012932 1.3554423
2.5976233 5.5509834 1.3554595
2.5427313 5.5419254 1.3501116
2.5791864 5.5606871 1.3556248
-5.7001019 3.6802437 1.3691701
-5.6693554 3.7073281 1.3692679
-0.72414708 5.4104443 1.3628702
-0.74362743 5.4076023 1.362192
-0.70320451 5.4170732 1.3643172
-0.68204224 5.4452591 1.3700213
4.8527918 -5.0578327 1.2575099
4.8785858 -5.0491562 1.2608037
4.9037609 -5.0414085 1.2640926
-6.7756567 2.5960991 1.3778934
-6.785758 2.6289895 1.3834059
-6.7512054 2.6794381 1.3840592
-6.7276759 2.6848049 1.3810394
-6.7051125 2.6953554 1.378808
-6.6628895 2.7122746 1.3743242
-6.6856766 2.7081583 1.3773525
-6.6431384 2.773653 1.3788402
1.3614557 5.0132847 1.35949
-6.2718315 3.2564867 1.3865526
-6.2511458 3.2673182 1.3850738
-6.2321067 3.2762794 1.3835863
-6.2144914 3.2865171 1.3824856
-5.9034185 3.6062648 1.3849828
14.460196 9.0594978 1.3412997
-0.37998283 5.4432268 1.3731139
-0.35691306 5.452569 1.3753144
-0.33620745 5.4621096 1.3775268
-0.45695055 5.4687529 1.3770062
-0.47612903 5.4863186 1.3802058
-0.6388821 5.4541969 1.3721299
-0.66029525 5.4615498 1.3733989
-0.62035513 5.4745293 1.3762971
-0.59682763 5.4787045 1.3773402
4.9272399 -5.0325527 1.2670275
4.954741 -5.0245123 1.2706785
4.9839373 -5.0173378 1.2746856
-6.7939892 2.6576767 1.3881344
-6.7777805 2.6731584 1.3874557
-6.6545343 2.8102148 1.3851316
-6.664968 2.8447192 1.3910304
2.7378721 5.6167717 1.3758359
-6.336328 3.2323971 1.3925555
-6.3603363 3.2292178 1.3955969
-6.3171186 3.244802 1.3914663
-6.2937498 3.2500284 1.3888159
-6.2208943 3.3226731 1.3883804
-6.239049 3.3634422 1.3965895
-5.9689131 3.5847459 1.3906411
-6.0226064 3.5821066 1.3975209
-5.9998574 3.5904112 1.3956411
-5.9579024 3.6033754 1.3918639
-5.9427757 3.6177053 1.3919212
0.50882995 5.3420811 1.377944
0.49398586 5.3697996 1.3826928
0.094194263 5.4517612 1.3851656
0.11391288 5.4502764 1.3854359
0.13660008 5.4581661 1.3876256
14.326341 9.4352522 1.352389
-0.49507329 5.4939537 1.3814662
-0.53545702 5.4954796 1.3812876
-0.51615578 5.5056572 1.3835117
9.3073502 8.1467237 1.3650239
14.308805 9.487587 1.3540343
9.2893982 8.1807556 1.3663263
14.291082 9.5399008 1.3556802
9.2691679 8.2229195 1.36808
14.26932 9.5975847 1.3573905
9.2536287 8.2627907 1.3699784
5.0091271 -5.009119 1.2779778
5.033833 -4.9976587 1.2809305
5.0612178 -4.9933147 1.2849202
-6.6783147 2.8785906 1.3973076
-6.6915212 2.9157228 1.4039811
1.430813 5.1422644 1.3877008
2.7655673 5.6173944 1.3779893
2.8028445 5.6351757 1.3834897
-6.4709687 3.1902316 1.4064878
-6.4506774 3.1955266 1.4042215
-6.4315233 3.2083564 1.4031371
-6.4066539 3.2127492 1.4001026
-6.3830853 3.2214906 1.3978522
-6.24652 3.4011486 1.4028726
-6.2453008 3.430805 1.4068272
-6.2290301 3.4392264 1.4057165
-6.2177563 3.4593527 1.4069521
-6.1246061 3.5397375 1.4053824
-6.1124301 3.5573545 1.4062217
-6.0900631 3.5628898 1.4039495
-6.0640793 3.5664012 1.4009013
-6.0545359 3.5866711 1.4025156
0.48331952 5.4105949 1.3901269
0.16005878 5.4698496 1.3905849
0.18323459 5.4795208 1.393158
0.20415853 5.4835644 1.3945819
0.2286703 5.4928579 1.3971465
0.079295158 5.4882069 1.3918405
9.4063301 8.1803236 1.3737948
9.24084 8.3053808 1.3722606
9.2201338 8.3474712 1.3740157
5.0853066 -4.9827042 1.2878685
5.1145377 -4.9748631 1.2918798
5.1403389 -4.9649658 1.2951847
-6.7076335 2.9554105 1.411431
1.4576055 5.152957 1.3913776
1.4830405 5.1598911 1.3942878
2.9038687 5.6669521 1.3959644
2.8402534 5.6527987 1.3889894
2.8720231 5.6599379 1.3924779
-6.5649319 3.1594846 1.4162651
-6.4945316 3.1811109 1.4087349
-6.5459723 3.169565 1.4147877
-6.5194311 3.1763356 1.4117658
-6.1864448 3.513783 1.4102459
-6.1762795 3.5352013 1.4118677
-6.1561704 3.5414963 1.4099809
0.47078305 5.4497442 1.3971865
0.45759702 5.486968 1.4038614
0.24959812 5.50278 1.3997322
0.29574218 5.5176067 1.4041001
0.27180576 5.5123997 1.4023089
0.068939686 5.5377502 1.4012022
0.051718317 5.5704832 1.4071152
0.010722307 5.5672283 1.4054168
0.031411767 5.5778017 1.4080092
-0.049399845 5.5865288 1.4077003
-0.25954577 5.575614 1.4011284
-0.24008305 5.5811291 1.4025711
-0.21587475 5.5939007 1.4055367
-0.17125158 5.6078577 1.4091628
-0.19354793 5.6108046 1.4092871
9.5129557 8.2201223 1.3835139
5.1689715 -4.9579573 1.2991923
5.1930447 -4.9468622 1.3021442
5.218236 -4.937705 1.305445
6.5761023 -4.4836798 1.3005589
-6.7166719 2.9881361 1.4169379
-6.7309055 3.0268369 1.4240005
2.9371858 5.6821117 1.4008116
2.9731169 5.6957216 1.4056338
-6.6557908 3.1278377 1.4256512
-6.6345525 3.137944 1.4237938
-6.6118021 3.146699 1.4215466
-6.5876756 3.1509151 1.418514
-6.2862945 3.5520833 1.4295335
0.44664851 5.5236263 1.4105215
0.32048827 5.5325947 1.4078233
0.34372219 5.5398149 1.4100056
0.36415195 5.5455599 1.4118161
0.38871747 5.5523758 1.4139888
