# .PCD v0.7 - Point Cloud Data file format
VERSION 0.7
FIELDS x y z
SIZE 4 4 4
TYPE F F F
COUNT 1 1 1
WIDTH 1558
HEIGHT 1
VIEWPOINT 0 0 0 1 0 0 0
POINTS 1558
DATA ascii
12.039969 4.7295547 -0.71907324
2.5104222 1.4822758 -1.3043303
12.066089 4.7568583 -0.42590359
2.5246723 1.4910688 -1.2410698
12.114134 4.7916484 -0.13115305
2.9496059 1.6286131 -1.3299329
12.125199 4.8142152 0.1673103
3.2796395 1.7376579 -1.3637919
12.169446 4.8480244 0.46678543
3.6504555 1.8606273 -1.3947213
12.212593 4.88166 0.76940131
3.8915935 1.9434375 -1.3697708
12.254241 4.9151464 1.0776582
4.2146902 2.0532615 -1.3542664
12.279719 4.9431486 1.3852978
6.6701279 2.8503263 -1.8316045
12.318715 4.9760504 1.6984429
7.4573216 3.1155798 -1.830627
12.350004 5.0066938 2.0169353
1.5537784 1.1609021 -1.219883
8.5935583 3.472024 -1.8525009
1.6256461 1.1852981 -1.2136261
10.202279 4.0063062 -1.8996468
1.7969935 1.2395107 -1.2613537
11.079856 4.307693 -1.7679982
1.8894254 1.2706512 -1.2570498
11.848269 4.5761862 -1.5798798
1.9912541 1.3049273 -1.2527885
11.874609 4.6031518 -1.2919581
2.0918744 1.3391123 -1.243577
11.985585 4.658072 -1.0089673
2.3667905 1.4268208 -1.3086166
12.033421 4.6925068 -0.71643049
2.5373955 1.4834291 -1.3144426
12.065253 4.7216063 -0.4237549
2.6376493 1.518795 -1.2845757
12.101973 4.7524438 -0.12938894
2.7396014 1.5549618 -1.2510045
12.114962 4.7755847 0.16858214
3.188113 1.699702 -1.3309855
12.161174 4.8098907 0.46766776
3.6481426 1.8494608 -1.3923957
12.206287 4.8440342 0.76998705
3.9004889 1.9351029 -1.3707299
12.234836 4.8729038 1.0763988
4.3792138 2.0933907 -1.3959229
12.277327 4.9066024 1.3855641
6.6982412 2.8401074 -1.8358104
12.299576 4.9336038 1.6957238
7.482492 3.1021743 -1.8333669
12.347784 4.9699507 2.0165703
1.5717579 1.1609025 -1.229996
8.5912161 3.4415989 -1.8487067
1.6738311 1.1939187 -1.2413464
10.049093 3.921968 -1.8711522
1.7988287 1.2339866 -1.2610049
11.080036 4.2694068 -1.7642617
1.8845463 1.2628186 -1.2530031
11.858686 4.5385199 -1.5773299
1.9829602 1.2957119 -1.2471313
11.873679 4.5616975 -1.2884529
2.0435576 1.3175173 -1.2189128
11.979064 4.6143794 -1.0054038
2.3358333 1.4094282 -1.2930663
12.025043 4.6480026 -0.71324986
2.4850214 1.4588823 -1.290663
12.060704 4.6782165 -0.42113119
2.6099496 1.501343 -1.2720251
12.097468 4.7089081 -0.12717465
2.8470058 1.5786121 -1.2890079
12.116183 4.7338738 0.17057788
3.2567983 1.7100192 -1.3526907
12.160567 4.7673845 0.46928269
3.6500769 1.8375632 -1.3911049
12.200084 4.7994642 0.7708115
3.8989942 1.9212569 -1.3683705
12.232485 4.8294978 1.0771744
4.3245115 2.0611758 -1.3794997
12.27319 4.8624134 1.3857291
6.7144837 2.8221505 -1.8366992
12.30114 4.8912473 1.6963723
7.4883823 3.078229 -1.8314977
12.341993 4.9248819 2.0155787
1.5814608 1.1587094 -1.2349143
8.4493113 3.3688698 -1.8191273
1.665447 1.1861801 -1.2350347
10.153063 3.9221766 -1.8844841
1.7954931 1.227293 -1.2577939
11.079454 4.2330794 -1.7606492
1.8744169 1.2538446 -1.2462201
11.87778 4.505919 -1.575968
2.0038159 1.2955375 -1.2564254
11.881419 4.5254011 -1.2859089
2.1134384 1.3317364 -1.251147
11.981204 4.5759158 -1.002574
2.3415909 1.403666 -1.2942243
12.02342 4.6081467 -0.71049911
2.5388913 1.4670981 -1.3119783
12.061019 4.6388478 -0.41872406
2.6178288 1.4953412 -1.2736671
12.092124 4.6675406 -0.12509798
2.9436026 1.5988147 -1.3230169
12.112773 4.6930513 0.17230476
3.1435549 1.6649033 -1.3124142
12.157224 4.7264094 0.47064781
3.6535974 1.8268572 -1.3904297
12.202488 4.7602406 0.7722919
3.8843346 1.9041209 -1.3623376
12.231174 4.7889056 1.0780172
4.20085 2.0087607 -1.3451631
12.256916 4.8166366 1.3842454
6.7358847 2.807024 -1.8389792
12.286873 4.846005 1.6945028
7.5180864 3.0632029 -1.8348532
12.329741 4.8801417 2.0134158
1.5959184 1.1584076 -1.2429857
8.4245176 3.3369036 -1.8118007
1.665169 1.1814452 -1.2337656
10.065489 3.8655324 -1.867327
1.7514771 1.2095709 -1.2315764
11.062376 4.195868 -1.7552199
1.9015677 1.2564683 -1.2597079
11.920085 4.485199 -1.5776124
2.0089405 1.2914035 -1.2578566
11.921886 4.5041299 -1.2866027
2.0855734 1.3175943 -1.2365949
12.008486 4.5501747 -1.0016778
2.3400323 1.3966001 -1.2922573
12.029821 4.5755849 -0.70837814
2.5481284 1.4626744 -1.3145676
12.05033 4.6006384 -0.41645375
2.6487007 1.4971795 -1.2845595
12.09098 4.6323066 -0.12323123
2.7871048 1.5433493 -1.2641213
12.109759 4.6571231 0.17382836
3.2553999 1.6898504 -1.3490791
12.146682 4.6878572 0.47140235
3.6676702 1.820753 -1.3932862
12.190137 4.7209239 0.77238607
3.893142 1.8957589 -1.363296
12.220797 4.7501173 1.0777647
4.2062516 1.9984484 -1.3449621
12.257919 4.7815251 1.3850024
6.7620864 2.7958663 -1.8427227
12.289816 4.8114333 1.6953332
7.5150924 3.0407467 -1.8316441
12.325284 4.8429422 2.0126936
1.5876303 1.1507428 -1.2364345
8.2674332 3.2594175 -1.7794232
1.6684841 1.1768062 -1.2344437
10.270086 3.8944869 -1.8965909
1.7818987 1.2123636 -1.2475564
11.060279 4.1571445 -1.7512374
1.8863807 1.2457181 -1.2501485
11.956778 4.4556603 -1.5780067
2.0195706 1.287708 -1.2618535
11.962428 4.4758306 -1.286727
2.1330149 1.3243496 -1.2579129
12.051054 4.5222564 -1.0012097
12.064816 4.5452213 -0.70687109
2.5204339 1.4458989 -1.3013189
12.068206 4.5647564 -0.41415414
2.6979873 1.5027883 -1.3024244
12.078434 4.5865054 -0.12111289
2.9092379 1.5702471 -1.3073664
12.097259 4.611228 0.17534384
3.3042023 1.6933875 -1.363924
12.138057 4.6430469 0.47255081
3.5888033 1.7845137 -1.3666918
12.183494 4.6765714 0.77319455
3.854594 1.8708115 -1.3503315
12.216124 4.7062688 1.078321
4.4684758 2.063885 -1.411602
12.247688 4.7356834 1.3843951
6.7707548 2.7753458 -1.8418336
12.283458 4.7667189 1.6947782
7.5039177 3.0115297 -1.8262162
12.320913 4.7987309 2.0120294
1.6005322 1.149618 -1.2434433
8.596776 3.3350251 -1.8376143
1.6682693 1.1717873 -1.2331567
10.063786 3.799696 -1.8602474
1.7986528 1.2117807 -1.2558868
11.053036 4.1211367 -1.7469864
1.8606846 1.2327975 -1.2351232
11.995878 4.4312744 -1.5790739
2.0265205 1.283659 -1.2641361
11.993974 4.4491062 -1.2864425
2.1593325 1.3255341 -1.269238
12.082705 4.4953203 -1.0004008
2.2297733 1.3497658 -1.2398589
12.10603 4.5212846 -0.70590532
2.506623 1.4343067 -1.2941339
12.1018 4.5384374 -0.4123444
2.6824009 1.4901072 -1.2948902
12.104408 4.5577593 -0.11882849
3.014962 1.5926324 -1.3446612
12.102295 4.5757413 0.17726222
3.2086446 1.6550976 -1.3299274
12.143138 4.6074352 0.47433782
3.5736067 1.769138 -1.3603203
12.175349 4.6365328 0.77373081
3.8598404 1.8607183 -1.3501911
12.204277 4.6648927 1.077985
4.7436624 2.133244 -1.481637
12.249141 4.6985087 1.3852806
6.7898178 2.7605329 -1.8437304
12.277464 4.7269726 1.694247
7.4899297 2.984432 -1.8205638
12.313158 4.7582545 2.0107455
1.6102343 1.1472466 -1.2483506
8.3239412 3.2246294 -1.7841053
1.703187 1.1761923 -1.2528467
10.050478 3.7630906 -1.8547442
1.8036842 1.2075019 -1.2574763
11.044382 4.0827026 -1.7423627
1.8812091 1.2326728 -1.2448857
12.01468 4.3981857 -1.5776842
2.0231943 1.2762969 -1.2611346
12.039451 4.424274 -1.287168
2.0983889 1.3013493 -1.2387857
12.132122 4.4714694 -1.0005138
2.3712933 1.3831787 -1.3020618
12.147863 4.4950442 -0.70479494
2.5089359 1.4269886 -1.2936728
12.151267 4.5146446 -0.41059381
2.7172282 1.4916404 -1.3071105
12.157681 4.5352087 -0.11610769
2.9434738 1.5621649 -1.3169298
12.140279 4.548418 0.18046652
3.3466761 1.6852876 -1.3751116
12.148775 4.5697198 0.47625661
3.5622187 1.7543271 -1.3550653
12.167741 4.5944605 0.77439398
3.9022498 1.8609015 -1.360604
12.202429 4.6245413 1.0788102
4.2906203 1.9829664 -1.3615272
12.237939 4.654963 1.3845274
6.7905316 2.7388549 -1.841152
12.275779 4.6863813 1.6944427
7.523191 2.9702773 -1.8246932
12.305943 4.7157164 2.0095916
1.6034483 1.1403452 -1.2428594
8.5202827 3.2566037 -1.8173649
1.7030605 1.1707969 -1.2515366
10.108974 3.7482541 -1.8607371
1.807014 1.2027322 -1.2581055
11.043191 4.0466514 -1.738771
1.8777826 1.2257822 -1.2417872
11.985821 4.3505464 -1.5710382
2.0319617 1.2723453 -1.2642696
12.023891 4.3805532 -1.2826335
2.0513079 1.2814655 -1.2150333
12.166237 4.4426661 -0.99966919
2.3628542 1.3732623 -1.2968729
12.180096 4.4656386 -0.70331651
2.4452381 1.4008746 -1.2654927
12.18542 4.4858513 -0.40862951
2.6675448 1.4687539 -1.2861364
12.18992 4.5058284 -0.1136074
3.0676589 1.5885651 -1.3607736
12.183928 4.5226946 0.18388702
3.3570511 1.6776003 -1.376967
12.190483 4.5434012 0.48035133
3.5654857 1.7438828 -1.3544078
12.1942 4.5632949 0.77794605
4.0686975 1.8971976 -1.4064784
12.206135 4.5860438 1.0802536
4.5495567 2.0455375 -1.4270875
12.232254 4.6133308 1.3845272
6.8192372 2.7255092 -1.8451636
12.266425 4.6434159 1.6934383
7.5376434 2.950346 -1.8248727
12.298585 4.6732564 2.0084314
1.558674 1.123304 -1.2134678
8.4525261 3.2090952 -1.8018751
1.6928812 1.1626942 -1.2442315
10.116314 3.7178588 -1.8585572
1.812025 1.1984088 -1.2596929
11.041882 4.0106354 -1.7351818
1.8777575 1.2198567 -1.240526
11.952974 4.3019643 -1.5639863
2.032059 1.2659547 -1.2630212
11.989095 4.3311853 -1.2764714
2.1249597 1.2954531 -1.2488611
12.209838 4.4165988 -0.99940163
2.3809063 1.3708235 -1.303566
12.22182 4.4389982 -0.70218259
2.6009684 1.4369584 -1.3294432
12.227154 4.4592371 -0.40675285
2.5007083 1.4130175 -1.219312
12.235467 4.4804173 -0.11094431
3.1049225 1.589413 -1.3727889
12.227532 4.4967475 0.18732095
3.3582666 1.6672404 -1.37573
12.23214 4.5168691 0.48445892
3.5521529 1.7286525 -1.3485861
12.2377 4.5373707 0.78295559
4.0575743 1.880957 -1.4014933
12.240075 4.5571151 1.0850172
4.4270124 1.9952316 -1.3933346
12.239672 4.5759549 1.3862972
6.8329439 2.7076206 -1.8456545
12.258812 4.6011381 1.6927276
7.5539241 2.9309044 -1.8254421
12.296714 4.6326733 2.0083027
1.5978835 1.1294097 -1.237114
8.6406937 3.2403531 -1.8338404
1.67747 1.1538863 -1.2339711
10.253333 3.7295663 -1.8774126
1.820227 1.1955947 -1.2632346
11.035484 3.9773641 -1.7313256
1.8980989 1.2201632 -1.2503159
11.926305 4.2600231 -1.5580471
2.0336578 1.2607385 -1.2626932
11.954752 4.2867808 -1.27075
2.1809676 1.304942 -1.2743697
12.254001 4.3951387 -0.99950546
2.3863235 1.3656759 -1.3047638
12.262196 4.4164028 -0.70130378
2.5976634 1.4287621 -1.3267756
12.273276 4.438417 -0.40520397
2.80181 1.4904597 -1.3359997
12.27011 4.4561138 -0.10864678
3.0746853 1.5721694 -1.3603711
12.262145 4.4724927 0.1902242
3.3389683 1.6523262 -1.3677723
12.276258 4.4955692 0.48854107
3.5991876 1.7320873 -1.3617692
12.277948 4.5148997 0.78754807
4.0756278 1.8747067 -1.4050629
12.272652 4.5322871 1.0895228
4.5013785 2.004214 -1.4109924
12.28732 4.5558848 1.3933873
6.8608732 2.6963925 -1.8498001
12.279936 4.5727077 1.6965404
7.5768862 2.9162083 -1.8277454
12.287773 4.5946279 2.0068634
1.6157362 1.1293939 -1.2472267
8.7047224 3.2328494 -1.8427432
1.6905862 1.1524113 -1.2406728
10.201245 3.6833489 -1.865978
1.8251296 1.1915243 -1.2648377
11.035275 3.9439039 -1.7281187
1.8928083 1.2131286 -1.24632
11.896304 4.2150469 -1.5515707
2.0301411 1.2537609 -1.259716
11.92662 4.2422056 -1.2654002
2.1354196 1.2860737 -1.2514849
12.285389 4.3673377 -0.99864513
2.3865414 1.3586383 -1.30356
12.301266 4.3909082 -0.70020902
2.5211563 1.3999316 -1.2934043
12.310446 4.4123521 -0.40338826
2.7554553 1.46924 -1.3164778
12.316839 4.4329886 -0.10606962
3.0572588 1.5581167 -1.3525615
12.29736 4.4459362 0.19327159
3.3326049 1.6405467 -1.3641062
12.31336 4.4695797 0.49230868
3.5800745 1.7159032 -1.3542674
12.313091 4.4883413 0.79180169
4.0790453 1.8634448 -1.4043543
12.311527 4.5069299 1.0947967
4.4155869 1.9661738 -1.387008
12.316649 4.5275555 1.3980827
6.8741484 2.6795261 -1.8503563
12.316741 4.5467596 1.7028944
7.5870323 2.8962786 -1.8272088
12.322595 4.568068 2.0135186
1.6139152 1.1235813 -1.2448385
8.6314716 3.1822944 -1.8261256
1.7055593 1.1507244 -1.248332
10.237417 3.6591446 -1.8681862
1.8251168 1.1854655 -1.2635269
11.036111 3.9066393 -1.7246737
1.8962759 1.2077593 -1.2468705
11.865468 4.1655889 -1.5446389
2.0459197 1.2512159 -1.2663238
11.895741 4.1925611 -1.2594774
2.065407 1.2601422 -1.2169063
12.327577 4.3379354 -0.99808902
2.3923018 1.3522247 -1.3046784
12.349236 4.3632045 -0.69911212
2.6076143 1.4150416 -1.328064
12.350767 4.3823895 -0.40131551
2.6352651 1.427073 -1.2680209
12.34949 4.4007449 -0.10339205
3.0964975 1.5586749 -1.3651886
12.339544 4.4166551 0.19680725
3.3247108 1.6271558 -1.3597543
12.351693 4.4391198 0.49635673
3.5815678 1.7042717 -1.3529956
12.355185 4.4590588 0.79682142
4.077281 1.8492 -1.4019721
12.35925 4.479414 1.1011863
4.2516108 1.9049791 -1.3426752
12.36237 4.4994574 1.4050937
6.8899746 2.6607487 -1.851197
12.366116 4.5198359 1.7113328
7.590373 2.8715224 -1.824934
12.362406 4.5382123 2.0211465
1.6135659 1.1187584 -1.2435236
8.7068005 3.1777139 -1.8370883
1.7153332 1.1482363 -1.2530289
10.158402 3.6057341 -1.8525693
1.819801 1.1787103 -1.2593837
11.031872 3.8721461 -1.7209623
1.8874989 1.19987 -1.241045
11.825576 4.118268 -1.537148
2.0580173 1.2483664 -1.2712209
11.871102 4.1494937 -1.2544782
2.1285932 1.2708281 -1.2457047
12.362672 4.3109288 -0.99744165
2.4119997 1.3504046 -1.3121717
12.380534 4.3350511 -0.69771576
2.6169083 1.409803 -1.3306036
12.391662 4.3570871 -0.39952406
2.8000176 1.4638948 -1.3309608
12.398045 4.3777561 -0.10076576
3.1117792 1.5536213 -1.3692782
12.388055 4.3937364 0.20036554
3.2889044 1.6074163 -1.3462291
12.390591 4.4133406 0.50026196
3.4404168 1.6546133 -1.307729
12.401667 4.4355898 0.80207109
4.0750527 1.8363867 -1.3996801
12.394217 4.4525018 1.1060662
4.4083877 1.9360399 -1.3815145
12.402957 4.4742775 1.4113379
6.9050417 2.6442878 -1.8521841
12.408489 4.4952292 1.7186131
7.5985136 2.8510025 -1.8240025
12.400875 4.5124631 2.0285151
1.5950494 1.1090547 -1.2307768
8.6991777 3.1477766 -1.832706
1.7268735 1.1458318 -1.2587018
10.188145 3.5816686 -1.8539879
1.8009439 1.168183 -1.247565
11.029995 3.8363278 -1.7173889
1.8925529 1.1952767 -1.2425327
11.809062 4.0757008 -1.5320408
2.0284493 1.2342095 -1.2551026
11.839255 4.1023335 -1.2487128
2.1181037 1.2613971 -1.2394865
12.409858 4.2849226 -0.99734288
2.3767672 1.3335079 -1.2951326
12.42584 4.3084927 -0.69665825
2.5868857 1.3935721 -1.316673
12.423544 4.3266263 -0.39747155
2.6903124 1.4256818 -1.2867944
12.428005 4.3467383 -0.098225698
3.0944066 1.539108 -1.3614399
12.41799 4.3627663 0.20337093
3.2733724 1.5928016 -1.3394606
12.441564 4.3886147 0.50501388
3.530278 1.6682401 -1.3339806
12.443013 4.4080181 0.80698198
4.1176353 1.8351481 -1.4100053
12.43929 4.4261103 1.1121385
4.5338068 1.9566674 -1.4120505
12.447934 4.4478755 1.4182405
6.9034982 2.6218615 -1.8491566
12.445777 4.4665327 1.7251382
7.5824285 2.8222792 -1.8178923
12.451233 4.4878006 2.0381155
1.6080831 1.1070633 -1.2377315
8.610261 3.0937533 -1.8133719
1.7284142 1.1405292 -1.2583685
10.212633 3.5540855 -1.8543866
1.7974455 1.1613528 -1.2443466
11.047653 3.8039935 -1.7162383
1.9131939 1.1942952 -1.2522421
11.771932 4.0252748 -1.5245295
2.0163288 1.2243741 -1.2477164
11.807822 4.0533428 -1.2428334
2.1710527 1.2680987 -1.2632129
12.449942 4.2543144 -0.99663252
2.4020126 1.3321987 -1.3049412
12.473645 4.2800813 -0.69551909
2.567677 1.3799151 -1.3072076
12.463666 4.2960591 -0.39536312
2.8049448 1.4470334 -1.3299012
12.481569 4.3200865 -0.095252529
3.0807743 1.5251472 -1.3548956
12.471504 4.3361917 0.20736939
3.2910264 1.5865872 -1.34375
12.48354 4.3586431 0.50933361
3.6352425 1.684709 -1.3647335
12.481104 4.3769388 0.81171548
3.9612167 1.7789344 -1.363869
12.483035 4.39675 1.1181517
4.5341601 1.9415408 -1.4102004
12.491583 4.4185019 1.4250379
6.9003444 2.5977492 -1.8456192
12.483622 4.4354763 1.7318108
7.5817409 2.7965314 -1.8148394
12.488976 4.4567289 2.0454352
1.6325872 1.1084129 -1.2519763
8.727313 3.1000919 -1.8318975
1.7314528 1.1362292 -1.259069
10.358031 3.5635941 -1.8741734
1.8090793 1.1590031 -1.2497771
11.06412 3.7754159 -1.7153242
1.9129739 1.1886259 -1.2509975
11.744928 3.9823937 -1.5185351
2.0196586 1.2192957 -1.2482433
11.782705 4.0108223 -1.2378702
2.1657166 1.2603402 -1.2595108
12.49448 4.2294512 -0.996526
2.4608443 1.3402913 -1.3297956
12.504768 4.251389 -0.69409066
2.5301969 1.3625945 -1.2903397
12.512095 4.2723551 -0.39362413
2.7057285 1.4127918 -1.2900264
12.520386 4.2936263 -0.092705265
3.0594776 1.5104125 -1.3457849
12.514125 4.3108993 0.21075743
3.3028324 1.5799485 -1.3462577
12.524204 4.3327899 0.5133937
3.4658873 1.6287763 -1.3109682
12.527449 4.3527884 0.81700552
4.1563082 1.8194529 -1.4174409
12.525473 4.3715005 1.1239057
4.7083135 1.9750009 -1.4532397
12.526315 4.3910031 1.430552
6.9359808 2.5867944 -1.8514018
12.525842 4.4102502 1.7391279
7.5821095 2.7739503 -1.8123446
12.51785 4.4275613 2.0511005
1.637097 1.1050508 -1.253788
8.7109604 3.0711873 -1.8263316
1.7209264 1.1289005 -1.2518141
10.234079 3.5006685 -1.8518312
1.8223318 1.1573269 -1.2561803
11.118232 3.7592115 -1.7195952
1.9281712 1.1871673 -1.2580125
11.715285 3.9411991 -1.5124741
2.0438149 1.219818 -1.2592747
11.751102 3.968914 -1.2325642
2.1443787 1.2489667 -1.248349
12.528745 4.2038651 -0.99597049
2.4466209 1.3298656 -1.3222933
12.544831 4.2274346 -0.69313079
2.4925129 1.3459177 -1.2735128
12.546395 4.2467966 -0.39185652
2.7892838 1.426915 -1.3212273
12.560452 4.2697139 -0.090259545
3.0598974 1.5020363 -1.344629
12.546475 4.284843 0.21366376
3.3199871 1.5752709 -1.3506441
12.564203 4.308929 0.51732802
3.5295992 1.6359401 -1.3292496
12.567391 4.3289447 0.82168049
4.1463165 1.8052231 -1.4130793
12.563422 4.3471255 1.1291139
4.681777 1.9547822 -1.444772
12.571794 4.3688602 1.4374766
6.9618435 2.5743365 -1.855068
12.578777 4.3903427 1.7481337
7.6085458 2.7598605 -1.8154061
12.487472 4.3831964 2.0458374
1.6434985 1.1012287 -1.2565823
8.6044455 3.013356 -1.8039467
1.7021898 1.1187112 -1.2395256
10.237348 3.4671409 -1.8489263
1.8426796 1.1563129 -1.2663443
11.17205 3.7364011 -1.7232311
1.9298408 1.1812322 -1.2576396
11.685287 3.8935664 -1.5058346
2.0613034 1.2174219 -1.2667387
11.721071 3.9210832 -1.226887
2.1056514 1.2322038 -1.2288125
12.578271 4.1752887 -0.99579418
2.4380548 1.3196124 -1.3170846
12.586694 4.1967316 -0.69174767
2.5270581 1.346423 -1.2864552
12.586335 4.2155905 -0.38971028
2.7862704 1.4168897 -1.3185771
12.602319 4.2390409 -0.087389946
3.0662231 1.4934924 -1.3453522
12.588302 4.2542458 0.21727774
3.3228846 1.5649711 -1.349997
12.604082 4.2777605 0.52156854
3.6013176 1.6428492 -1.3496766
12.620633 4.3016095 0.82776517
4.1947422 1.8040661 -1.424897
12.612728 4.318737 1.1357992
4.6558404 1.9322964 -1.4361622
12.611463 4.3377166 1.4438004
6.9887066 2.5581229 -1.8584988
12.610752 4.356988 1.7539368
7.6000638 2.7320709 -1.8107913
12.445536 4.3286538 2.0385296
1.6231092 1.0916084 -1.2428296
8.8415051 3.0505989 -1.844106
1.6899887 1.1108341 -1.2312653
10.468818 3.4983561 -1.8820715
1.8457886 1.1516893 -1.2669835
11.226671 3.7177014 -1.7273464
1.9071153 1.1700642 -1.2445025
11.66359 3.8527973 -1.5004959
2.0488925 1.2083471 -1.2594008
11.697423 3.879627 -1.22212
2.137279 1.233852 -1.2425783
12.614964 4.1476741 -0.99519348
2.4095976 1.3053714 -1.3032565
12.631126 4.1712503 -0.69076121
2.5361903 1.3412837 -1.2890019
12.626918 4.189095 -0.38784781
2.8301628 1.4197618 -1.3342512
12.642903 4.2125392 -0.084782943
3.0978563 1.4924849 -1.3553634
12.632697 4.2288914 0.22077352
3.2977743 1.5487372 -1.3402033
12.644593 4.251317 0.52566373
3.6412113 1.6424658 -1.3604596
12.651504 4.2724395 0.83178031
4.2297215 1.800698 -1.4331079
12.649279 4.2912273 1.1409576
4.6293635 1.9115874 -1.4276645
12.65365 4.3118544 1.4503746
7.009201 2.5427079 -1.8607669
12.656626 4.3322258 1.7618976
7.5926499 2.7074902 -1.8067367
12.417326 4.2830935 2.0337241
1.6060802 1.0826131 -1.2311392
8.9496861 3.0509984 -1.8606977
1.7217194 1.1131178 -1.2488821
10.45054 3.4604034 -1.8759582
1.8216243 1.1402184 -1.2523172
11.299069 3.7013402 -1.7335925
1.9069101 1.1641066 -1.2432401
11.630774 3.8070784 -1.4938052
2.0505323 1.2023851 -1.2590265
11.668412 3.8347511 -1.2167568
2.1425259 1.2284901 -1.2438493
12.657986 4.119247 -0.99478489
2.4240258 1.3014119 -1.3083341
12.672255 4.1423016 -0.68948972
2.5634491 1.3401204 -1.2989709
12.679628 4.1633592 -0.38595882
2.8069987 1.4051477 -1.3239031
12.682107 4.183105 -0.082051583
3.0380716 1.4677935 -1.3324051
12.671868 4.1995182 0.22420347
3.3336477 1.5474651 -1.3506539
12.683733 4.2219338 0.52979058
3.6571536 1.6350943 -1.3637798
12.690593 4.2430587 0.83660185
4.3097892 1.8078848 -1.4538717
12.688292 4.2618704 1.1464765
4.5973816 1.8887888 -1.4176855
12.711669 4.2878799 1.4591596
7.01299 2.5215726 -1.859036
12.695449 4.3028717 1.7687967
7.6386681 2.6955009 -1.813519
12.389554 4.2355609 2.0290411
1.6140124 1.0795038 -1.2349901
8.8557682 2.9984238 -1.8408327
1.7213876 1.1077302 -1.2475734
1.8179302 1.1337217 -1.2491205
11.35996 3.6815543 -1.7383022
1.9014931 1.1569223 -1.2392366
11.603561 3.7630963 -1.4877446
2.0486534 1.1955806 -1.2569075
11.635386 3.789048 -1.2110879
2.1229954 1.2171385 -1.2334929
12.695166 4.0890441 -0.99402332
2.4420259 1.2982382 -1.3149827
12.701741 4.1100264 -0.68780589
2.5149987 1.320299 -1.2776432
12.716846 4.1331697 -0.38389093
2.7964995 1.3938074 -1.318476
12.721251 4.1534634 -0.079307914
3.1083169 1.4757031 -1.3562
12.712906 4.1704636 0.22771847
3.376935 1.5478299 -1.3635473
12.730513 4.1944561 0.53440601
3.6414742 1.6197006 -1.3574104
12.729617 4.2134728 0.84143591
4.2963896 1.7909725 -1.4483519
12.729156 4.2328391 1.1522193
4.5069685 1.8513582 -1.3928421
12.739085 4.2550678 1.4638388
7.0280619 2.5033307 -1.8599143
12.738017 4.2743769 1.7763157
7.6732841 2.6803198 -1.8179483
12.352136 4.1855478 2.0225976
1.6351388 1.0799539 -1.2471559
9.0070257 3.0125368 -1.8654754
1.7107378 1.1005982 -1.2403307
10.381976 3.3806107 -1.8592243
1.8191825 1.129065 -1.2488284
11.414009 3.6639111 -1.7424853
1.9443744 1.1617887 -1.2608616
11.577035 3.7238309 -1.4821544
2.0570741 1.1919762 -1.2600658
11.608824 3.7496264 -1.2063229
2.1899569 1.227273 -1.2638652
12.734956 4.0641003 -0.99375385
2.352546 1.27009 -1.2744131
12.747353 4.0866508 -0.68698758
2.4968922 1.3090273 -1.2690461
12.752813 4.1072283 -0.38209003
2.8639545 1.4025306 -1.3432758
12.761075 4.1285796 -0.07680434
3.1233168 1.4708201 -1.3603013
12.750762 4.1451154 0.2308946
3.3644962 1.535454 -1.3580909
12.770268 4.1696115 0.5383991
3.7333245 1.63245 -1.3841488
12.767387 4.1881299 0.84600306
4.194531 1.7536441 -1.4182656
12.778361 4.2106748 1.1587567
4.5044599 1.8382546 -1.3906705
12.780523 4.2307887 1.4703114
7.0367565 2.4860232 -1.8596377
7.7147708 2.6695628 -1.8240914
12.315283 4.1406054 2.0162177
1.6313894 1.074088 -1.2437539
8.6454182 2.8927016 -1.7976289
1.7002138 1.0929441 -1.2330556
10.735126 3.4377761 -1.9107928
1.8137341 1.1222112 -1.2446795
11.432579 3.632669 -1.7416286
1.9562782 1.1585402 -1.2659881
11.54952 3.680212 -1.4761178
2.0586655 1.185989 -1.2596905
11.5832 3.7063367 -1.2013159
2.1650805 1.2146508 -1.2510183
12.773942 4.0340228 -0.99308228
2.2971201 1.2496798 -1.2487855
12.792171 4.0580997 -0.6858111
2.5150821 1.3056114 -1.2752874
12.786039 4.0756512 -0.37996128
2.7823999 1.3740383 -1.3104994
12.803966 4.0995669 -0.073983602
3.1624651 1.4705535 -1.3728788
12.795546 4.1166835 0.2345807
3.3486209 1.5210917 -1.3513401
12.807302 4.1390882 0.54244322
3.7660308 1.628801 -1.3925667
12.823609 4.1628242 0.85235393
4.2802539 1.7616662 -1.4405687
12.811443 4.1791234 1.163676
4.4646335 1.8142564 -1.378818
12.825015 4.2023716 1.4773345
7.0498443 2.4671855 -1.8600745
7.7227178 2.6473002 -1.8230541
12.285108 4.0931702 2.0111437
1.6276182 1.0682489 -1.2403533
9.0268059 2.9608159 -1.8631711
1.7048951 1.0887743 -1.234736
10.534365 3.3535392 -1.8764551
1.8322613 1.1208239 -1.2538905
11.443366 3.5994043 -1.739764
1.9369543 1.148105 -1.2546737
11.519915 3.6362989 -1.4698904
2.0409405 1.175561 -1.2497294
11.551622 3.6617484 -1.1958463
2.2411985 1.2256004 -1.2854605
12.820596 4.0057425 -0.99284798
2.4242098 1.2722486 -1.303462
12.834997 4.0288196 -0.68455577
2.4989395 1.2940174 -1.2673876
12.838543 4.0489545 -0.37801492
2.8355732 1.3779982 -1.3296113
12.84486 4.0698318 -0.071177155
3.1299875 1.4529642 -1.3598118
12.834473 4.0864968 0.23805898
3.3271337 1.5054985 -1.342757
12.851982 4.1104274 0.54697835
3.7540233 1.6141474 -1.387325
12.860531 4.1320896 0.85705924
4.0922751 1.7025126 -1.3863232
12.857889 4.1510162 1.1700938
4.5736942 1.827031 -1.404815
12.87136 4.1742439 1.4846299
7.062881 2.4482901 -1.8605084
12.763077 4.1646423 1.7825208
7.7096543 2.6198132 -1.8177431
12.252859 4.0454326 2.0057046
1.6422176 1.0664659 -1.2483337
8.9629288 2.9167314 -1.8488417
1.6977051 1.0819577 -1.229455
10.578906 3.3315034 -1.8801403
1.8353577 1.1158861 -1.2545111
11.423255 3.558409 -1.7338893
1.9366784 1.1420842 -1.2534084
11.490149 3.5925865 -1.4636762
2.0337026 1.1676317 -1.2450025
11.556609 3.6266575 -1.193393
2.2641845 1.2239367 -1.2950008
12.859453 3.9752462 -0.9921515
2.4170864 1.2631115 -1.2990849
12.879697 3.9998114 -0.68335217
2.4140227 1.2665719 -1.2312362
12.877439 4.018487 -0.37591991
2.8286037 1.3675743 -1.3255894
12.893428 4.0418859 -0.068247959
3.0827181 1.4321094 -1.3415029
12.877196 4.0571165 0.2416974
3.3148427 1.4922369 -1.3372457
12.898536 4.082036 0.55164844
3.753149 1.6022459 -1.385498
12.89738 4.1011658 0.86177558
4.0691171 1.6841832 -1.3782377
12.900435 4.121644 1.1761005
4.5413218 1.8049135 -1.3948801
12.909984 4.1438274 1.4909034
7.0720725 2.4284086 -1.8600719
12.761419 4.1238174 1.783056
7.6755309 2.5872822 -1.8081698
12.214739 3.9963779 1.9991977
1.6451105 1.0620692 -1.2490697
8.810791 2.8515925 -1.8188128
1.6955756 1.0762955 -1.2271588
10.379429 3.2494326 -1.8462055
1.8521774 1.113955 -1.2627587
11.40493 3.5180283 -1.7282739
1.9398596 1.1368392 -1.2539685
11.460223 3.549072 -1.4574742
2.0229194 1.1589622 -1.2385368
11.611783 3.6041114 -1.1950386
2.2534466 1.2145342 -1.2887857
12.900182 3.9450288 -0.99155432
2.3579261 1.2422036 -1.2719045
12.918521 3.9690912 -0.68193984
2.4827938 1.2748617 -1.2582967
12.925959 3.9902761 -0.373905
2.8051667 1.3534065 -1.3152702
12.932262 4.0111985 -0.065442257
3.1071134 1.4282163 -1.3488154
12.925666 4.0289965 0.24557322
3.3729489 1.4955406 -1.3550048
12.935371 4.0508924 0.55572915
3.785836 1.5982738 -1.3938961
12.945733 4.0730572 0.86750621
4.0158343 1.6588681 -1.3617873
12.940995 4.0915403 1.1819072
4.5390739 1.790215 -1.3926098
12.967716 4.1182532 1.499784
7.0888057 2.4103124 -1.8613651
12.751988 4.0810018 1.782367
7.6508188 2.5572746 -1.8005488
12.185949 3.9501035 1.9944322
1.641223 1.0565135 -1.2456875
8.9261951 2.8534122 -1.8367472
1.73917 1.0807934 -1.2517099
10.730851 3.3039193 -1.8973424
1.8500226 1.1081467 -1.260535
11.378251 3.4778857 -1.7217925
1.9620674 1.1360992 -1.2645822
11.433505 3.508698 -1.4518178
2.0348728 1.1557523 -1.2434125
11.666414 3.5832963 -1.1967933
2.2176974 1.2000494 -1.2710001
12.946088 3.9182973 -0.99141878
2.3828933 1.2409639 -1.281719
12.96253 3.94188 -0.68085033
2.4664099 1.2639467 -1.2504399
12.9564 3.9596832 -0.37185305
2.7377021 1.3298776 -1.2881956
12.97627 3.9840422 -0.062681697
3.1019151 1.4179665 -1.3456547
12.967704 4.0014052 0.2490983
3.3845799 1.4883833 -1.357482
12.985102 4.0252819 0.5605278
3.7866149 1.5873874 -1.3926744
12.981879 4.0439787 0.8721056
3.9697766 1.6363252 -1.3474927
12.990544 4.065979 1.1886539
13.013322 4.0916419 1.5069823
7.093781 2.3906598 -1.8601346
12.745683 4.0414953 1.7821438
7.7000847 2.5465453 -1.8081305
12.152655 3.9051468 1.9888167
1.6290066 1.0489444 -1.2371213
8.8656721 2.8111527 -1.8231595
1.7098652 1.0692698 -1.2335143
10.492514 3.2134011 -1.8575478
1.8410492 1.1005673 -1.2544818
11.355784 3.4368706 -1.7156975
1.9617542 1.1300194 -1.2633133
11.403275 3.4655781 -1.4456418
2.0433915 1.1513637 -1.2465224
11.711842 3.5578046 -1.1976192
2.2193143 1.1935878 -1.2705958
12.98475 3.887177 -0.99068564
2.3936098 1.2359991 -1.285213
13.007048 3.9121892 -0.67960608
2.5008357 1.2640212 -1.2633569
13.004802 3.9310219 -0.3698113
2.7616422 1.3268042 -1.296088
13.02467 3.9553692 -0.059709072
3.1115577 1.4105548 -1.3477099
13.012184 3.9718287 0.25285256
3.3759208 1.4759274 -1.3531916
13.025674 3.9947112 0.56487554
3.7520082 1.5676975 -1.3806329
13.018526 4.0124607 0.87685722
4.0686164 1.6468506 -1.3734224
13.027126 4.0344524 1.1940579
4.5285668 1.7603551 -1.3866906
13.049837 4.0600624 1.5130353
7.0857005 2.3666449 -1.8557997
12.730239 3.9973586 1.7805245
7.698123 2.5220504 -1.8051617
12.125445 3.8597775 1.9843762
1.6300361 1.0447806 -1.2368608
8.8425951 2.7813258 -1.8166027
1.7228413 1.0673834 -1.2401919
10.849647 3.268836 -1.9095442
1.8370535 1.0947596 -1.2513285
11.33607 3.400861 -1.7103572
1.9664809 1.1257281 -1.2648215
11.387398 3.4303105 -1.441349
2.041167 1.1453601 -1.2444541
11.756217 3.5361488 -1.1986849
2.1442142 1.1713028 -1.2346401
13.031937 3.8627253 -0.99077511
2.3591948 1.2219869 -1.2691169
13.05039 3.8867927 -0.67863131
2.4933593 1.2555821 -1.2592421
13.053975 3.9071074 -0.36805505
2.737793 1.3139976 -1.2858539
13.066074 3.9295397 -0.057091728
3.1043243 1.400456 -1.3439291
13.05161 3.9455867 0.25618601
3.457963 1.485189 -1.3789303
13.070873 3.9699154 0.56931776
3.7581503 1.5588343 -1.3811593
13.071377 3.9896574 0.8828488
4.1879096 1.6629666 -1.4051533
13.072163 4.0097108 1.2002618
4.6469312 1.7751718 -1.4150662
13.079401 4.031374 1.518033
7.0940561 2.3491068 -1.8555112
12.719309 3.959228 1.7795401
7.7336483 2.5091577 -1.8100965
12.083701 3.815366 1.9771931
1.6228659 1.0380702 -1.2313836
8.9453392 2.7759268 -1.8318985
1.7496412 1.0673466 -1.2547514
10.834805 3.2295463 -1.9038866
1.8332665 1.0880376 -1.2481186
11.306078 3.3563685 -1.7031643
1.9453076 1.1149231 -1.2525964
11.357357 3.3855717 -1.4350734
2.0691338 1.1446645 -1.2571027
11.80787 3.5095189 -1.1998231
2.1369252 1.1627909 -1.2300887
13.074908 3.8298454 -0.99009514
2.3879478 1.220505 -1.2804389
13.089513 3.8529699 -0.6770277
2.5061321 1.2502375 -1.263212
13.095049 3.8737829 -0.36577234
2.7636597 1.3107269 -1.2944083
13.105205 3.895741 -0.054094139
13.098469 3.9137664 0.26018497
3.376919 1.4558933 -1.3507681
13.113816 3.9371145 0.57395566
3.7684867 1.5488365 -1.3826954
13.116191 3.9573617 0.8884415
4.0573583 1.6198415 -1.3672729
13.120741 3.9784 1.2071214
4.7167583 1.7757437 -1.4308515
13.135557 4.0019932 1.5268583
7.1451516 2.3374114 -1.8644886
12.713704 3.9155169 1.7795782
7.8198638 2.5034845 -1.8248143
12.056687 3.768306 1.972857
1.6239319 1.0336469 -1.2311068
8.8802328 2.7348583 -1.8177607
1.7303716 1.0584242 -1.2425437
10.834342 3.1976769 -1.9008269
1.834474 1.0830278 -1.2478054
11.286579 3.3186898 -1.6977212
1.9396154 1.1081583 -1.2486196
11.333956 3.3467875 -1.4298658
2.0687366 1.138629 -1.2558792
11.850721 3.4848917 -1.200577
2.118736 1.1528088 -1.220623
13.118653 3.8017449 -0.98979563
2.3841293 1.2128035 -1.2776737
13.135237 3.8253434 -0.67594898
2.5059743 1.2429633 -1.2620397
13.134949 3.8447969 -0.36376184
2.8002996 1.3106306 -1.3072033
13.148988 3.8677001 -0.051280867
3.1124289 1.3830782 -1.3441019
13.134444 3.8839035 0.26353228
3.3810236 1.4469889 -1.3507962
13.15558 3.9086509 0.57832158
3.8047094 1.5458711 -1.3922384
13.16176 3.929868 0.89393115
4.1335654 1.6249652 -1.386919
13.158502 3.9490168 1.2126343
4.7369604 1.7665153 -1.4343243
13.167462 3.9711528 1.5322804
7.1632624 2.3206069 -1.8662694
12.714561 3.8782077 1.7805634
7.8423138 2.4857016 -1.8269322
12.02468 3.7246721 1.9675398
1.6318383 1.0299956 -1.2349246
8.8041468 2.6885107 -1.8014174
1.7401506 1.0548105 -1.2471719
10.593511 3.1074057 -1.8607833
1.8444376 1.0791256 -1.2522106
11.246601 3.2723684 -1.6893127
1.9672085 1.1075152 -1.2619054
11.29972 3.3015492 -1.4232128
2.0579002 1.1297164 -1.2493987
11.886736 3.4541154 -1.2004371
2.1274223 1.1477534 -1.2235219
13.167315 3.7697504 -0.98941553
2.3822796 1.2046863 -1.2756445
13.178101 3.7919879 -0.6744442
2.4696476 1.2271743 -1.2459877
13.187551 3.8137796 -0.36155093
2.7180288 1.2840509 -1.2745485
13.195748 3.8353081 -0.048137456
3.0574355 1.3611686 -1.3232086
13.188935 3.8534536 0.26786673
3.4263401 1.4457343 -1.3641756
13.198376 3.8753839 0.58298737
3.8000228 1.5324229 -1.3892355
13.20643 3.8970768 0.89955348
4.049859 1.593122 -1.362133
13.208875 3.9176695 1.2197394
4.7252927 1.7484264 -1.4295931
13.210016 3.9379168 1.5393076
7.1590438 2.2961438 -1.8627169
12.710604 3.8350708 1.7809017
7.8002563 2.4505188 -1.8157601
12.006888 3.6803753 1.9649451
1.6295193 1.0248916 -1.2325823
8.8733759 2.6781833 -1.8110909
1.7463776 1.0510668 -1.2498503
10.882283 3.1410408 -1.9018192
1.8525226 1.0754566 -1.2557008
11.221021 3.2337089 -1.6831474
1.9318056 1.0947753 -1.2424524
11.279922 3.2639902 -1.4184308
2.0715833 1.126583 -1.255126
11.935314 3.4303925 -1.2016313
2.1965964 1.1557742 -1.2545671
13.19732 3.738055 -0.98832577
2.3261497 1.1862658 -1.2501428
13.221762 3.7634444 -0.67327529
2.509434 1.2283258 -1.2611246
13.223431 3.7834449 -0.35948217
2.6830933 1.2688899 -1.2601252
13.243301 3.8077199 -0.045236155
3.0150299 1.3433775 -1.3069816
13.234505 3.8254704 0.27162358
3.3931599 1.4287531 -1.3519967
13.247786 3.8483322 0.58787197
3.8024855 1.5219318 -1.3885796
13.246071 3.8677244 0.90456289
4.2110257 1.6161753 -1.4052002
13.242638 3.886941 1.2248454
4.785306 1.7477456 -1.4430509
13.253339 3.9095275 1.5463219
7.169425 2.2775505 -1.8627684
12.707388 3.7968812 1.7812665
7.8129988 2.4305735 -1.8159492
12.028119 3.6502237 1.9695117
1.6288661 1.020126 -1.2312732
8.8540554 2.6480629 -1.8051436
1.7611239 1.0489441 -1.2574844
10.879633 3.108675 -1.8984637
1.8657827 1.0727599 -1.2620413
11.206935 3.1977899 -1.6784775
1.9609849 1.0950176 -1.2566824
11.291072 3.2335093 -1.4168742
2.0799658 1.1223189 -1.2582445
2.1783516 1.1457956 -1.2451019
13.250619 3.7115104 -0.98853076
2.3510709 1.1846418 -1.2599339
13.265362 3.7346766 -0.67209315
2.4800928 1.2150921 -1.2481019
13.276786 3.7569597 -0.35754362
2.7600672 1.2770544 -1.2882605
13.292757 3.7803347 -0.042289365
3.1446335 1.3616551 -1.3515794
13.268344 3.7945318 0.27493042
3.378551 1.415874 -1.3459256
13.291313 3.8196564 0.59240121
3.8180573 1.5142108 -1.391881
13.295346 3.8404565 0.91043341
4.2099481 1.6037321 -1.4034317
13.289873 3.8592532 1.2314754
4.8529525 1.7483674 -1.4583902
13.302389 3.8822956 1.5541365
7.1759415 2.2580826 -1.8619566
12.707902 3.7596512 1.7822442
7.8870578 2.4239292 -1.8284543
12.076057 3.6264486 1.9790435
1.624957 1.0141773 -1.2278669
8.8854237 2.6258252 -1.8078196
1.7572412 1.0425583 -1.254173
10.755943 3.0460835 -1.8764191
1.8757336 1.0686858 -1.2664361
11.181988 3.1555429 -1.6720898
1.9483775 1.0862608 -1.249028
11.339949 3.2072098 -1.4188824
2.0778954 1.1152146 -1.2561083
13.549724 3.7146738 -1.3240623
2.1370044 1.130582 -1.2248607
13.50567 3.724942 -0.99958098
2.2661157 1.1600723 -1.2218726
13.331412 3.7058959 -0.67128694
2.3871377 1.1883363 -1.2091253
13.317496 3.7224805 -0.35519257
2.7418134 1.2644045 -1.2800586
13.335414 3.7462871 -0.039162379
3.1579728 1.3541844 -1.3548918
13.318746 3.7623854 0.27915731
3.3977375 1.4088609 -1.3507535
13.331944 3.785233 0.5969848
3.8620903 1.5109543 -1.4035685
13.333981 3.8055937 0.91558754
4.2545204 1.5993662 -1.4140615
13.33617 3.8262408 1.2381923
4.6891403 1.6979117 -1.4156363
13.344721 3.8483567 1.5612047
7.1695967 2.2332599 -1.8579786
12.695851 3.7148356 1.781337
7.9272289 2.406724 -1.8338401
12.117253 3.5963869 1.9874344
1.6494178 1.0146929 -1.2420609
9.0348749 2.6351054 -1.8318527
1.7667257 1.0399666 -1.2588654
1.8681023 1.0625561 -1.2614038
11.155143 3.1212223 -1.6661973
1.9669242 1.0849543 -1.2578309
11.387002 3.1885374 -1.4213679
2.070174 1.1085204 -1.2514591
13.594171 3.6898317 -1.3249331
2.1435251 1.1265061 -1.2270172
13.598887 3.7110374 -1.0022788
2.2745662 1.1560576 -1.2246659
13.606071 3.732919 -0.67766035
2.5196376 1.2087154 -1.2620516
13.404824 3.7079854 -0.35378265
2.7377884 1.2566987 -1.2775557
13.379808 3.7221823 -0.036539398
3.1374583 1.3420714 -1.3465772
13.353348 3.7361524 0.28227454
3.3361235 1.3877144 -1.3295381
13.3743 3.7607727 0.60124975
3.8209722 1.4927356 -1.3899989
13.385976 3.7833924 0.92153728
4.3476114 1.6078876 -1.438381
13.384181 3.8031735 1.2447774
4.7715759 1.7032422 -1.4348705
13.384885 3.8234963 1.5677054
7.173522 2.2158675 -1.8568923
12.68744 3.6803017 1.7807977
7.9526916 2.3919587 -1.8368664
12.150736 3.5731974 1.994246
1.626942 1.0053151 -1.2273135
9.0257254 2.6036446 -1.8273871
1.7559748 1.0323272 -1.2515924
10.639647 2.9588585 -1.8531036
1.881492 1.0590725 -1.2676959
11.127973 3.0789015 -1.6595857
1.9542682 1.0762558 -1.25018
11.435792 3.1617041 -1.4233444
2.073365 1.1024776 -1.2519283
13.648472 3.6569908 -1.3258154
2.1414192 1.1192075 -1.2249541
13.647393 3.6769812 -1.0017736
2.3393641 1.161306 -1.2516277
13.65461 3.6988983 -0.67622054
2.4867249 1.1941425 -1.2475109
13.656339 3.7194591 -0.3529734
2.7120864 1.2427771 -1.2665799
13.672203 3.74317 -0.029322196
3.1006894 1.3245929 -1.3322599
13.42312 3.707866 0.28731525
3.4187484 1.3934889 -1.3550601
13.424522 3.7281001 0.60648263
3.8348992 1.4831492 -1.3926435
13.432237 3.7498393 0.92740154
4.3676529 1.5978404 -1.4422135
13.424529 3.7683275 1.2508729
4.71208 1.675483 -1.4182863
13.434802 3.7908845 1.5758541
7.2091107 2.1998277 -1.8623643
12.684743 3.6378872 1.7814236
7.952456 2.3659327 -1.8341641
12.193719 3.5431612 2.0030167
1.6144806 0.99817574 -1.2187753
9.0933399 2.5898154 -1.8365314
1.7622221 1.0281659 -1.254245
10.82086 2.9638174 -1.8774171
1.8861543 1.0542432 -1.269254
11.106047 3.0399315 -1.6538451
1.9887981 1.0767518 -1.2670915
11.474355 3.1345296 -1.4244306
2.0924051 1.0997639 -1.2602208
13.690481 3.6237335 -1.3259072
2.1356277 1.1116165 -1.2212651
13.693349 3.6446171 -1.001294
2.3480937 1.1558648 -1.2543318
13.690824 3.6644571 -0.67455006
2.4116788 1.1721164 -1.2160044
13.698423 3.6863239 -0.35069627
2.700943 1.2323471 -1.2612121
13.722096 3.7117393 -0.026125625
3.12309 1.3195171 -1.3388712
13.707001 3.7288561 0.30089867
3.4415078 1.3875351 -1.3611255
13.61641 3.729068 0.6207146
3.8561873 1.4756496 -1.3975804
13.477908 3.7183757 0.93313468
4.3761501 1.5861545 -1.4429712
13.47204 3.7373509 1.2577052
4.6332331 1.6450584 -1.3970354
13.474463 3.7581518 1.5825541
7.238656 2.1836658 -1.8666153
12.685273 3.5986087 1.7825272
8.003746 2.3519773 -1.8419077
12.243839 3.5167766 2.013092
1.6305658 0.99674112 -1.2277899
9.0907412 2.5645692 -1.8337049
1.759778 1.0230415 -1.2519836
10.900611 2.9507937 -1.8867393
1.8854696 1.0490944 -1.2680027
11.081215 3.0045536 -1.648109
1.9811399 1.0700454 -1.2622309
11.50031 3.1087 -1.4245584
2.0811615 1.0920975 -1.253819
13.737239 3.5962496 -1.3267429
2.1618931 1.1108052 -1.2324679
13.740157 3.6171877 -1.0012038
2.2227798 1.1259851 -1.199198
13.753302 3.6404305 -0.67400914
2.4586682 1.1745777 -1.2340939
13.745268 3.6589947 -0.34874529
2.7871623 1.2416166 -1.2927861
13.765032 3.6835518 -0.023308489
3.1434004 1.315038 -1.3448901
13.742085 3.6990485 0.3042374
3.2826006 1.3472812 -1.3082893
13.780089 3.7277355 0.63296092
3.8715303 1.4682571 -1.4009032
13.773503 3.7467675 0.96072263
4.2402973 1.5474086 -1.4043753
13.522349 3.711678 1.2646961
4.8968811 1.6851782 -1.4611955
13.516904 3.7307692 1.5895014
7.254221 2.1671607 -1.8680131
12.682808 3.5633242 1.7830439
8.0486555 2.3393519 -1.8486576
12.281472 3.4917784 2.0207813
1.6467761 0.99466467 -1.2367644
9.1544485 2.5494266 -1.8421426
1.7694269 1.0194433 -1.2566133
10.79307 2.8954244 -1.8675489
1.8502425 1.0371399 -1.2477291
11.064868 2.9670756 -1.6431248
1.9928939 1.066177 -1.2673204
11.554349 3.0843699 -1.4272144
2.0771348 1.0850738 -1.2508423
13.777153 3.5621412 -1.3266559
2.1094694 1.0946455 -1.2073452
13.785978 3.584343 -1.0006957
2.2241628 1.1195077 -1.1987939
13.797198 3.6071901 -0.67255193
2.3743362 1.151354 -1.1989255
13.795037 3.6270676 -0.34649581
2.7833753 1.2324263 -1.2901909
13.812842 3.6512003 -0.02011469
3.0079131 1.279688 -1.2960773
13.805474 3.6701639 0.30899626
3.3988075 1.3595687 -1.3447514
13.827812 3.6954241 0.63801706
3.8532317 1.4528888 -1.3939984
13.821144 3.7145104 0.96670216
4.2884583 1.5438336 -1.4160466
13.82413 3.7359419 1.3001692
4.8732643 1.6655352 -1.4536693
13.577716 3.7023191 1.599134
7.2472892 2.1435122 -1.8641102
12.675393 3.5223808 1.7829018
8.0421734 2.3133214 -1.8448801
12.319963 3.4623206 2.028748
1.6376401 0.98815984 -1.2302897
8.962883 2.4833395 -1.8061206
1.7773589 1.0154949 -1.2602508
10.906501 2.8848815 -1.8815618
1.8860594 1.0378333 -1.2663705
11.034772 2.9269764 -1.6364334
2.0046432 1.0622429 -1.2724056
11.606393 3.059346 -1.4296539
2.0801823 1.0793456 -1.2513311
13.826756 3.5298157 -1.3273182
2.1484246 1.0952966 -1.2242663
13.831724 3.5512524 -1.0001726
2.2200942 1.1120365 -1.1960452
13.842976 3.5741203 -0.67114025
2.3209524 1.1343458 -1.1763411
13.840821 3.5940545 -0.34420386
2.7777138 1.2229218 -1.2869029
13.860578 3.6185915 -0.016905598
3.069242 1.2820181 -1.3163776
13.84144 3.6351407 0.31265882
3.4364829 1.3563267 -1.3556676
13.865705 3.6607752 0.6424582
3.8631535 1.4430211 -1.3955452
13.86482 3.68116 0.97235256
4.2304034 1.5195869 -1.3986754
13.867717 3.7026107 1.3066566
4.9277911 1.6611813 -1.4655497
13.607483 3.6667912 1.6045513
7.2767124 2.1270263 -1.8683422
12.677498 3.4836187 1.7843082
8.0317574 2.2865872 -1.8403416
12.366073 3.4343536 2.0381541
1.6132015 0.97942901 -1.2145712
9.0667295 2.4777272 -1.8217218
1.7629431 1.0080167 -1.2510467
10.943855 2.8606944 -1.8843217
1.8975416 1.0344671 -1.2717402
11.033348 2.8947706 -1.6335435
2.0040264 1.0564495 -1.2711561
11.656023 3.0356643 -1.4320042
2.0866923 1.0745828 -1.2535729
13.877748 3.5000196 -1.3282669
2.1729741 1.0935473 -1.2346067
13.878856 3.5207174 -0.99989092
2.226795 1.1069208 -1.198009
13.886227 3.5428121 -0.66980493
2.452143 1.1514732 -1.2283483
13.884075 3.5628002 -0.34203464
2.7571602 1.2112355 -1.2780888
13.901874 3.5869195 -0.01393193
3.0691378 1.2732197 -1.3151991
13.892473 3.6056001 0.31682366
3.3166664 1.3242074 -1.3156283
13.920596 3.6320331 0.6478985
3.8295267 1.4256327 -1.384191
13.915717 3.651639 0.97855669
4.3372283 1.5276346 -1.4264357
13.918507 3.673116 1.3138835
4.764544 1.6158816 -1.4235692
13.659927 3.6384695 1.6130104
7.2809019 2.1068473 -1.867084
12.67324 3.4458153 1.7846429
8.0151806 2.260195 -1.8347476
12.40591 3.4070344 2.0463698
1.6513826 0.98090363 -1.2369184
9.0586462 2.4483838 -1.8177035
1.7554156 1.0014699 -1.2457843
10.954346 2.8291483 -1.8828888
1.891724 1.0277809 -1.2676039
11.075079 2.8690469 -1.6359103
1.996434 1.0491208 -1.2662568
2.0737207 1.0660553 -1.2462716
13.923301 3.4663854 -1.3285942
2.1060379 1.0753168 -1.2029247
13.9225 3.4867468 -0.99923348
2.2172432 1.098515 -1.1929193
13.943619 3.511631 -0.66871798
2.427983 1.1397588 -1.2175736
13.937552 3.5308983 -0.33976445
2.7901917 1.2088115 -1.2893927
13.951426 3.5542223 -0.010659993
3.1342435 1.2757015 -1.3367686
13.940023 3.5725758 0.32099363
3.4030163 1.3299165 -1.3423178
13.968104 3.5989649 0.6529994
3.8563628 1.4189246 -1.3908002
13.967049 3.6194346 0.98492748
4.4556904 1.536449 -1.4572177
13.948327 3.6364436 1.3188639
4.8266206 1.6129866 -1.4373415
13.695343 3.6038065 1.6192455
7.2872081 2.0857623 -1.8661745
12.671246 3.4062707 1.785423
8.062438 2.2446604 -1.8416765
12.444202 3.37694 2.0543737
1.6625612 0.97748238 -1.242775
9.091466 2.4252195 -1.8206389
1.761649 0.99692136 -1.2484136
11.079823 2.8174982 -1.8984351
1.8981078 1.0228257 -1.2700849
11.11909 2.8415401 -1.6383877
1.9836071 1.0406163 -1.2586193
12.373848 3.1008496 -1.4986844
2.0625613 1.0575565 -1.2398186
13.965346 3.429317 -1.3284531
2.1055486 1.0685171 -1.2016976
13.968507 3.4505012 -0.9985165
2.2186208 1.0916736 -1.192493
13.983781 3.4742086 -0.66693455
2.3599012 1.1201031 -1.1890857
13.977719 3.4935358 -0.33724049
2.7993193 1.2014775 -1.2916312
13.989628 3.5164602 -0.0074258316
3.0989594 1.2593594 -1.3231535
13.98211 3.5356734 0.32508785
3.416398 1.3213804 -1.3452969
14.012115 3.5624053 0.6580134
3.8398876 1.4035238 -1.3844349
14.01489 3.5837109 0.99111992
4.4508786 1.521202 -1.4542851
14.013581 3.6044328 1.3279607
4.7837758 1.5895096 -1.4250767
13.748611 3.5702062 1.6280317
7.2975483 2.0641026 -1.866039
12.661834 3.3629334 1.7850909
8.0771532 2.2213054 -1.8420167
12.482854 3.3444693 2.0625257
1.6736244 0.97456509 -1.2486627
9.1526852 2.4104438 -1.8287892
1.772903 0.99376965 -1.2540426
11.056747 2.7812495 -1.8921754
1.9113054 1.0196177 -1.2763946
11.154472 2.8161809 -1.6401167
1.9899607 1.036057 -1.2610006
12.413901 3.0727909 -1.4998939
2.0636811 1.0519078 -1.2394667
14.016132 3.3987586 -1.329356
2.2307315 1.0836254 -1.2581038
14.015425 3.4192441 -0.99819177
2.3251231 1.1034946 -1.2373688
14.034661 3.4437315 -0.66579014
2.4271517 1.1249552 -1.2152166
14.028599 3.4631348 -0.33507764
2.7269177 1.1809535 -1.2633989
14.048346 3.4876332 -0.0041028224
3.0671177 1.2449512 -1.3109183
14.046657 3.5081 0.32986698
3.4351585 1.3149444 -1.350163
14.057027 3.53088 0.6628648
3.8438792 1.3932592 -1.3843362
14.05387 3.5510263 0.99632901
4.4837403 1.5143709 -1.4617898
14.021312 3.5654235 1.3303907
5.1440077 1.6411675 -1.5124612
13.795038 3.5399046 1.6357393
7.3034821 2.0442216 -1.8652053
12.653344 3.3244829 1.78479
8.1395197 2.2095869 -1.852056
12.534047 3.3189476 2.0729258
1.6490917 0.9660297 -1.2329571
9.1615276 2.385745 -1.8278768
1.7841551 0.99055719 -1.2596679
11.097779 2.7570002 -1.8954673
1.9071084 1.0135553 -1.273227
11.193705 2.7913628 -1.6423213
2.0139046 1.0343132 -1.2724426
12.461723 3.0459914 -1.5018783
2.0754647 1.0480026 -1.2443008
14.070779 3.3686745 -1.3305447
2.2481151 1.0801852 -1.2651246
14.06228 3.3877409 -0.99785256
2.3518 1.101364 -1.2478907
14.073703 3.4107237 -0.66428322
2.4339538 1.1192172 -1.2170117
14.081385 3.4328456 -0.33291006
2.7080424 1.1699823 -1.2553034
14.089347 3.4550495 -0.0010752454
3.1414661 1.2490203 -1.3357368
14.085668 3.4751735 0.33360642
3.337477 1.2881666 -1.3174794
14.107746 3.5002813 0.66811413
3.8497343 1.3833082 -1.3847976
14.106452 3.5208671 1.0027685
4.3739123 1.482105 -1.4305379
14.11079 3.542834 1.342083
5.0855598 1.6159964 -1.496491
13.843339 3.5097523 1.6437278
7.3285923 2.0277786 -1.8686326
12.646677 3.2864883 1.7847974
8.1381369 2.1859503 -1.8495071
12.579413 3.2919655 2.0822663
1.6652743 0.96358943 -1.2419095
9.0735769 2.3419492 -1.8101366
1.7782764 0.98431414 -1.2553959
11.185861 2.7390978 -1.9055572
1.9081749 1.0080142 -1.272882
11.227401 2.7633255 -1.6436646
2.0203145 1.0292947 -1.2747953
12.484464 3.01208 -1.501159
2.0677221 1.0405321 -1.2396047
14.116031 3.3340356 -1.3308125
2.1917856 1.0642815 -1.2384109
14.111498 3.3539202 -0.99745071
2.3294928 1.0906274 -1.237329
14.130813 3.3784149 -0.66312909
2.4628379 1.1166782 -1.2276156
14.124757 3.3979614 -0.33051836
2.5578432 1.1366531 -1.1979718
14.138602 3.4213166 0.0022582263
3.0126786 1.2177401 -1.2896984
14.128995 3.4403598 0.33767369
3.3976083 1.2883375 -1.3356316
14.15495 3.4662018 0.67327511
3.8935277 1.3791891 -1.3964338
14.167265 3.4895153 1.0100746
4.3059487 1.4570076 -1.4106369
14.153918 3.5080426 1.3486567
5.1975622 1.6201974 -1.5224082
13.884262 3.4753907 1.6508133
7.3616095 2.0112991 -1.8736768
12.642258 3.2467461 1.7852499
8.1427507 2.161962 -1.8480139
12.619358 3.2613873 2.0906818
1.6711715 0.96009684 -1.2447274
9.1227064 2.326256 -1.816354
1.7705415 0.97845066 -1.2501764
11.183591 2.7085686 -1.90259
1.9108428 1.0033903 -1.2735245
11.264202 2.7397168 -1.6457248
2.0301063 1.0254844 -1.2790008
12.547415 2.9898729 -1.504822
2.0812011 1.0371919 -1.2453203
14.168119 3.3055043 -1.3319714
2.2378674 1.0658362 -1.2586043
14.16757 3.3261976 -0.99775392
2.4033635 1.0963756 -1.2681282
14.177104 3.3488853 -0.66197705
2.4365089 1.1058431 -1.2161794
14.176946 3.3696089 -0.32847276
2.8182569 1.1727774 -1.2945614
14.198639 3.3944716 0.0055145845
3.079463 1.2208323 -1.3119361
14.181126 3.4121065 0.34185979
3.3090343 1.264384 -1.3060501
14.205068 3.4375522 0.67840153
3.8973293 1.3694299 -1.3963668
14.207522 3.4589801 1.0153463
4.2680669 1.4389997 -1.3991075
14.199938 3.4787126 1.3553798
4.9683518 1.5666561 -1.4646127
13.904743 3.4418242 1.6549399
7.3479099 1.9891394 -1.8686557
12.669824 3.2179697 1.7907469
8.090682 2.1309168 -1.8356707
12.660328 3.235378 2.099195
1.6772207 0.95571846 -1.2474897
9.2134972 2.3126516 -1.8292713
1.7887613 0.97557724 -1.2597067
11.289523 2.6910765 -1.915108
1.9119395 0.99751073 -1.2731588
11.30791 2.7110827 -1.6481352
2.0259836 1.0184222 -1.2758961
12.59392 2.9576323 -1.5062959
2.112705 1.0354669 -1.2595999
14.215644 3.2682464 -1.3322051
2.2715843 1.0640054 -1.2729602
14.211211 3.2882886 -0.99685597
