# .PCD v0.7 - Point Cloud Data file format
VERSION 0.7
FIELDS x y z
SIZE 4 4 4
TYPE F F F
COUNT 1 1 1
WIDTH 1502
HEIGHT 1
VIEWPOINT 0 0 0 1 0 0 0
POINTS 1502
DATA ascii
1.1902432 0.99442202 -1.0517106
38.307213 -22.122166 0.018280663
1.4321203 0.84165156 -1.0863032
25.964699 -14.380338 0.73437929
1.6239957 0.72180432 -1.0875564
23.737864 -12.958905 1.3452685
1.9458902 0.51887029 -1.1262708
24.112486 -13.156287 2.0578015
2.1675274 0.38123217 -1.1120875
2.6657217 0.067152746 -1.17203
23.141582 -12.486557 3.3006554
3.2060816 -0.27241766 -1.2156961
25.693951 -14.023829 4.3967452
3.8943212 -0.70460707 -1.2652194
5.0583305 -1.4372908 -1.3827622
10.264697 -4.7301316 -2.2151546
0.44334337 1.4576925 -1.001987
21.774313 -12.084634 -3.7920053
0.48494634 1.4328977 -0.97584587
33.332901 -19.393566 -4.7330871
0.5381428 1.4005265 -0.95542479
34.073509 -19.81399 -3.8583484
0.60044605 1.3622962 -0.93772006
34.219173 -19.856049 -2.892343
0.83589846 1.2107787 -1.0082836
37.583065 -21.928637 -2.1014521
1.0302004 1.0868764 -1.0443661
38.055424 -22.171761 -1.0543332
1.1880127 0.98734713 -1.0521233
1.3285811 0.8995105 -1.0430834
25.541561 -14.219713 0.7272566
1.6226259 0.71247566 -1.0884573
23.792982 -13.089194 1.3543487
1.9263458 0.52004802 -1.1205192
23.219032 -12.69612 1.9898968
2.2137415 0.33907017 -1.1291697
23.517351 -12.847795 2.6875558
2.6935291 0.034974556 -1.1820745
23.185558 -12.607184 3.3160706
3.1807537 -0.27251709 -1.2100589
24.884905 -13.625668 4.2732205
3.8709767 -0.7086935 -1.2608113
10.28334 -4.7858982 -2.2209394
0.40292004 1.4786468 -0.97639048
21.696819 -12.129576 -3.7827823
0.51312369 1.4079971 -0.99526137
33.022778 -19.337862 -4.6942492
0.58003771 1.3663639 -0.98201227
0.61409289 1.3466311 -0.94685465
0.80807823 1.2215015 -0.99505305
36.252869 -21.243792 -2.0286109
0.9539181 1.1286218 -1.0080068
37.955563 -22.27021 -1.0477202
1.1808451 0.98296458 -1.0503471
1.40767 0.83808154 -1.0787895
1.5225066 0.76694918 -1.049871
1.9641342 0.48328665 -1.1360736
23.20262 -12.785787 1.9959905
2.223907 0.3191247 -1.1341608
23.473343 -12.921355 2.6914556
2.6834197 0.026195612 -1.1805115
23.283625 -12.768209 3.339704
3.0945103 -0.2341004 -1.1874509
24.823215 -13.693844 4.2748904
3.9309912 -0.7676276 -1.2773893
5.1654806 -1.5549875 -1.4095907
10.244039 -4.8075285 -2.2156992
0.39741811 1.4764887 -0.97422868
21.640884 -12.188148 -3.7771471
0.49855804 1.4114324 -0.98755562
32.733341 -19.293402 -4.658236
0.59198499 1.351806 -0.99071193
34.088165 -20.115017 -3.8635993
0.6969589 1.2847637 -0.99517548
34.200085 -20.136425 -2.8907804
0.84128463 1.1919279 -1.0142093
36.095367 -21.298067 -2.0183096
0.9471994 1.124927 -1.0061791
38.180851 -22.575806 -1.0494628
1.1752242 0.97758585 -1.0492959
1.4188868 0.82065737 -1.0852275
24.134277 -13.545994 0.69660908
1.6176338 0.69393665 -1.089577
23.698637 -13.234659 1.3617554
2.0528615 0.41277331 -1.1705632
23.152138 -12.854172 1.999228
2.2838931 0.26646656 -1.1561172
24.04545 -13.383546 2.7645738
2.7057183 -0.0036988361 -1.1890025
26.63192 -14.97582 3.8183455
3.1488578 -0.28653064 -1.204221
24.142576 -13.373254 4.1726418
3.9693635 -0.81308651 -1.2885923
5.3040924 -1.6704735 -1.4420085
10.378791 -4.9415064 -2.2441511
0.3732563 1.4872918 -0.95939434
21.557419 -12.223183 -3.7667825
0.50472248 1.4013796 -0.99295247
32.464848 -19.252403 -4.624877
0.58324057 1.3514049 -0.98691386
35.583298 -21.218945 -4.0282197
0.66690254 1.2982012 -0.97960395
35.673763 -21.224724 -3.009984
0.85477006 1.1756716 -1.0228498
35.926914 -21.335487 -2.0075688
0.98835135 1.0898542 -1.0281367
1.1775954 0.96744353 -1.0518818
1.4114777 0.81604081 -1.0835257
23.816633 -13.441607 0.69206953
1.6193331 0.68250549 -1.0917501
23.69516 -13.329205 1.3675938
2.0203481 0.42218971 -1.1600666
23.205143 -12.982441 2.0108302
2.302186 0.24150155 -1.1638567
23.481495 -13.123622 2.7096314
2.6894426 -0.007607922 -1.1854613
26.82107 -15.203628 3.8557255
3.3141673 -0.4111051 -1.2521119
24.109623 -13.45065 4.1782007
3.8491285 -0.75410116 -1.2598853
5.3653803 -1.735239 -1.4572256
10.446287 -5.0302215 -2.2595181
0.39538428 1.4668401 -0.97578591
21.515409 -12.284908 -3.7632909
0.51377237 1.3893033 -1.0002158
32.178555 -19.198137 -4.5890818
0.58043718 1.3470409 -0.98669004
0.6174168 1.3249398 -0.95297015
35.578014 -21.30731 -3.0023136
0.85603583 1.1674917 -1.0250154
35.738407 -21.359077 -1.9957998
1.0170519 1.0627693 -1.0439508
1.1861304 0.95313501 -1.0573611
1.4009304 0.81354207 -1.0804648
23.821033 -13.542034 0.69706982
1.6288853 0.66580456 -1.097101
23.923393 -13.572661 1.3867874
2.000644 0.42332682 -1.1543119
2.256201 0.25889134 -1.1497154
23.467932 -13.21104 2.7165341
2.7345657 -0.051974945 -1.2010057
24.086367 -13.570329 3.4818239
3.2202995 -0.36630911 -1.2272701
25.090683 -14.172739 4.3549671
4.0351124 -0.89548826 -1.3081658
5.2438555 -1.6806858 -1.4317963
10.467124 -5.0890946 -2.2658951
0.40860376 1.451924 -0.9863053
21.492214 -12.364588 -3.7631643
0.50652325 1.3878582 -0.99718601
31.897404 -19.153625 -4.5542016
0.5626424 1.3524691 -0.97752166
35.457951 -21.435463 -4.0185494
0.59188139 1.33543 -0.93995756
35.401089 -21.345793 -2.9881186
0.85100013 1.1630704 -1.0239279
35.582718 -21.412201 -1.9856985
0.99177855 1.071305 -1.0329199
1.180432 0.9477523 -1.0563083
1.4010539 0.80333871 -1.0821409
1.475744 0.75721091 -1.0369589
23.855602 -13.633392 1.3894017
1.8932397 0.48238569 -1.1160066
23.318581 -13.251994 2.0353248
2.2451985 0.25249848 -1.147584
23.431183 -13.289876 2.7213821
2.7629204 -0.086557008 -1.2114835
24.018343 -13.631666 3.4827936
3.1359811 -0.32818744 -1.2051597
25.017445 -14.234977 4.354969
4.0646858 -0.93626428 -1.317275
5.0711069 -1.5929834 -1.3950078
10.413875 -5.1023746 -2.2580764
0.40592265 1.4478029 -0.98609358
21.415852 -12.409291 -3.7542801
0.48760876 1.3944483 -0.98668534
31.633322 -19.118576 -4.5216718
0.55671006 1.3499128 -0.97550231
35.419331 -21.564186 -4.0164657
0.61277121 1.3144519 -0.95333612
35.397717 -21.497353 -2.987992
0.85805404 1.1504376 -1.029309
35.4972 -21.510611 -1.9793532
1.023137 1.0416001 -1.0502379
1.1855292 0.93507427 -1.0603173
1.3793106 0.80785728 -1.0743086
23.648819 -13.638576 0.70224667
1.6235827 0.64717239 -1.0982144
1.873425 0.48345876 -1.1102493
23.308607 -13.347805 2.0421767
2.2150033 0.25900722 -1.1388979
25.201202 -14.537697 2.931742
2.7363932 -0.08473447 -1.2048955
24.083652 -13.778896 3.5026512
3.1912107 -0.38253421 -1.222343
25.421799 -14.604616 4.4360542
4.0484428 -0.94687337 -1.3148646
5.2740088 -1.7534344 -1.4419706
10.418246 -5.1535764 -2.2614629
0.36876339 1.467536 -0.96248555
21.286642 -12.418541 -3.7366652
0.48912522 1.387081 -0.98926365
31.346621 -19.066753 -4.4860325
0.55077499 1.3473833 -0.97348332
35.307259 -21.644463 -4.0064139
0.69921952 1.2482773 -1.0041454
35.307186 -21.591845 -2.9808571
0.8469367 1.1501535 -1.0249875
35.51989 -21.680227 -1.9787629
0.9261688 1.0992103 -1.0032239
1.1828642 0.9276045 -1.0607116
1.3358271 0.82729322 -1.056978
26.726301 -15.759983 0.80159515
1.6310852 0.63094234 -1.1029007
22.962267 -13.258719 1.3504198
1.9723514 0.40436432 -1.1488199
22.496414 -12.920385 1.9798408
2.2965276 0.19036123 -1.1684523
25.027004 -14.534794 2.9216278
2.7323916 -0.097909026 -1.2053337
23.150784 -13.278507 3.3808784
3.1572511 -0.37752435 -1.2144072
25.131413 -14.527648 4.399334
4.0809679 -0.99009681 -1.3247812
10.402703 -5.1917167 -2.2610106
0.37472454 1.4575472 -0.96812862
21.177324 -12.440396 -3.7223594
0.49061072 1.3796961 -0.99184126
31.088587 -19.032209 -4.4543257
0.5536688 1.3387663 -0.97681963
35.624165 -22.010525 -4.0432425
0.68104148 1.2535828 -0.99538463
35.317749 -21.753468 -2.9819322
0.82377779 1.1582253 -1.0142043
35.538502 -21.847996 -1.9779768
0.98335832 1.0517039 -1.0335538
1.1770978 0.92224532 -1.0596597
1.3266432 0.82361233 -1.054589
24.492666 -14.404115 0.73865855
1.5727117 0.65953648 -1.0809181
23.049013 -13.417477 1.3618748
2.0029161 0.37088868 -1.1619582
22.407246 -12.96141 1.9796479
2.2901251 0.18064961 -1.1679544
23.87727 -13.891485 2.7997613
2.7171266 -0.10348242 -1.2022636
23.073792 -13.330368 3.3802774
3.1443305 -0.38651383 -1.2124104
24.581388 -14.279258 4.3180866
3.986686 -0.94818914 -1.302665
25.386127 -14.766244 5.1997132
10.411627 -5.2463431 -2.265352
0.36807975 1.4570042 -0.96502382
21.071527 -12.452911 -3.7082033
0.49385867 1.3717966 -0.99537742
30.838406 -18.985209 -4.4232583
0.56422633 1.3255475 -0.98464364
35.190182 -21.857666 -3.9978595
0.64544779 1.2719493 -0.97645217
35.324524 -21.894922 -2.9827015
0.81914419 1.1545477 -1.0131533
35.478569 -21.945633 -1.9732597
0.92218107 1.0864786 -1.004209
1.1441785 0.93671077 -1.0456479
1.3117895 0.82503951 -1.049531
24.406895 -14.443024 0.74077916
1.5635904 0.65607798 -1.0786717
22.809179 -13.349009 1.3534324
2.0024738 0.35985017 -1.1633301
22.49157 -13.104956 1.9936297
2.2494941 0.19596434 -1.1555102
23.784348 -13.923532 2.7973664
2.6787078 -0.091349907 -1.1917489
23.002266 -13.373555 3.3792329
3.1017442 -0.37321705 -1.201828
24.055437 -14.029903 4.2390728
4.0056152 -0.97984838 -1.308975
24.92128 -14.560591 5.1196418
4.8854551 -1.5676212 -1.3600764
10.458977 -5.3214145 -2.2769063
0.36382574 1.4537758 -0.96383154
21.020472 -12.518725 -3.70384
0.49511141 1.3641156 -0.99793953
30.566116 -18.945772 -4.3898196
0.55512697 1.3248066 -0.98082715
35.254871 -22.065802 -4.0073857
0.7028743 1.2243217 -1.0110481
0.80636925 1.1551765 -1.0080178
30.197329 -18.560472 -1.6925354
0.95460546 1.0551848 -1.022264
1.1473916 0.92472619 -1.0489159
1.324006 0.806068 -1.0566225
24.925701 -14.904626 0.76271451
1.4115481 0.74939716 -1.0186262
22.772715 -13.432436 1.358042
1.9820658 0.36024764 -1.157537
22.351147 -13.117753 1.9894311
2.2554169 0.17711253 -1.1593542
24.736109 -14.667192 2.9169703
2.5768268 -0.038222276 -1.1616194
23.015028 -13.490367 3.3921013
3.1398129 -0.41790974 -1.2143843
25.189054 -14.892035 4.4466934
4.0727882 -1.0484602 -1.3278546
24.616804 -14.476684 5.0737343
4.8276701 -1.5550226 -1.3489261
10.4628 -5.3761525 -2.2804875
0.37413129 1.4409318 -0.97240537
20.974382 -12.576707 -3.6998758
0.49667817 1.3569332 -1.0005274
29.856554 -18.590891 -4.2956638
0.55956346 1.3153629 -0.985066
29.914423 -18.585243 -3.4254806
0.70564222 1.2154584 -1.0142064
30.00058 -18.598509 -2.5525959
0.83298057 1.1291775 -1.0239115
29.978409 -18.538794 -1.6796072
0.91312271 1.0762677 -1.0028665
32.523167 -20.211805 -0.87424153
1.1617578 0.90597981 -1.0572731
1.3536596 0.77598673 -1.0712087
26.106827 -15.803188 0.80505157
1.4413393 0.71891874 -1.0322366
23.882971 -14.272995 1.4299848
1.9529518 0.36830965 -1.1482632
22.267685 -13.15613 1.9892838
2.2113695 0.19434875 -1.1458058
23.206182 -13.749386 2.7493842
2.4633679 0.025520477 -1.1275792
24.045996 -14.274054 3.5501208
3.2123051 -0.48460481 -1.236567
24.032192 -14.22836 4.2597213
3.961657 -0.9927395 -1.3013139
24.605062 -14.571981 5.0846443
4.8751936 -1.6112336 -1.3612101
10.447885 -5.4125133 -2.2801251
0.36730844 1.4401917 -0.96929026
20.895466 -12.612114 -3.6904771
0.47658923 1.3651109 -0.98912221
29.611572 -18.548832 -4.2654734
0.57856548 1.2955309 -0.99821848
29.673723 -18.546606 -3.4010856
0.71724421 1.2002988 -1.0224631
29.749352 -18.553308 -2.5325572
0.76526558 1.1694732 -0.98894095
29.725187 -18.492413 -1.6649048
0.92164356 1.0624759 -1.0087113
32.602341 -20.40177 -0.87295538
1.1622994 0.89678717 -1.0591307
1.3415544 0.77487159 -1.0674851
25.96805 -15.819303 0.80614734
1.5191882 0.65458488 -1.0654905
1.9740769 0.34155008 -1.1578701
2.2179916 0.17665739 -1.1497097
2.5714273 -0.063564621 -1.1631033
3.1083312 -0.42978209 -1.2086554
23.89296 -14.236396 4.2473884
3.8975806 -0.9686901 -1.2866812
24.688181 -14.730846 5.1146879
4.7767258 -1.5672898 -1.3407128
10.458899 -5.4667525 -2.2848585
0.38430265 1.421701 -0.98270386
20.822733 -12.662681 -3.6826072
0.47923347 1.3564168 -0.99261844
29.359827 -18.516159 -4.2348056
0.57523656 1.2906362 -0.99796742
29.4098 -18.506102 -3.3744092
0.71509522 1.1939193 -1.0230393
29.501232 -18.524286 -2.5128355
0.84211022 1.1067803 -1.0322378
29.473463 -18.461056 -1.6501548
0.97036904 1.0191157 -1.0351586
32.801476 -20.692083 -0.87419087
1.0739387 0.94927043 -1.019114
32.778229 -20.627161 0.081938572
1.3196805 0.77951133 -1.0596585
25.803194 -15.830631 0.80705917
1.3711035 0.74713683 -1.0067859
23.419743 -14.173101 1.4157512
1.9662062 0.3333784 -1.1568053
22.541035 -13.542069 2.0286665
2.2237809 0.15779495 -1.1535521
22.141243 -13.237701 2.6441045
2.574964 -0.082468674 -1.1660318
22.113672 -13.185602 3.2928565
3.0708506 -0.42256302 -1.1998091
23.907301 -14.35967 4.2630429
3.866287 -0.96945953 -1.280575
24.654776 -14.825579 5.1231089
4.7806072 -1.5965563 -1.3434246
10.484835 -5.5374632 -2.2928808
0.37602767 1.42198 -0.97861439
20.753481 -12.70424 -3.6748693
0.46495599 1.3606113 -0.98494995
29.128853 -18.480688 -4.2065487
0.57081008 1.2873372 -0.99685293
29.189653 -18.478579 -3.3522925
0.71038407 1.1902406 -1.0219469
29.280521 -18.496975 -2.4953179
0.82522589 1.1112664 -1.0247161
29.321609 -18.48131 -1.6408648
0.96363246 1.0158163 -1.0333512
32.292175 -20.48032 -0.85849714
1.0943441 0.92624611 -1.0303566
32.46648 -20.551491 0.08579129
1.2922614 0.7894215 -1.0491691
26.016041 -16.086004 0.81935018
1.5462593 0.61348897 -1.0799356
1.9699531 0.31854573 -1.1599188
2.2223835 0.14553294 -1.1547272
21.218273 -12.704085 2.5448349
2.4746883 -0.026699295 -1.1360381
21.921787 -13.149547 3.27472
3.0997975 -0.4595764 -1.209687
3.9869785 -1.0738697 -1.3130188
24.594473 -14.889239 5.1244588
4.8131552 -1.6430122 -1.3524177
10.469434 -5.5739436 -2.292511
0.3679266 1.422534 -0.97453946
20.66889 -12.729258 -3.6643565
0.46091887 1.3578655 -0.9838233
29.069803 -18.555954 -4.2018332
0.56656426 1.2843264 -0.99575365
29.153379 -18.569935 -3.3502192
0.68529582 1.2016867 -1.0089831
29.250669 -18.593109 -2.4932511
0.7654869 1.1471097 -0.99382347
29.308165 -18.588943 -1.6389611
0.95862836 1.0118074 -1.0323265
24.617687 -15.301323 -0.6687969
1.1573898 0.87309045 -1.0617976
32.259861 -20.537766 0.089677654
1.2897017 0.78238434 -1.0495422
25.661228 -15.945607 0.81309253
1.3469298 0.7454347 -0.99980181
22.244532 -13.55916 1.3569672
1.8851522 0.3672449 -1.1294777
21.738382 -13.17822 1.971628
2.2370377 0.12270053 -1.1613734
21.166855 -12.754189 2.5464647
2.5001032 -0.058082297 -1.145565
21.431276 -12.902539 3.2124605
3.1418018 -0.50503057 -1.2232285
23.810284 -14.490515 4.2690754
3.9267919 -1.0508121 -1.2992678
24.595795 -14.988186 5.1374731
4.7528276 -1.6231298 -1.3403749
10.482807 -5.6276522 -2.2976458
0.36233422 1.4205956 -0.97238755
20.605055 -12.779703 -3.657809
0.46368003 1.3494238 -0.9873324
29.032574 -18.662079 -4.200644
0.56773323 1.2765809 -0.99819022
29.047523 -18.628325 -3.3408022
0.64227867 1.225431 -0.9858098
29.231228 -18.712358 -2.492099
0.72184724 1.1708752 -0.97178549
29.293579 -18.711767 -1.6368532
0.84818512 1.0828001 -0.9778077
7.5402966 -3.5289116 -0.25249195
1.1060469 0.90051919 -1.0391316
32.127632 -20.591684 0.094457574
1.2865707 0.77455813 -1.0498731
25.874449 -16.210102 0.82583773
1.655321 0.51438093 -1.1279578
21.283461 -12.996192 1.3050647
1.9710404 0.29321632 -1.1637866
2.178709 0.15002021 -1.1429298
20.734529 -12.553278 2.5043857
2.6318657 -0.16714585 -1.1889734
21.733927 -13.208407 3.2667036
3.0300851 -0.44399491 -1.1930754
24.002741 -14.730697 4.3153071
3.9039433 -1.0563018 -1.2952518
24.149454 -14.794328 5.061296
4.7780142 -1.6662102 -1.3478558
53.394718 -34.725033 12.5736
10.554511 -5.7287259 -2.3146303
53.555531 -34.752815 14.208105
0.3836672 1.399263 -0.98873317
20.550188 -12.830714 -3.6525526
0.49228242 1.3223884 -1.0076227
28.800583 -18.623089 -4.1722808
0.55893844 1.2764848 -0.99440688
28.904537 -18.652355 -3.3272107
0.65961421 1.205972 -0.9974587
29.219906 -18.82983 -2.4916093
0.72297931 1.1628963 -0.97396016
29.269144 -18.820234 -1.6343257
0.8491199 1.0744426 -0.97983605
0.97349274 0.98764133 -0.97759587
22.413141 -13.942147 0.056772549
1.2943749 0.75942314 -1.0549605
25.697687 -16.198025 0.82560623
1.6024693 0.54139286 -1.1079621
21.181225 -13.017154 1.3046513
1.8876842 0.34074026 -1.1339304
22.244219 -13.72268 2.0316756
2.2633035 0.076181807 -1.174021
2.6122448 -0.16820706 -1.1844645
21.621237 -13.224262 3.2599185
3.1031556 -0.51287645 -1.2156575
23.763603 -14.668767 4.2855082
3.9104052 -1.0812755 -1.2986376
24.19492 -14.929176 5.0840931
5.3215857 -2.0763998 -1.4725914
53.205025 -34.818596 12.561787
10.591712 -5.8031344 -2.3247154
53.362667 -34.84502 14.193089
0.37785274 1.3970571 -0.98656815
20.485096 -12.885565 -3.6461086
0.50471026 1.3062134 -1.0176322
28.55855 -18.590975 -4.1429982
0.55699247 1.2705913 -0.9950484
28.837223 -18.744875 -3.322221
0.67499077 1.1868995 -1.0082235
29.164917 -18.932562 -2.4876719
0.79309678 1.1035128 -1.0139806
29.243475 -18.943863 -1.6315975
0.88093126 1.0425463 -0.9978596
1.1215426 0.87059134 -1.0500205
22.268496 -13.949889 0.060111709
1.31678 0.73237485 -1.0667706
22.153393 -13.835276 0.71520096
1.3755542 0.69361013 -1.0164533
22.317059 -13.91624 1.3807611
1.9185508 0.30486161 -1.1475897
21.441145 -13.269841 1.9678664
2.2670951 0.058123346 -1.1773028
20.979486 -12.915132 2.5505562
2.5351777 -0.12968981 -1.1619375
21.649813 -13.349523 3.2750347
3.0894265 -0.52227658 -1.2136374
23.302774 -14.464 4.2181149
3.9044204 -1.100036 -1.2990735
23.593309 -14.629438 4.9764848
5.0869484 -1.9382703 -1.4215333
53.000401 -34.929127 12.550522
10.583955 -5.8520408 -2.3263385
53.138721 -34.943069 14.174352
0.37360698 1.3940713 -0.98538977
20.390301 -12.913348 -3.63446
0.50018042 1.302863 -1.0164747
28.317375 -18.550129 -4.1135945
0.56241465 1.2596407 -1.0001538
28.517101 -18.649179 -3.2893391
0.65549493 1.1938207 -0.99864167
29.152327 -19.057709 -2.4871697
0.79970574 1.0906588 -1.0193508
29.250357 -19.083124 -1.6306739
0.84574401 1.0600066 -0.98155206
7.4318781 -3.5651021 -0.24728738
0.94705194 0.98896176 -0.96834421
31.998598 -20.939402 0.10988754
1.2162375 0.79553479 -1.0238206
22.010363 -13.836858 0.71558028
1.5653325 0.54465503 -1.0964043
21.861858 -13.698663 1.3592916
1.8707513 0.32663521 -1.1312675
21.797272 -13.619624 2.0076063
2.1870954 0.10164362 -1.1512706
20.972713 -13.007566 2.5585332
2.5607679 -0.16396531 -1.1718731
21.239885 -13.162461 3.2250845
3.0809183 -0.53433281 -1.2130189
23.328316 -14.589149 4.2352319
3.9926722 -1.1855119 -1.3236201
23.593748 -14.738256 4.9908319
5.0694838 -1.9527943 -1.419523
52.792545 -35.022671 12.536469
10.64159 -5.9450321 -2.3407304
52.940605 -35.044086 14.160156
0.36689031 1.3936663 -0.98229045
20.336193 -12.958776 -3.6291587
0.49317223 1.3021619 -1.0134823
28.079069 -18.494431 -4.0841017
0.53942603 1.270568 -0.9874897
28.240629 -18.56716 -3.2609847
0.64954591 1.1916977 -0.99672532
29.124014 -19.156202 -2.4853601
0.72135174 1.1415378 -0.97803158
25.266478 -16.355267 -1.4208813
0.90779704 1.0069121 -1.0148714
7.4325542 -3.5986924 -0.24654607
1.110245 0.86108589 -1.0479794
31.937426 -21.025568 0.11431414
1.2561464 0.75746572 -1.0431302
21.35973 -13.465123 0.69840568
1.4993943 0.58287263 -1.0707762
21.8032 -13.746783 1.3613498
1.8268859 0.34739313 -1.1161852
21.714312 -13.650335 2.0069807
2.2200847 0.064991176 -1.1644237
2.3866613 -0.051217292 -1.1180706
21.339893 -13.319971 3.2489145
2.9930122 -0.48654976 -1.1893532
22.954493 -14.421574 4.1804461
3.9343019 -1.162881 -1.3103139
24.056829 -15.159172 5.09864
52.597931 -35.096645 12.521418
10.706481 -6.0378423 -2.3562584
52.747707 -35.119984 14.142839
0.35688451 1.3946893 -0.97721314
20.269188 -13.011658 -3.622484
0.49269807 1.295409 -1.0151057
27.846542 -18.46434 -4.0561299
0.54318756 1.260428 -0.99169278
0.64879328 1.1844127 -0.9981584
25.167891 -16.447496 -2.1653471
0.68963987 1.1569731 -0.96245664
24.966024 -16.263702 -1.4040051
0.8961432 1.0064989 -1.0107529
7.4380789 -3.6425595 -0.24576901
1.0620825 0.88675249 -1.0267751
22.126656 -14.153079 0.070498183
1.2481046 0.75268507 -1.0414174
21.948864 -13.992102 0.7234534
1.5075769 0.56494999 -1.0760632
21.682261 -13.768309 1.3606801
1.8067398 0.34878558 -1.1104426
21.814629 -13.829046 2.024358
2.2423849 0.033296231 -1.1742232
21.103651 -13.29038 2.5913622
2.5368998 -0.17744324 -1.1678381
2.9856825 -0.50016475 -1.1891661
22.968801 -14.54459 4.1963205
3.9391048 -1.1898407 -1.313597
24.068464 -15.285393 5.1166177
4.7998705 -1.8092108 -1.3620024
52.39452 -35.205654 12.510398
10.739408 -6.1174469 -2.3660748
52.54916 -35.233204 14.130736
0.33329245 1.4067782 -0.96244377
20.192997 -13.046343 -3.6137762
0.48832983 1.2923638 -1.0139649
27.631344 -18.430025 -4.0300775
0.53583765 1.2594082 -0.98880589
25.109507 -16.555016 -2.9207549
0.6237976 1.196183 -0.9852109
25.036366 -16.462946 -2.155185
0.75808889 1.0985277 -1.0016642
24.883305 -16.313728 -1.3986814
0.8790502 1.0112255 -1.003623
7.4374332 -3.6777205 -0.24494663
1.1058618 0.84535903 -1.0495005
22.109608 -14.238498 0.073957868
1.2511896 0.74085164 -1.0444751
21.883492 -14.041968 0.7260775
1.5787796 0.50146317 -1.1072907
21.539536 -13.761546 1.3578537
1.8579985 0.29891676 -1.1317811
20.76688 -13.174813 1.9362791
2.1987703 0.051765643 -1.1607373
21.009226 -13.316006 2.5885086
2.5158195 -0.17690395 -1.1628532
22.601589 -14.419283 3.4571617
3.0640364 -0.57471687 -1.2135043
22.893442 -14.591776 4.1948776
3.9008353 -1.1826956 -1.3055623
24.206434 -15.488764 5.1590805
52.194778 -35.288414 12.496113
10.789272 -6.2037306 -2.3789322
52.333504 -35.305519 14.109585
0.34315991 1.3935821 -0.97100002
20.108782 -13.074892 -3.6037352
0.48959628 1.2850522 -1.0165443
27.406927 -18.387651 -4.002738
0.54134697 1.2486876 -0.99392289
25.026371 -16.605394 -2.9136453
0.63357067 1.1818788 -0.99260688
24.954927 -16.514297 -2.1491055
0.77505291 1.0782508 -1.0126822
24.839262 -16.391672 -1.3953989
0.91520756 0.97603899 -1.0239351
1.0941881 0.84513575 -1.0456059
50.761925 -35.106014 0.23085989
1.2919093 0.70079184 -1.0644147
50.934498 -35.154686 1.7181263
1.5781789 0.49091783 -1.1088181
23.604387 -15.347726 1.4931946
1.7326782 0.38007778 -1.0855663
2.166091 0.062418289 -1.1510599
20.643322 -13.146031 2.5530012
2.5741193 -0.23511717 -1.1832538
20.168131 -12.773074 3.1050472
3.0621462 -0.5906316 -1.2147341
22.927435 -14.71704 4.2129192
3.9492815 -1.2393458 -1.3199213
24.099564 -15.51879 5.1510468
5.3625832 -2.2731609 -1.4940886
52.010933 -35.381802 12.485572
10.83873 -6.2903624 -2.3917704
52.152863 -35.401852 14.097716
0.36945498 1.367336 -0.99119705
20.072924 -13.144394 -3.6021383
0.48079616 1.284991 -1.0125992
25.022535 -16.759787 -3.6742623
0.52666283 1.2528602 -0.98657984
24.922203 -16.647013 -2.9043765
0.64451504 1.1661315 -1.0008323
24.93446 -16.617056 -2.1480296
0.79169476 1.0575612 -1.0236795
24.899736 -16.553129 -1.3975303
0.97601479 0.92134213 -1.0571721
7.4007654 -3.7248688 -0.24242449
1.1001444 0.83111769 -1.0503218
25.049574 -16.585608 0.097518899
1.2764803 0.70198309 -1.0593426
25.040384 -16.540504 0.84407109
1.5332097 0.51296836 -1.0920162
24.905666 -16.404249 1.5821102
1.7742597 0.33649436 -1.1033511
22.538206 -14.649426 2.1136644
2.0837657 0.10958609 -1.124011
20.414526 -13.078177 2.5343137
2.5804317 -0.25607473 -1.1871901
20.328655 -12.984425 3.1390615
3.0456216 -0.5967899 -1.2118573
22.922556 -14.821338 4.2248764
3.7626095 -1.1231465 -1.2736144
23.963911 -15.534283 5.1378927
5.1513977 -2.1454983 -1.4479702
51.810726 -35.476749 12.473209
10.868835 -6.3664746 -2.4010119
51.960655 -35.503292 14.085012
0.36513898 1.3643994 -0.99001998
19.973188 -13.166556 -3.5897856
0.47060373 1.2860506 -1.007726
24.857609 -16.756315 -3.6551383
0.47930667 1.282176 -0.95879906
24.862862 -16.721333 -2.9000781
0.60788119 1.1866229 -0.98110521
31.696743 -21.728727 -2.6972775
0.81114423 1.0345393 -1.0362799
8.3263092 -4.4575467 -0.53172523
0.96882582 0.91778147 -1.0553505
7.3842154 -3.7508688 -0.24118614
1.0941429 0.82607877 -1.0492859
21.581512 -14.158656 0.08210139
1.2730833 0.69415623 -1.0596743
24.969477 -16.606903 0.84753203
1.5913513 0.45746142 -1.1181352
21.039217 -13.695518 1.3452933
1.8247695 0.28573942 -1.1246438
20.837292 -13.515367 1.965152
2.1017332 0.081986301 -1.1322167
20.397141 -13.162591 2.5410733
2.5587652 -0.25615808 -1.182173
20.375647 -13.115174 3.1562724
3.0867851 -0.64609748 -1.2257123
23.066269 -15.033814 4.2635484
3.7742844 -1.1536127 -1.278583
23.082262 -15.00928 4.9691954
5.1365271 -2.1624851 -1.4466758
51.61359 -35.573177 12.461551
10.889092 -6.4357777 -2.4083507
51.749298 -35.590233 14.06718
0.37084037 1.3544542 -0.99566442
19.947168 -13.23199 -3.58939
0.44818845 1.2974068 -0.99451339
24.780821 -16.803616 -3.6478801
0.52759075 1.2389877 -0.9905901
24.846706 -16.813824 -2.9003146
0.61344087 1.1758422 -0.98597187
31.681969 -21.849798 -2.6967885
0.79316235 1.0409952 -1.0279973
0.94744438 0.9261657 -1.0459495
7.3198862 -3.7370529 -0.23894152
1.0916293 0.81951952 -1.0497253
21.509153 -14.196214 0.084963188
1.2402842 0.70993441 -1.0465527
25.03871 -16.762419 0.85514331
1.4126079 0.582775 -1.0452478
20.990446 -13.7483 1.347842
1.8528893 0.25299194 -1.1371722
20.819441 -13.590045 1.9703128
2.1326504 0.04605354 -1.1448045
20.399401 -13.250157 2.5492079
2.5241199 -0.24440274 -1.1727512
20.953434 -13.623027 3.2521939
3.0602818 -0.64266294 -1.219743
20.478678 -13.243846 3.8101158
3.7416515 -1.1483928 -1.2718492
23.051954 -15.083709 4.9757571
5.0869856 -2.1501436 -1.4371943
51.418751 -35.642437 12.446256
10.891548 -6.4857302 -2.4117966
51.562454 -35.665993 14.051323
0.37183487 1.3469862 -0.99835825
19.82728 -13.244002 -3.5739291
0.42389506 1.3092238 -0.98033947
24.730547 -16.891533 -3.6450601
0.5240832 1.2342523 -0.99034679
26.548832 -18.214315 -3.0910485
0.62980098 1.1553169 -0.99756604
31.751606 -22.060881 -2.7033334
0.79773718 1.028715 -1.0325346
0.95908338 0.90770477 -1.0540125
7.2990208 -3.7618728 -0.23756634
1.0823746 0.81642854 -1.0472364
6.7957497 -3.3756137 0.0006042546
1.2724843 0.6743325 -1.0630536
20.470247 -13.501859 0.70210701
1.4748936 0.52338594 -1.0732362
50.340862 -35.570656 3.2257392
1.8189417 0.26498088 -1.1261613
2.1575849 0.01179564 -1.1556745
20.95549 -13.763492 2.6264455
2.5190654 -0.25773907 -1.1731789
23.325687 -15.473735 3.6213319
2.9934483 -0.61178595 -1.202379
20.476753 -13.346202 3.8222029
3.735368 -1.166746 -1.2723064
24.95785 -16.595646 5.3907995
5.0462027 -2.1490183 -1.4300869
51.208385 -35.741676 12.433466
10.958624 -6.5942612 -2.4287708
51.369518 -35.778732 14.040672
0.37177435 1.3410535 -1.0001055
19.812502 -13.323511 -3.5757771
0.44329619 1.2878518 -0.99500716
24.691406 -16.973986 -3.6433744
0.52377993 1.2278495 -0.9919067
0.59784561 1.1730764 -0.98040891
49.443134 -35.501568 -4.1408114
0.74918771 1.0585608 -1.0073626
8.0469999 -4.3713212 -0.51616246
0.938963 0.91474837 -1.0453625
7.201786 -3.7250195 -0.23453604
1.0470618 0.83463788 -1.0318623
1.1604214 0.7508111 -1.014189
20.590792 -13.684712 0.71097487
1.4773122 0.51075143 -1.0760355
25.27632 -17.139603 1.6351142
1.7190686 0.32934833 -1.089417
21.644348 -14.402715 2.0627525
2.1480062 0.0053854845 -1.1541414
20.054457 -13.190473 2.5250261
2.4071076 -0.18751036 -1.1389134
23.699799 -15.855497 3.6890676
3.0533624 -0.67484635 -1.2216725
22.527716 -14.95285 4.2041221
3.8128462 -1.2463037 -1.2943556
24.072071 -16.055017 5.2196579
4.9490747 -2.1015754 -1.4097672
51.027271 -35.833477 12.423495
6.4080505 -3.1979709 -1.5226669
51.172634 -35.859756 14.024366
0.37288618 1.3337938 -1.0028093
19.730066 -13.357494 -3.5664413
0.44708988 1.278155 -0.9994365
24.705639 -17.10408 -3.6494548
0.51056528 1.231132 -0.9854629
0.62145168 1.1471747 -0.99624348
0.70780963 1.0827385 -0.9862079
8.1449785 -4.4871354 -0.52092868
0.93907368 0.90564799 -1.0473526
7.1564674 -3.7287908 -0.23266689
1.026342 0.84122914 -1.0236576
1.1035821 0.78485215 -0.99027526
49.766727 -35.675884 1.7465763
1.5123852 0.47210497 -1.0926738
25.347536 -17.314308 1.6474428
1.803889 0.25123203 -1.1241608
2.1166489 0.014916765 -1.1450076
2.5024962 -0.27666399 -1.1716483
20.561779 -13.633589 3.2247105
3.0042081 -0.65596139 -1.2093263
22.35004 -14.929178 4.1849375
3.7804303 -1.243836 -1.2879457
24.08461 -16.17964 5.2378325
4.9734221 -2.1478028 -1.4175048
50.834522 -35.930122 12.412812
6.565979 -3.3527803 -1.5564308
50.970448 -35.950233 14.008908
0.37533867 1.3254328 -1.0064836
19.623995 -13.373037 -3.5531073
0.43695107 1.2794166 -0.99457371
25.05575 -17.491486 -3.7027712
0.47487348 1.2522489 -0.96481818
0.6321072 1.1312137 -1.004457
49.040905 -35.664444 -4.1110067
0.78613359 1.0132427 -1.0317383
8.2168999 -4.58425 -0.52433687
0.95370793 0.88512546 -1.0569477
6.8721638 -3.5511594 -0.22535166
1.0777392 0.7915839 -1.0506184
6.7753868 -3.4660997 0.0042773369
1.1004053 0.77751738 -0.99063069
20.364016 -13.71349 0.71288657
1.4094479 0.54050857 -1.0513513
1.6572092 0.35207927 -1.069267
21.237692 -14.306342 2.040889
2.0518951 0.050564554 -1.1239829
19.830383 -13.216875 2.5153604
2.4916446 -0.28461146 -1.170125
20.755213 -13.878224 3.2647805
2.9613664 -0.64157337 -1.1987963
22.355021 -15.040874 4.1988726
3.7604804 -1.2507666 -1.2847884
23.864271 -16.131193 5.2068944
4.9803953 -2.1810241 -1.4212739
50.625946 -36.014236 12.398294
50.783878 -36.051464 13.997669
0.36818418 1.3246832 -1.0033665
19.54155 -13.406232 -3.5438104
0.42267311 1.2840374 -0.98692775
25.659084 -18.077358 -3.7918653
0.48142192 1.2401313 -0.97080767
0.63131863 1.1241814 -1.0059028
0.72323483 1.0545676 -0.99854201
7.9977541 -4.4598145 -0.51262265
0.77213448 1.0191162 -0.96388227
6.8115816 -3.5416665 -0.22317913
1.0540322 0.80048782 -1.0409791
6.7675056 -3.4963322 0.0055228551
1.1060942 0.76321 -0.9950276
20.339911 -13.794823 0.71699399
1.4518952 0.49597123 -1.0711358
20.606039 -13.964614 1.355303
1.6859343 0.31717822 -1.0823302
21.450184 -14.570668 2.0690188
2.0374825 0.047499694 -1.1208179
19.678772 -13.199311 2.5055826
2.5174775 -0.32107767 -1.1805036
20.914082 -14.099075 3.2998312
3.0340707 -0.71659338 -1.2220857
23.216797 -15.79749 4.3692408
3.8070986 -1.3092012 -1.2990544
23.387377 -15.888675 5.1213875
4.9701042 -2.201087 -1.4210854
50.436153 -36.111637 12.38829
5.9958553 -2.9834867 -1.446481
50.584667 -36.142624 13.982978
0.36412463 1.3222483 -1.0022149
19.481813 -13.445298 -3.5378418
0.4171032 1.2825791 -0.98488104
25.458099 -18.032703 -3.7674737
0.52052617 1.20276 -0.9972294
0.630934 1.1177062 -1.007376
8.0050316 -4.5162258 -0.77683491
0.75281966 1.0239034 -1.0167797
8.1525679 -4.6159739 -0.52038479
0.91215616 0.90077215 -1.0389066
6.8134937 -3.5754075 -0.22252637
1.0851144 0.76737154 -1.0579157
6.7854023 -3.5420947 0.0067918664
1.243855 0.6457606 -1.0593836
6.6878786 -3.4559336 0.22998317
1.4500208 0.48726138 -1.0720675
1.6941456 0.2995728 -1.0872386
2.0314572 0.039609253 -1.1204112
20.022804 -13.54572 2.556082
2.4967592 -0.31947562 -1.1755717
23.183754 -15.909129 3.6573002
2.9415803 -0.6611346 -1.1967649
23.732073 -16.286787 4.4756012
3.6167743 -1.1808742 -1.2510386
23.272705 -15.902388 5.1106091
4.9908476 -2.242003 -1.4278312
50.264656 -36.193886 12.378471
50.408482 -36.222069 13.969889
0.34472665 1.3314435 -0.99037588
19.404007 -13.481523 -3.5293779
0.41254103 1.2795449 -0.98373938
25.178303 -17.940159 -3.7324853
0.51850593 1.1971861 -0.9978869
25.665894 -18.278477 -3.0083089
0.61594772 1.1219947 -1.0003688
7.9514742 -4.5171628 -0.77276915
0.73456353 1.0302019 -1.0084877
0.86879438 0.92630297 -1.0180988
7.2438354 -3.9441595 -0.23143645
1.0658025 0.77287388 -1.0504317
6.8517323 -3.6297483 0.0085612973
1.1443892 0.71411043 -1.0159671
6.6989832 -3.5005584 0.23218547
1.4310952 0.49066836 -1.0660329
1.7300712 0.25844064 -1.1032107
1.952032 0.087927721 -1.0940228
20.005116 -13.630832 2.5630171
2.449259 -0.29861835 -1.1621623
20.834978 -14.231736 3.3082886
3.0016191 -0.72691834 -1.2164311
22.908934 -15.776335 4.3385954
3.8005455 -1.3467407 -1.3013241
23.764074 -16.389114 5.2308378
4.9230251 -2.2172565 -1.4143503
23.571831 -16.205309 5.9241095
5.8633413 -2.9421067 -1.4237957
50.207531 -36.31044 13.954699
0.34594393 1.3244369 -0.99309355
19.35232 -13.53222 -3.5251179
0.4109135 1.2745421 -0.98446691
25.012383 -17.927336 -3.7132666
0.5069055 1.1997604 -0.99235064
0.56027716 1.1596173 -0.96887225
7.7826653 -4.425528 -0.75931364
0.72372723 1.0311549 -1.0042284
0.91965473 0.87716216 -1.0467048
6.9307003 -3.7378306 -0.22362605
1.0395226 0.78466409 -1.0393867
6.9218435 -3.7189236 0.010305491
1.1324511 0.714059 -1.0122976
22.580717 -15.810168 0.81281
1.409566 0.49695396 -1.0587676
7.1948242 -3.9056354 0.49164665
1.7646563 0.21874736 -1.1186123
6.9042168 -3.6694484 0.70565897
2.0120962 0.027092529 -1.1173596
19.941019 -13.674729 2.5636659
2.4935277 -0.34907311 -1.1785047
20.769156 -14.278005 3.3085003
2.8844726 -0.65225679 -1.1839023
22.310637 -15.424323 4.2413526
3.6087456 -1.2169811 -1.252914
22.750288 -15.724383 5.0289707
4.9829912 -2.2908912 -1.4303722
23.425312 -16.202276 5.9047871
5.8346167 -2.9502029 -1.4199946
50.004139 -36.381981 13.936446
0.3523725 1.3127578 -0.99967372
19.286823 -13.577709 -3.5188165
0.41457561 1.2648214 -0.98889446
24.49015 -17.640471 -3.6439855
0.49791202 1.1998711 -0.98857713
24.531942 -17.634073 -2.8873487
0.52292669 1.1824423 -0.94836044
7.9023018 -4.5610542 -0.76936024
0.7254988 1.0214949 -1.0071778
8.0550661 -4.6670074 -0.51442182
7.1583843 -3.9532242 -0.2279129
1.0712335 0.74940443 -1.0569911
7.0772028 -3.8775349 0.012777739
1.1966026 0.65236223 -1.0435889
1.4129499 0.48274678 -1.062176
7.1334209 -3.8967681 0.4900786
1.7777511 0.19508286 -1.125793
6.9176073 -3.7172089 0.7098788
2.0578885 -0.023818323 -1.1357937
19.897615 -13.740308 2.5674465
2.4764345 -0.35212317 -1.1750054
20.621683 -14.267173 3.2967389
2.9411736 -0.71584326 -1.2026563
3.5889721 -1.223272 -1.249788
22.672276 -15.77659 5.0275578
4.8535538 -2.216969 -1.4025624
23.302198 -16.223099 5.8921218
5.8855858 -3.0230446 -1.4324117
49.820202 -36.481743 13.92587
0.34657794 1.3110259 -0.99753332
19.19643 -13.603237 -3.5082614
0.40585801 1.2651753 -0.98496991
24.286247 -17.601151 -3.6196012
0.50697792 1.1852767 -0.99632871
24.329062 -17.595949 -2.8674233
0.55175787 1.151637 -0.96755779
0.69880313 1.034935 -0.99408513
0.86634547 0.90205425 -1.0225849
25.491371 -18.392586 -0.63481718
1.0838932 0.72922093 -1.0652723
7.0821609 -3.9198895 0.014183063
1.1666507 0.66603398 -1.0318253
1.3615839 0.51259756 -1.0423245
6.946207 -3.7892489 0.48013571
1.753477 0.2012984 -1.1183593
6.9229259 -3.7589741 0.71335024
1.9427239 0.053989757 -1.0964854
19.883873 -13.828965 2.5749719
2.4487646 -0.34661257 -1.1680465
20.563845 -14.325005 3.2988153
2.7585723 -0.5887208 -1.1508009
23.040209 -16.210407 4.4034657
3.6105392 -1.2624631 -1.2575743
22.718925 -15.924953 5.052979
4.7861738 -2.1913447 -1.3891263
23.305099 -16.340523 5.9103079
5.7150402 -2.9204669 -1.4000926
49.625301 -36.572411 13.912259
0.34078196 1.3093183 -0.99539298
19.115326 -13.635776 -3.4993258
0.39715272 1.2655714 -0.98104805
24.084318 -17.562029 -3.5954885
0.50350749 1.1808656 -0.99610126
24.123486 -17.554367 -2.8472052
0.5313614 1.1608901 -0.95719028
0.65801853 1.0601242 -0.9729805
7.1311102 -4.0220189 -0.46600842
0.8864032 0.87668532 -1.035208
7.2194767 -4.0794706 -0.22762109
1.0110306 0.77853638 -1.0313039
7.0696659 -3.9487162 0.015461093
1.1324096 0.68343341 -1.0180533
7.9818239 -4.6545568 0.28705096
1.4460741 0.43269423 -1.0802951
6.9434519 -3.8250518 0.48239192
1.739668 0.1992138 -1.1150215
1.9299151 0.050168574 -1.0938828
20.617363 -14.502808 2.6767457
2.4724565 -0.38231179 -1.1779063
22.777384 -16.156984 3.654705
2.8500826 -0.6804179 -1.1798894
22.895338 -16.212137 4.3906012
3.4531994 -1.1583421 -1.2181137
22.749346 -16.061647 5.0750599
4.6437416 -2.105082 -1.3581572
49.297279 -36.638641 12.321527
49.441071 -36.670673 13.901606
0.32826021 1.3132288 -0.98841166
19.040413 -13.672937 -3.4914708
0.38300613 1.2705336 -0.97341853
23.893711 -17.530573 -3.5729668
0.49726084 1.178751 -0.99410278
23.93549 -17.525394 -2.8289487
0.55858123 1.1310215 -0.97553176
7.5985861 -4.4467716 -0.74559027
0.58626932 1.111165 -0.93425292
7.1402388 -4.0684457 -0.46622628
0.79336882 0.94396877 -0.98787153
0.98035926 0.7939418 -1.0181143
6.9552383 -3.8967042 0.015942615
1.1784912 0.63543534 -1.0412495
7.9858999 -4.7009406 0.28935599
1.3535842 0.49633166 -1.0428667
1.6858212 0.22980416 -1.095921
2.0053012 -0.025255341 -1.1230857
2.4523189 -0.38277563 -1.1734257
20.752089 -14.679287 3.350503
2.7850482 -0.64640218 -1.1626863
22.80205 -16.253473 4.3872728
3.5068097 -1.2231661 -1.2343845
23.588009 -16.831873 5.2722449
4.5876617 -2.087163 -1.3472755
49.109943 -36.732971 12.312017
49.241367 -36.756161 13.886633
0.33090472 1.3053154 -0.99210852
18.981779 -13.711566 -3.4858494
0.40875313 1.2431397 -0.99270523
23.742891 -17.515764 -3.5555532
0.49418181 1.1748832 -0.99390358
23.810694 -17.531836 -2.8174343
0.54839671 1.1327821 -0.97110415
7.5247002 -4.4242191 -0.73986387
0.54206586 1.1409444 -0.91080004
7.1217899 -4.0884185 -0.46505165
0.85674006 0.88395166 -1.0232916
0.91285259 0.8410635 -0.98636538
7.0294065 -3.9897809 0.017733557
1.232205 0.58193678 -1.0678298
7.5778465 -4.4142761 0.2759147
1.3384475 0.49865729 -1.038156
7.2790079 -4.1636744 0.50959253
1.6181026 0.27372333 -1.0710459
6.9071875 -3.8559923 0.72046119
1.8051739 0.12533996 -1.0526328
20.44239 -14.559981 2.6728413
2.4316535 -0.38073042 -1.1685169
19.968636 -14.152692 3.2377131
2.786279 -0.66362643 -1.1648719
22.730854 -16.298416 4.3864088
3.4716163 -1.2139062 -1.2269237
22.458658 -16.047363 5.0415149
4.6708555 -2.1785283 -1.3687062
48.931732 -36.805542 12.30043
5.6038618 -2.9240799 -1.3837368
49.055477 -36.823372 13.870729
0.33430532 1.2955666 -0.99673623
18.902428 -13.750392 -3.4775779
0.38081738 1.259277 -0.97579491
23.707085 -17.614542 -3.5552871
0.48359784 1.1760074 -0.98923743
23.785639 -17.639635 -2.8175867
0.5264554 1.1430887 -0.9598875
7.4971361 -4.4458556 -0.73798192
0.59879053 1.085741 -0.945005
7.1061172 -4.1175771 -0.46398374
0.87062681 0.86281151 -1.0328541
0.98861164 0.76836711 -1.0261185
7.0170984 -4.0211453 0.019091384
1.2092253 0.58940423 -1.0594132
7.5329762 -4.4223423 0.27641121
1.3721591 0.45874095 -1.0547285
7.2582808 -4.1895523 0.51092714
1.6839237 0.20597032 -1.0992155
6.835968 -3.8396454 0.71671748
1.8904262 0.040766075 -1.0855763
2.3616502 -0.34103185 -1.1477194
23.18173 -16.815495 3.7547817
2.7195144 -0.62852126 -1.1472123
22.403255 -16.15987 4.3399482
3.6197166 -1.3580186 -1.2685246
22.432314 -16.146482 5.0523682
4.649045 -2.1900263 -1.3660047
48.732605 -36.903435 12.290148
5.4203224 -2.8087931 -1.3486879
48.867119 -36.930477 13.86127
0.33420673 1.2898657 -0.99849325
18.857513 -13.799841 -3.4743693
0.36439759 1.2671379 -0.96634406
23.68594 -17.704168 -3.5563474
0.49149144 1.1629425 -0.99612224
23.770613 -17.734495 -2.8184061
0.53578264 1.1286553 -0.96727693
7.6652365 -4.6189861 -0.75202167
0.59546214 1.0816092 -0.94479114
23.936069 -17.791529 -1.3330359
0.85394245 0.86864728 -1.02578
7.1222992 -4.1531057 -0.22234455
1.060506 0.69983959 -1.0637581
7.0080566 -4.0483165 0.020233247
1.204613 0.58367801 -1.0591185
7.5212851 -4.4495978 0.27779505
1.3715879 0.4489508 -1.0562925
7.1973724 -4.1760216 0.50907856
1.6974638 0.18314154 -1.1064377
6.7930832 -3.8388381 0.71518147
2.0462139 -0.10048897 -1.1438751
20.596849 -14.885723 2.7115321
2.3605917 -0.3547017 -1.1492429
23.149523 -16.893459 3.7609682
2.7704124 -0.68649828 -1.1642053
22.234972 -16.125881 4.3206997
3.6024635 -1.3638235 -1.2658901
23.550449 -17.137402 5.3104167
4.6219749 -2.1922655 -1.3616724
48.560478 -36.979454 12.280019
5.3319235 -2.7642155 -1.3325579
48.691898 -37.004707 13.84828
0.29352745 1.3174863 -0.9711864
18.774969 -13.835592 -3.4655924
0.34340414 1.2778208 -0.95408034
23.511095 -17.689428 -3.5363703
0.46310589 1.1791761 -0.97995061
23.746286 -17.843637 -2.8187275
0.56379497 1.0969874 -0.98642844
7.6633749 -4.6625028 -0.75226521
0.61668307 1.0554086 -0.95895123
23.911503 -17.901197 -1.3310065
0.86627895 0.84859997 -1.0345798
6.9497395 -4.0547795 -0.21774477
1.0524544 0.69583583 -1.0619967
20.260529 -14.857585 0.13410176
1.1687151 0.60221505 -1.0446706
7.8257704 -4.7406683 0.29167396
1.3699813 0.43791974 -1.0577946
7.0042944 -4.0621691 0.49864629
1.6274623 0.2274078 -1.0809345
6.754735 -3.8481545 0.71460742
1.9866898 -0.06687285 -1.1245496
22.350016 -16.411095 2.9469488
2.3640304 -0.37508357 -1.1526494
20.329523 -14.748894 3.3280764
2.8464386 -0.76913524 -1.1891489
3.6119578 -1.3956708 -1.2707851
23.712755 -17.394247 5.3635745
4.6350641 -2.2323747 -1.3671942
48.365742 -37.079433 12.270802
5.3524914 -2.8141484 -1.3390093
48.497124 -37.105442 13.837032
0.31438854 1.2932262 -0.98840666
18.690584 -13.863783 -3.4562194
0.36986655 1.2485814 -0.97425711
23.318562 -17.651871 -3.513593
0.45005509 1.183033 -0.97353464
23.718884 -17.943455 -2.8185728
0.53241533 1.1158887 -0.96932882
7.6702585 -4.7109089 -0.75321299
0.61841452 1.0459343 -0.96190858
7.1156082 -4.242331 -0.46378747
0.86040127 0.84432006 -1.0335391
6.8795452 -4.0364428 -0.2154336
0.9604528 0.76328719 -1.0180879
6.8477535 -3.9982047 0.021696225
1.1145173 0.63710213 -1.0215321
1.4122875 0.39063913 -1.0781262
7.0949717 -4.1753459 0.50740099
1.6563472 0.19017945 -1.0945239
6.7391596 -3.8735671 0.71609402
1.9750865 -0.071956605 -1.1224823
7.5220423 -4.4967103 1.0486975
2.360415 -0.38871893 -1.1536174
20.299686 -14.829434 3.3347614
2.9135618 -0.84411097 -1.2114148
21.855474 -16.053225 4.2778664
3.5210283 -1.3428799 -1.2487581
22.18161 -16.280432 5.0439696
4.5488186 -2.188673 -1.3492076
48.173298 -37.166328 12.259957
5.4376068 -2.9160929 -1.3585737
48.307705 -37.195534 13.824868
0.32620922 1.2772826 -0.99887109
18.63168 -13.901237 -3.4506562
0.40195018 1.2150407 -0.99815536
23.144083 -17.613794 -3.4928281
0.44289714 1.1827887 -0.97068757
23.670572 -18.011782 -2.8157613
0.54710054 1.096621 -0.98008353
7.6671066 -4.7462273 -0.75330496
0.60940331 1.0465056 -0.95849121
0.77747601 0.90663522 -0.99086314
6.7314825 -3.9489331 -0.2115584
1.0389168 0.68813074 -1.059269
1.1330359 0.61214817 -1.0319803
1.3476648 0.43462572 -1.0521042
7.0637684 -4.1850495 0.50753236
1.6302119 0.20054689 -1.0860109
6.7288065 -3.8987708 0.71774626
1.9628539 -0.07472302 -1.1199327
2.3725538 -0.41365349 -1.159574
21.644148 -16.016521 3.5591202
2.893261 -0.84427571 -1.2073064
20.834499 -15.323068 4.0963588
3.4753087 -1.3244846 -1.2384989
22.217768 -16.410444 5.0659833
4.5218563 -2.1905184 -1.3448963
48.000946 -37.240307 12.249726
5.1794357 -2.7292981 -1.3076546
48.138397 -37.272625 13.813497
0.33114654 1.2667644 -1.0044854
18.56074 -13.934289 -3.4433393
0.38668686 1.221602 -0.98962241
22.960419 -17.574068 -3.4710159
0.4464193 1.1729659 -0.97490591
23.673643 -18.130222 -2.8189316
0.54908919 1.0876315 -0.98323482
0.60435182 1.0432616 -0.95746213
7.0412455 -4.254096 -0.45955208
0.82127059 0.86083829 -1.0163622
6.7153034 -3.9716988 -0.21048218
1.0356917 0.68128431 -1.0596929
6.8346224 -4.0582581 0.024068363
1.1769606 0.56472933 -1.0544727
1.3509971 0.42075416 -1.0555284
7.0530024 -4.2138104 0.50922167
1.6329645 0.18584278 -1.0891294
6.6787415 -3.8936558 0.7156378
1.9634382 -0.089152619 -1.122196
2.2937455 -0.36298814 -1.1354423
23.055826 -17.277847 3.7963359
2.8396311 -0.81740063 -1.1933205
20.798193 -15.395099 4.1021228
3.3840888 -1.2688245 -1.2161512
22.081993 -16.407757 5.0510864
4.5619736 -2.2501354 -1.3565784
47.819927 -37.320934 12.239518
5.2228279 -2.7946773 -1.3185744
7.2290783 -4.2681623 2.277051
0.30395621 1.283331 -0.98686898
18.481104 -13.971297 -3.4351566
0.37375396 1.2254444 -0.98292112
22.774841 -17.545567 -3.4494722
0.4467707 1.1649637 -0.97732705
23.681318 -18.267633 -2.8230236
0.55608582 1.0733434 -0.98972678
7.6538944 -4.8216987 -0.75304705
0.67103577 0.97724885 -0.99800289
7.014246 -4.2741122 -0.45793825
0.89095992 0.79120809 -1.0562038
6.7014418 -4.0009341 -0.20936775
1.0219378 0.68225741 -1.0550816
6.8235283 -4.0904198 0.025417093
1.1183919 0.60331267 -1.0293236
6.9045687 -4.1455545 0.26392579
1.2987236 0.45292947 -1.0351064
7.0259676 -4.233881 0.51009393
1.5315371 0.25835314 -1.0508661
6.7187605 -3.9672217 0.72286081
1.872159 -0.027211703 -1.0910938
7.4623489 -4.5690665 1.0524321
2.2926135 -0.37953225 -1.1373744
20.173279 -15.02944 3.3477936
2.825233 -0.82559824 -1.1913605
20.863842 -15.563856 4.1290088
3.3891888 -1.2964319 -1.2198641
22.014456 -16.473728 5.0531259
4.5310135 -2.2535443 -1.351764
47.62328 -37.416565 12.229771
5.2187786 -2.8243108 -1.3200533
7.2062283 -4.292634 2.2779486
0.26933798 1.3074142 -0.96348274
18.417677 -14.010177 -3.4291885
0.36926305 1.2228295 -0.98180073
22.604141 -17.51429 -3.4294951
0.4420929 1.1621577 -0.97623646
23.000772 -17.811153 -2.7492373
0.5319674 1.0868999 -0.97687024
0.618707 1.0146648 -0.96977407
7.0476913 -4.3400817 -0.45946708
0.84179699 0.8247382 -1.0317092
6.678977 -4.0184846 -0.20816517
0.97767365 0.7108497 -1.0348039
6.799242 -4.1070333 0.026482616
1.177758 0.54211956 -1.0591733
6.8770237 -4.1598363 0.26469594
1.296298 0.44409537 -1.0360308
7.0257597 -4.2715292 0.51252985
1.5968565 0.19030608 -1.0790198
6.6839972 -3.9746437 0.72227818
1.8274662 -0.0025954652 -1.0767188
7.4488401 -4.597671 1.0544462
2.2835219 -0.38740033 -1.136411
20.067549 -15.041499 3.3417356
2.7837379 -0.80838633 -1.1809745
3.4148328 -1.3390881 -1.2288709
21.983809 -16.556614 5.0615053
4.4221859 -2.1873755 -1.3281896
47.445171 -37.498249 12.220256
5.1696939 -2.8122106 -1.3120263
7.2384939 -4.3576155 2.2937272
0.27787045 1.2930768 -0.9719789
18.374161 -14.077409 -3.4273679
0.38435519 1.2022117 -0.9945367
22.419352 -17.483929 -3.4080458
0.43294591 1.1624211 -0.972471
0.54983234 1.0630493 -0.99009913
0.6780436 0.95421326 -1.0062921
0.83280611 0.82266641 -1.0291436
6.6481276 -4.0334654 -0.20670034
0.96405065 0.71205622 -1.0302041
6.7665339 -4.121109 0.027625164
1.1734964 0.53411335 -1.0594935
6.8670673 -4.19346 0.26639399
1.3678845 0.36985332 -1.0694628
20.916859 -15.965333 1.489212
1.6060028 0.16846812 -1.0850015
6.6623049 -3.9973741 0.723364
1.9237125 -0.10067558 -1.1143804
7.4266653 -4.6240749 1.0558093
2.2175941 -0.34835288 -1.1166933
20.954163 -15.893056 3.497304
2.7427583 -0.79353422 -1.1709795
3.3913534 -1.3426756 -1.2249494
22.194803 -16.854013 5.1257796
4.5575781 -2.3321824 -1.362886
6.8090343 -4.0584655 1.9336479
5.1580105 -2.8353391 -1.3119602
7.1928072 -4.3634281 2.2881818
0.27097008 1.2930459 -0.9688983
18.337618 -14.139085 -3.4261625
0.3851248 1.1948819 -0.99711478
22.246395 -17.448389 -3.3877175
0.4349983 1.1537328 -0.97580236
0.55848759 1.0479991 -0.99745661
23.785177 -18.684305 -2.077472
0.67551237 0.94837689 -1.0068519
6.8402081 -4.2451954 -0.44839838
0.87172014 0.77980912 -1.0523367
6.6545725 -4.0754156 -0.20611389
0.90599173 0.7533347 -1.0028129
6.7544088 -4.147862 0.02879907
1.1840484 0.51448554 -1.0665481
6.8547039 -4.2204843 0.26776785
1.3637847 0.36205685 -1.0697501
19.920385 -15.229268 1.4258194
1.5984656 0.16250913 -1.0840476
6.6443272 -4.0186601 0.72446364
1.895027 -0.089852907 -1.105912
7.4129801 -4.6526122 1.0578208
2.2833893 -0.42065948 -1.1408241
20.505686 -15.621235 3.4361384
2.6409993 -0.72368413 -1.1423006
8.0314302 -5.1437216 1.6931653
3.4285693 -1.3957744 -1.2371523
46.940784 -37.641487 10.680087
4.4221363 -2.242425 -1.3329382
5.1930475 -2.8949013 -1.3212981
0.25902939 1.2979188 -0.9619664
18.246668 -14.148173 -3.4151316
0.39535037 1.1795353 -1.0061784
22.080212 -17.41061 -3.3680723
0.42647907 1.1547863 -0.972076
23.622568 -18.696301 -2.8285017
0.54962939 1.0487776 -0.99388111
23.733274 -18.751606 -2.0743783
0.69658571 0.92221862 -1.0210128
6.7909431 -4.2383685 -0.44570205
0.82868361 0.80920613 -1.0309069
6.7563152 -4.1965718 -0.20756063
0.98043287 0.67936796 -1.0425003
6.7418127 -4.1719513 0.02988789
1.1097779 0.56967765 -1.0334547
1.3085215 0.39968738 -1.0475399
19.796333 -15.217982 1.4231477
1.5653389 0.17967001 -1.072654
7.6243248 -4.8823943 0.82658702
1.8392359 -0.054352667 -1.0872848
2.3288219 -0.47497195 -1.1580799
21.206045 -16.308107 3.5606334
2.6830323 -0.77658087 -1.1569936
7.9978218 -5.1557856 1.6917436
3.3728554 -1.3675444 -1.2241313
22.418039 -17.255302 5.2060847
4.3624868 -2.2153707 -1.3208389
5.0611334 -2.809094 -1.296011
0.28981704 1.2638755 -0.98688996
18.148573 -14.162277 -3.403507
0.36408675 1.2002592 -0.98654878
21.901554 -17.374872 -3.3471847
0.3854014 1.1840345 -0.94712549
0.5471105 1.043036 -0.99448889
0.69508266 0.91481447 -1.0223536
6.7985744 -4.2848191 -0.44591567
