# .PCD v0.7 - Point Cloud Data file format
VERSION 0.7
FIELDS x y z
SIZE 4 4 4
TYPE F F F
COUNT 1 1 1
WIDTH 1468
HEIGHT 1
VIEWPOINT 0 0 0 1 0 0 0
POINTS 1468
DATA ascii
-1.8088403 5.332387 -0.82991958
-1.805909 5.3192711 -0.74385715
-1.8077344 5.3293152 -0.66240257
-1.8059731 5.3218718 -0.57922035
-1.2065839 2.3985221 -0.34561029
-1.8058112 5.3222113 -0.49784875
-1.2170731 2.4495652 -0.3580038
-1.8068758 5.3285356 -0.41685504
-1.216404 2.4465265 -0.34153751
-1.8059497 5.325139 -0.3358354
-1.2215351 2.4716234 -0.33843273
-1.8070514 5.3316326 -0.2556963
-1.4107314 3.3901796 -0.71402639
-1.8976736 5.7750931 -0.18466482
-1.4269786 3.4696283 -0.70538592
-1.9413556 5.9896431 -0.093569562
-1.4481984 3.573278 -0.70242643
-2.3410802 7.9433565 0.050929144
-1.4676266 3.6682878 -0.69167435
-2.3312409 7.8972778 0.1921462
-1.4959844 3.8067715 -0.69005847
-2.3227763 7.8578777 0.330899
-1.52447 3.9459603 -0.6824913
-2.3176749 7.834898 0.46981913
-1.5425379 4.0345616 -0.65501165
-2.3131018 7.8145132 0.60962749
-1.743963 5.0630956 -0.84905779
-1.7986531 5.3344574 -0.82994753
-1.7949988 5.3174763 -0.74314874
-1.797199 5.329443 -0.66210836
-1.7958676 5.323926 -0.57924801
-1.207292 2.4091969 -0.35123581
-1.7953274 5.3223143 -0.49764633
-1.2158729 2.4516339 -0.35890377
-1.7971776 5.3325391 -0.41706622
-1.2162994 2.4539304 -0.34495619
-1.7931191 5.3134947 -0.33490211
-1.2199177 2.4719522 -0.33843714
-1.796982 5.3336792 -0.25572389
-1.4059514 3.3892667 -0.71326971
-1.8886783 5.7891636 -0.18496098
-1.4215913 3.4669194 -0.70394784
-1.9289751 5.990118 -0.093604669
-1.4443662 3.5798128 -0.70448577
-2.3324294 7.9920416 0.05200012
-1.4620181 3.6674933 -0.69105053
-2.32235 7.9439335 0.19419728
-1.4907219 3.8097901 -0.69066751
-2.3136215 7.9024887 0.33382815
-1.516891 3.9396515 -0.6803115
-2.3062382 7.8677015 0.472592
-1.5346928 4.0282559 -0.65301162
-2.3044822 7.8608551 0.61474013
-1.7375798 5.0743012 -0.85137355
-1.1981773 2.3696029 -0.38458818
-1.7873619 5.3247461 -0.82748866
-1.1964235 2.3610332 -0.36485898
-1.7837573 5.3076992 -0.74096286
-1.7870899 5.325429 -0.66116506
-1.7853966 5.3179426 -0.57816619
-1.2042903 2.4007878 -0.34655428
-1.7848711 5.3163052 -0.49674869
-1.2148454 2.4536636 -0.35980296
-1.7878729 5.3323727 -0.41690534
-1.2159823 2.459528 -0.34752065
-1.7854372 5.3211389 -0.33533651
-1.2159786 2.459691 -0.33276081
-1.7857511 5.3237033 -0.25520092
-1.3998871 3.3791838 -0.70866692
-1.8868089 5.8323631 -0.18591441
-1.4174989 3.4677396 -0.70395833
-1.9172277 5.9863529 -0.093638316
-1.4385045 3.5733173 -0.70176917
-2.3244517 8.0344238 0.052933201
-1.4592613 3.6777115 -0.69425279
-2.3152938 7.9901714 0.19625638
-1.4846137 3.8051705 -0.6888994
-2.3078513 7.9545107 0.33733243
-1.5164642 3.9652345 -0.68746358
-2.3013382 7.9235125 0.47762924
-1.528385 4.0255728 -0.65201712
-2.2964997 7.9009428 0.61915714
-1.7244217 5.0630083 -0.84818548
-1.7760029 5.3269873 -0.82751518
-1.7720959 5.3079963 -0.74062109
-1.7750068 5.3237886 -0.66054738
-1.7744969 5.3221121 -0.57846874
-1.2010094 2.3924303 -0.34187308
-1.7736142 5.3185263 -0.49677497
-1.2117118 2.446991 -0.35622424
-1.7750502 5.3267822 -0.41619748
-1.2145616 2.4616518 -0.34837836
-1.7734342 5.3194389 -0.33508813
-1.2142117 2.4600396 -0.33276498
-1.7726057 5.3161144 -0.25477242
-1.395705 3.3837729 -0.71021593
-1.8800561 5.8663034 -0.18665165
-1.4141092 3.4779072 -0.70759743
-1.8996218 5.9674025 -0.093694046
-1.4355056 3.5873237 -0.70655572
-2.3139153 8.087451 0.054102376
-1.4537477 3.6807313 -0.69490469
-2.3045421 8.0411606 0.19849919
-1.4794178 3.8120356 -0.69069499
-2.295321 7.9956179 0.33997911
-1.5107464 3.9722433 -0.68912697
-2.2912171 7.9762478 0.48228323
-1.520992 4.0250583 -0.65152913
-2.286078 7.9515867 0.62473983
-1.7179809 5.0741744 -0.85049784
-1.7551445 5.267252 -0.81429726
-1.7631862 5.3097267 -0.74064004
-1.7656958 5.3235865 -0.66024435
-1.7633252 5.3121748 -0.57683074
-1.2028164 2.4082787 -0.35030854
-1.7635903 5.3144011 -0.49610358
-1.2096649 2.4437454 -0.35443568
-1.7650166 5.3226447 -0.41566563
-1.2114377 2.4530461 -0.34411311
-1.7630543 5.3133249 -0.33455777
-1.2121202 2.4567215 -0.33114505
-1.7633827 5.3158703 -0.2547003
-1.3939353 3.3954015 -0.71483701
-1.4096327 3.4768779 -0.70688081
-1.8906192 5.9773006 -0.093707517
-1.4289535 3.5771043 -0.70247334
-2.3058338 8.1317921 0.055089638
-1.4501785 3.6872172 -0.69682896
-2.2969766 8.0874014 0.20056377
-1.4729743 3.8055048 -0.68833107
-2.2893963 8.0496063 0.34363037
-1.5060664 3.9770703 -0.69023675
-2.283087 8.0183926 0.48600978
-1.5139804 4.0185337 -0.64952356
-2.27689 7.9877672 0.62869304
-1.7118292 5.0931888 -0.85464686
-1.7542942 5.3172207 -0.82465822
-1.1934904 2.3667905 -0.36804122
-1.7512493 5.3020029 -0.73881882
-1.7537267 5.3158278 -0.65865356
-1.7528801 5.3121567 -0.57657403
-1.2013842 2.4085529 -0.35031128
-1.7524121 5.3104715 -0.49543267
-1.2087969 2.4475527 -0.35623014
-1.754571 5.3226156 -0.41550153
-1.2102129 2.455122 -0.34496975
-1.7526519 5.3132839 -0.33443981
-1.2084947 2.4462483 -0.32627934
-1.7533612 5.3177881 -0.25471961
-1.3891616 3.3944349 -0.71407676
-1.8685844 5.9255304 -0.18793409
-1.4053137 3.4796019 -0.7076152
-1.8820281 5.9972706 -0.093710765
-1.4225829 3.5706663 -0.69975507
-2.2968559 8.1844025 0.056269899
-1.4445355 3.686367 -0.69620103
-2.2885218 8.1419029 0.20300828
-1.468766 3.8140879 -0.69071651
-2.2792079 8.0942106 0.34657162
-1.5006402 3.9820247 -0.69134688
-2.2733738 8.0648518 0.49011081
-1.508444 4.0235338 -0.65054435
-2.2676444 8.036047 0.6340521
-1.7011118 5.0853033 -0.8523674
-1.7447498 5.3190184 -0.82467467
-1.74104 5.2999253 -0.73809892
-1.1917784 2.364608 -0.35283357
-1.7442176 5.3176188 -0.65867001
-1.7426682 5.3100491 -0.57603812
-1.2003615 2.4105434 -0.35125059
-1.7418529 5.3063955 -0.49475867
-1.2060184 2.4407973 -0.35264969
-1.7443568 5.3204861 -0.4151507
-1.2100699 2.4625106 -0.348387
-1.7424778 5.3111391 -0.33418149
-1.2097423 2.4608943 -0.33277357
-1.7420871 5.3097458 -0.25428104
-1.3853369 3.3970342 -0.71485275
-1.8666513 5.9767609 -0.18905896
-1.4009125 3.4804306 -0.70762283
-1.869992 5.9954672 -0.093734667
-1.4200084 3.5826304 -0.70385498
-2.2879353 8.2328777 0.057358101
-1.4402587 3.69103 -0.69748598
-2.2808394 8.1962042 0.20545791
-1.4637877 3.8169692 -0.69131935
-2.272037 8.1503725 0.35036814
-1.4941336 3.979336 -0.69025862
-2.2651942 8.1150188 0.49459285
-1.5018251 4.0208421 -0.64954579
-2.2617359 8.0977936 0.64105737
-1.6900384 5.0814152 -0.85100561
-1.7332985 5.3171606 -0.82386363
-1.1917877 2.3722882 -0.3712194
-1.7293084 5.2961016 -0.73701072
-1.7324431 5.3137779 -0.65772003
-1.7316477 5.3100758 -0.57577813
-1.1965944 2.3986626 -0.34469384
-1.7305009 5.3044577 -0.49431455
-1.2069935 2.4551659 -0.35981816
-1.7329761 5.3185444 -0.41479963
-1.2087116 2.4646018 -0.34924328
-1.7307818 5.3072186 -0.33378559
-1.2087272 2.4648006 -0.33439904
-1.7314944 5.3117085 -0.25429714
-1.3809774 3.3997197 -0.71562874
-1.8608451 6.0164738 -0.18991873
-1.3962963 3.4831815 -0.70835578
-1.8659546 6.0450325 -0.093701556
-1.4160969 3.5910037 -0.70659089
-2.2776337 8.2876558 0.058591947
-1.4349898 3.693934 -0.69813263
-2.2695923 8.2450171 0.20762123
-1.4591652 3.8255949 -0.69370311
-2.2620323 8.2049789 0.35402268
-1.4883153 3.9843259 -0.69136685
-2.2545927 8.1655846 0.49907464
-1.4934376 4.0125546 -0.64703387
-2.249404 8.1384592 0.6454832
-1.6830919 5.0905972 -0.85285264
-1.7236543 5.3149405 -0.82304806
-1.7204323 5.2977195 -0.7370224
-1.7221274 5.3076334 -0.65644336
-1.7213516 5.3038993 -0.57468504
-1.1969357 2.4075804 -0.34938055
-1.7202301 5.2982526 -0.49340564
-1.2027302 2.4395843 -0.35175818
-1.723034 5.3142834 -0.41426051
-1.206978 2.4630795 -0.34839147
-1.7208819 5.3029394 -0.33338526
-1.2056863 2.4560645 -0.33034351
-1.7219516 5.3093872 -0.25412682
-1.3777183 3.4040675 -0.71717161
-1.8587313 6.0656385 -0.19099464
-1.3934921 3.4912708 -0.711263
-1.8634279 6.0922508 -0.093665585
-1.4089956 3.5770094 -0.70114082
-2.27034 8.3418264 0.059833691
-1.4299678 3.6929231 -0.69750065
-2.2613604 8.2932234 0.20979254
-1.4544791 3.8283911 -0.69430345
-2.2542734 8.2550611 0.35740167
-1.4845897 3.9947793 -0.69411987
-2.2480073 8.2214327 0.50412804
-1.4893115 4.0211763 -0.64905876
-2.2421842 8.1902494 0.65132368
-1.6751053 5.1038952 -0.85561782
-1.7115529 5.3091593 -0.82140523
-1.1871192 2.3610587 -0.36381656
-1.7090858 5.2957602 -0.73629791
-1.1917946 2.3873515 -0.36607683
-1.7107644 5.3056602 -0.65581113
-1.1888771 2.371069 -0.34270555
-1.7107091 5.3058081 -0.5746969
-1.1935608 2.3974152 -0.34376013
-1.7092745 5.2981992 -0.49318737
-1.2036254 2.4539573 -0.35892606
-1.7116958 5.3122706 -0.41390514
-1.2068766 2.4722853 -0.35266185
-1.7099446 5.3028736 -0.33325973
-1.2053069 2.4635611 -0.33359134
-1.7106607 5.3073521 -0.25395662
-1.372354 3.401278 -0.71563917
-1.8478819 6.0797729 -0.19127457
-1.3878496 3.4884958 -0.70981771
-1.8525159 6.1063995 -0.093667105
-1.4057182 3.5890579 -0.70523864
-2.2597537 8.398571 0.061123356
-1.4256788 3.701395 -0.70005959
-2.2499008 8.3439884 0.21205838
-1.4487717 3.8313546 -0.69490379
-2.2429523 8.3057356 0.36078
-1.477689 3.9940631 -0.69357806
-2.2368059 8.2719917 0.50861686
-1.4843705 4.0318928 -0.65158814
-2.2300477 8.2348013 0.65622562
-1.6681638 5.1169786 -0.85838002
-1.7010198 5.3050556 -0.82017279
-1.1885389 2.3763192 -0.37333965
-1.6986017 5.2916203 -0.73520201
-1.1878263 2.3723199 -0.35691309
-1.7009443 5.3053875 -0.65549761
-1.1882368 2.3747249 -0.34466225
-1.7005613 5.3035741 -0.57415313
-1.1901088 2.3854647 -0.33720213
-1.6995039 5.297904 -0.49296576
-1.2009137 2.4471722 -0.3553443
-1.7019 5.3119745 -0.41373008
-1.205662 2.4743359 -0.35351694
-1.7005335 5.304533 -0.33326825
-1.2050699 2.4710274 -0.33683866
-1.7002196 5.3031063 -0.25369215
-1.3697628 3.4111085 -0.71948713
-1.8428771 6.1192322 -0.19212593
-1.3834233 3.4892759 -0.70982176
-1.8457341 6.1360273 -0.093647256
-1.3987418 3.5769241 -0.7004689
-2.2510881 8.454915 0.062418893
-1.4200072 3.6985455 -0.69878781
-2.2417512 8.4022245 0.21471147
-1.4437222 3.8341842 -0.69550246
-2.2338924 8.357976 0.36430579
-1.471857 3.9950912 -0.69358331
-2.2275081 8.322155 0.51311165
-2.22086 8.2848253 0.66183668
-1.6604929 5.1262116 -0.86022252
-1.6895196 5.2951341 -0.81769729
-1.6881462 5.2874479 -0.73410428
-1.6904616 5.3011951 -0.65453809
-1.1866872 2.3732231 -0.34368539
-1.6894238 5.295454 -0.57277888
-1.1900271 2.3926518 -0.34095114
-1.6900773 5.2995386 -0.49297249
-1.2003673 2.4527116 -0.35803264
-1.6914362 5.3077259 -0.41318595
-1.2038224 2.4728193 -0.35266429
-1.6897655 5.2983003 -0.33272558
-1.2023084 2.4640853 -0.33359376
-1.6908236 5.3047361 -0.25369889
-1.3652372 3.4100194 -0.71872133
-1.8393536 6.1685476 -0.19319649
-1.3802607 3.4973912 -0.71272671
-1.8411667 6.1794462 -0.093610212
-1.3975813 3.5981154 -0.70797431
-2.2411027 8.5053492 0.063571915
-1.4156413 3.70315 -0.70006776
-2.2312565 8.4486504 0.21679588
-1.4383359 3.8351183 -0.69550627
-2.2248912 8.4121809 0.36797655
-1.4647173 3.9885221 -0.69139069
-2.2189546 8.3782024 0.51817316
-1.4780908 4.066391 -0.66017276
-2.2134247 8.346591 0.66885763
-1.6522908 5.1394577 -0.86298174
-1.6684272 5.2352095 -0.80446398
-1.1847222 2.3700864 -0.36910927
-1.6778481 5.2911963 -0.73447776
-1.6781671 5.2932777 -0.65293288
-1.6788076 5.2972622 -0.57278425
-1.1891502 2.3963859 -0.34282595
-1.6771504 5.2876339 -0.49136674
-1.1960285 2.4371254 -0.34997159
-1.677832 5.2918615 -0.41153866
-1.2027054 2.4766788 -0.35437256
-1.6785272 5.2961664 -0.33245617
-1.202143 2.4733851 -0.33765209
-1.6802464 5.3065381 -0.25370425
-1.3608088 3.4126468 -0.71949255
-1.8317378 6.2043266 -0.19395567
-1.3740103 3.4908931 -0.70982742
-1.8345374 6.2211514 -0.093573734
-1.3919449 3.5971684 -0.70729506
-2.006295 7.2391806 0.032275781
-1.4103061 3.7059817 -0.70070881
-2.2198975 8.5053015 0.21935929
-1.4325901 3.8380346 -0.69610304
-2.2126698 8.4628325 0.37136632
-1.4584936 3.9915335 -0.69194323
-2.205862 8.4228497 0.52210975
-1.4803327 4.1209803 -0.67429978
-2.2004461 8.3911133 0.67377096
-1.6464896 5.1641111 -0.86849278
-1.668134 5.2947764 -0.81687826
-1.1833994 2.3703077 -0.36910963
-1.6671605 5.2889977 -0.73374432
-1.669101 5.3007984 -0.65390211
-1.6674819 5.2911234 -0.57168233
-1.1883329 2.4001055 -0.34470046
-1.6671653 5.2893043 -0.49136972
-1.1953886 2.4426715 -0.35265934
-1.6678505 5.2935309 -0.41154158
-1.2007741 2.4751682 -0.35351938
-1.6678963 5.2938986 -0.3321844
-1.2011186 2.4772632 -0.3392756
-1.668293 5.2963834 -0.25316113
-1.356027 3.4115748 -0.71872503
-1.820733 6.2163029 -0.19418073
-1.3702152 3.4971972 -0.7120052
-1.8280811 6.2607584 -0.093536481
-1.3866135 3.5961537 -0.70661449
-1.9886762 7.2299652 0.031979725
-1.4043415 3.703136 -0.69943398
-2.2100003 8.5656958 0.22211795
-1.4262307 3.8352253 -0.69491726
-2.2019372 8.5172167 0.37504393
-1.4519908 3.9906709 -0.69139588
-2.195262 8.4771109 0.52699035
-1.4781959 4.1488085 -0.68136352
-2.1902738 8.4471874 0.68009531
-1.6404412 5.1808877 -0.87216586
-1.6570432 5.2827187 -0.81398314
-1.6579874 5.2885132 -0.73337704
-1.6595924 5.2983608 -0.65325886
-1.1827821 2.373877 -0.34368658
-1.6583295 5.2906203 -0.57140702
-1.186523 2.396822 -0.34282649
-1.658031 5.2887926 -0.49114048
-1.1940346 2.442894 -0.35265946
-1.6600004 5.3008761 -0.41209334
-1.2007904 2.4843302 -0.35778809
-1.6597401 5.299283 -0.33246002
-1.1987942 2.4720879 -0.33684123
-1.6585379 5.291913 -0.25288895
-1.3517799 3.4104018 -0.71795654
-1.8134108 6.2418232 -0.19471301
-1.3660429 3.4978828 -0.71200562
-1.8232361 6.3020926 -0.09349446
-1.3836963 3.6061602 -0.71002495
-1.974885 7.2322321 0.031978324
-1.4011585 3.7132635 -0.70262539
-2.2017546 8.6237383 0.22478528
-1.423637 3.8511357 -0.69966733
-2.195117 8.5830345 0.37957549
-1.4477711 3.9991603 -0.6935932
-2.1863108 8.5290289 0.53168696
-1.4735725 4.1574135 -0.6833818
-2.180769 8.4950457 0.68548602
-1.6301205 5.1825533 -0.87216479
-1.6476507 5.2921624 -0.81563693
-1.6476691 5.29217 -0.73374414
-1.648327 5.2961802 -0.65261352
-1.1813747 2.3741045 -0.34368646
-1.6480415 5.2942877 -0.57168216
-1.1864371 2.4057846 -0.34751153
-1.646826 5.2865763 -0.49067903
-1.1904348 2.4307959 -0.34638888
-1.6500301 5.3065205 -0.41245955
-1.1990337 2.4846137 -0.35778791
-1.6482186 5.2950802 -0.33204687
-1.1973687 2.4741695 -0.33765256
-1.6483163 5.2955866 -0.25297886
-1.3479168 3.416636 -0.72026259
-1.8093746 6.303236 -0.19603953
-1.360739 3.496851 -0.71127957
-1.8136696 6.3299732 -0.093464985
-1.3777543 3.6033106 -0.70866042
-1.9576945 7.2309561 0.031882897
-1.3951763 3.7123091 -0.70198661
-2.1906476 8.688262 0.22774233
-1.4166183 3.8464646 -0.69788557
-2.1816387 8.6316881 0.38283598
-1.4408901 3.9983232 -0.69304329
-2.1764777 8.5991917 0.53807873
-1.4668063 4.1604662 -0.68388546
-2.1701083 8.5591354 0.6927557
-1.6094365 5.1069946 -0.85380143
-1.6351279 5.2703733 -0.81066972
-1.637889 5.2877488 -0.73263693
-1.6382408 5.2897849 -0.65132242
-1.180472 2.3760138 -0.34466386
-1.6364332 5.2780771 -0.5691936
-1.1851805 2.4059837 -0.34751117
-1.6364774 5.2781591 -0.48952562
-1.1899447 2.436305 -0.34907579
-1.6399484 5.3000526 -0.41172236
-1.1967281 2.4794855 -0.35522634
-1.6384884 5.2905617 -0.33163211
-1.1959352 2.4743967 -0.33765209
-1.6379771 5.2871108 -0.25252119
-1.3433809 3.4136162 -0.71872377
-1.8023095 6.3326988 -0.19665578
-1.3559897 3.4938297 -0.70982748
-1.3727221 3.6003008 -0.70729506
-1.9420385 7.2212906 0.031595543
-1.3904439 3.7130592 -0.70198518
-2.1802163 8.7364368 0.22994016
-1.412425 3.8529305 -0.69966519
-2.174161 8.6975088 0.38737464
-1.4354122 3.9991915 -0.69304168
-2.1675477 8.6550388 0.54315805
-1.4618071 4.1671371 -0.68539691
-2.1612904 8.614831 0.69909102
-1.6123552 5.1892829 -0.87307537
-1.6260231 5.2777314 -0.8119058
-1.6269574 5.2834816 -0.73152739
-1.6270154 5.2835412 -0.650029
-1.1788714 2.3744974 -0.34368545
-1.6273655 5.2855024 -0.57001728
-1.1832186 2.4027128 -0.34563637
-1.6259158 5.2757816 -0.4890604
-1.1881582 2.4347734 -0.34817928
-1.6272135 5.2838945 -0.4100647
-1.1948091 2.4779537 -0.35437179
-1.6270076 5.2822523 -0.33094043
-1.1937541 2.4710362 -0.33602834
-1.6277375 5.2866826 -0.25242525
-1.3397406 3.4197884 -0.72102809
-1.7914217 6.3485584 -0.19695917
-1.3532556 3.5074587 -0.7149033
-1.7974361 6.3871822 -0.093396738
-1.3679752 3.6029425 -0.70797455
-1.9252156 7.2158165 0.031408921
-1.3856548 3.7176414 -0.70325899
-2.1692963 8.798789 0.23280989
-1.4060645 3.8500547 -0.69847494
-2.1618562 8.7498989 0.39092612
-1.429201 4.0001583 -0.69303858
-2.1556897 8.7092781 0.54805416
-1.4556894 4.1720066 -0.68640238
-2.1492612 8.6669559 0.70496196
-1.5933059 5.1331148 -0.85929775
-1.6151209 5.2774153 -0.81148463
-1.6166391 5.287044 -0.73188812
-1.1796523 2.3893464 -0.36607796
-1.6167154 5.2871089 -0.6503436
-1.1790196 2.3850639 -0.34955114
-1.6156008 5.2792816 -0.568905
-1.183298 2.4134247 -0.3512575
-1.6153802 5.2773881 -0.48905295
-1.1868252 2.4367855 -0.34907389
-1.6175604 5.2914104 -0.41060811
-1.1936117 2.4817953 -0.35607797
-1.6170806 5.2878027 -0.33120769
-1.1928601 2.4767199 -0.33846158
-1.616622 5.2843356 -0.25223583
-1.3341494 3.4150381 -0.71871817
-1.7832533 6.3882341 -0.19779021
-1.3479379 3.5063844 -0.71417433
-1.7867832 6.4110613 -0.093363032
-1.3629172 3.6056156 -0.70865279
-1.908709 7.2183332 0.031420603
-1.3808053 3.7241325 -0.70516944
-2.155324 8.8514404 0.23520829
-1.4025146 3.8679838 -0.70381385
-2.1486573 8.8063993 0.39476633
-1.4214749 3.9935548 -0.69083714
-2.1423402 8.7636824 0.55295551
-1.450014 4.1826606 -0.68891937
-2.1372457 8.729063 0.71201032
-1.586545 5.1498713 -0.86296153
-1.6019695 5.2536602 -0.80609798
-1.6043206 5.2690086 -0.72819775
-1.178354 2.3895404 -0.36607677
-1.6067102 5.2846127 -0.64969087
-1.6062104 5.2806854 -0.56889641
-1.1816776 2.4118805 -0.35031927
-1.6057193 5.276823 -0.48881423
-1.1861808 2.442306 -0.35175991
-1.6064169 5.2809944 -0.40949786
-1.1917937 2.4802384 -0.35522288
-1.6074194 5.2872295 -0.33106178
-1.1915905 2.4787579 -0.33927166
-1.6072774 5.2857327 -0.25222728
-1.3304652 3.4193225 -0.72025192
-1.776406 6.4276705 -0.19861963
-1.3429163 3.5033662 -0.71271932
-1.7807732 6.4564486 -0.093303934
-1.3592633 3.6137657 -0.71137643
-1.8931497 7.2145939 0.031288192
-1.375169 3.7211423 -0.70388848
-2.1449118 8.9135952 0.23808588
-1.3970317 3.8688033 -0.70380878
-2.1386821 8.8704214 0.39917576
-1.4167689 4.0020361 -0.69302863
-2.1319141 8.8236265 0.55842334
-1.4442228 4.1874399 -0.68992245
-2.1263447 8.7849169 0.7183578
-1.5609883 5.0375404 -0.83587056
-1.5951335 5.2724619 -0.80981082
-1.5960585 5.2781677 -0.72966003
-1.1782862 2.3982491 -0.37116688
-1.5995574 5.3016214 -0.65225714
-1.5996609 5.3016663 -0.57164794
-1.1805725 2.4138281 -0.35125476
-1.5949264 5.2683663 -0.48765314
-1.184482 2.4407477 -0.3508625
-1.5970536 5.2823677 -0.40948749
-1.1879141 2.4643555 -0.34753793
-1.5994862 5.2984757 -0.33173811
-1.1887397 2.4699383 -0.33521259
-1.5976436 5.2851262 -0.25212598
-1.3259658 3.4181161 -0.71947849
-1.7690587 6.4651232 -0.19940215
-1.3395164 3.5113995 -0.71561617
-1.7736554 6.4958982 -0.093248621
-1.3547575 3.6163268 -0.71205312
-1.878482 7.2167444 0.031304434
-1.3706393 3.7256379 -0.70515913
-2.135314 8.9836521 0.24134903
-1.3907261 3.8639371 -0.70202166
-2.1272154 8.9265432 0.40302259
-1.4098126 3.9952815 -0.6908254
-2.1217403 8.8875027 0.56427085
-1.4370208 4.1826286 -0.68840224
-2.116574 8.8505869 0.72588152
-1.5587823 5.0889893 -0.84779215
-1.5878776 5.293273 -0.81393462
-1.5866055 5.2834988 -0.73038334
-1.5900528 5.3069754 -0.65288812
-1.5890607 5.2991872 -0.57108247
-1.1793711 2.415786 -0.3521899
-1.588351 5.2933969 -0.49040174
-1.1839556 2.4480495 -0.35444355
-1.5899011 5.3035154 -0.41131055
-1.1855562 2.4592125 -0.34497476
-1.5897814 5.3018856 -0.33186239
-1.1881528 2.4774096 -0.33845633
-1.5902437 5.3043556 -0.25293183
-1.3217282 3.4205904 -0.72024137
-1.7587414 6.4888268 -0.19987126
-1.3355289 3.5176215 -0.71778625
-1.7649591 6.531497 -0.093193844
-1.3499396 3.6189184 -0.7127285
-1.861764 7.2110672 0.031130418
-1.3644376 3.7207842 -0.70323765
-2.1226923 9.0439939 0.24414133
-1.3867896 3.8780088 -0.70616972
-2.1156292 8.9927025 0.40758365
-1.4041531 3.9999807 -0.69191569
-2.1105676 8.9554911 0.57050025
-1.4308107 4.1874309 -0.68940216
-2.1046824 8.9124937 0.73294216
-1.5399569 5.0189042 -0.83079636
-1.5786729 5.296545 -0.81433403
-1.5771744 5.2848263 -0.73036915
-1.1713074 2.3679457 -0.35283369
-1.5841061 5.3337264 -0.65706092
-1.5869858 5.3534889 -0.57852489
-1.1772747 2.410728 -0.3493768
-1.5868791 5.3517866 -0.49706113
-1.1810237 2.4376273 -0.34906691
-1.5876138 5.3561277 -0.41606992
-1.1840674 2.4594221 -0.34497252
-1.5836766 5.3269248 -0.33349612
-1.1843555 2.4613302 -0.33115083
-1.5858059 5.3412971 -0.25455523
-1.3182507 3.4266734 -0.72254151
-1.7650893 6.6272602 -0.20290393
-1.3307643 3.5164099 -0.71705407
-1.7712181 6.6699762 -0.093023196
-1.3459252 3.6251798 -0.71476722
-1.8465542 7.2091703 0.031055257
-1.3606689 3.7308855 -0.70642078
-2.1117957 9.1100855 0.24722241
-1.3833805 3.8939185 -0.71091068
-2.1054478 9.0626335 0.41243088
-1.3983057 4.0008039 -0.69190687
-2.0994046 9.0173855 0.57616848
-1.424974 4.1921616 -0.69040132
-2.0931029 8.9702864 0.73953658
-1.5115621 4.8793712 -0.7972756
-1.5662237 5.2804832 -0.8105939
-1.5788047 5.3719149 -0.74655002
-1.5816669 5.3918467 -0.66638345
-1.1736078 2.3946538 -0.35443133
-1.5818626 5.3921871 -0.58375466
-1.1748874 2.4039226 -0.34562635
-1.5812579 5.3866549 -0.5009557
-1.1823845 2.4591012 -0.35981309
-1.582546 5.3950243 -0.41954082
-1.1827277 2.4614325 -0.3458235
-1.5798001 5.3737845 -0.3366372
-1.1820335 2.4561145 -0.32871374
-1.5811036 5.3822818 -0.25635731
-1.3144726 3.4327855 -0.72484022
-1.7644267 6.7262526 -0.20504694
-1.3267289 3.5226104 -0.71922213
-1.7666759 6.7412653 -0.092922226
-1.3395529 3.6165683 -0.71134865
-1.8293635 7.1994295 0.030790046
-1.3557589 3.735389 -0.7076878
-2.0987425 9.1723824 0.25011951
-1.3777342 3.8966246 -0.71149421
-2.0933688 9.1307554 0.41714311
-1.391572 3.997849 -0.69079792
-2.086401 9.0774679 0.58165532
-1.4181917 4.1930962 -0.69038975
-2.0794485 9.0242987 0.74566859
-1.4406881 4.4135818 -0.68618989
-1.5595454 5.3070521 -0.81595224
-1.566704 5.3596616 -0.74395353
-1.1737006 2.4058654 -0.34656066
-1.572287 5.3978882 -0.50208658
-1.181738 2.4664059 -0.36339295
-1.1816136 2.4652328 -0.3475278
-1.5711703 5.3870282 -0.33744153
-1.1804639 2.456326 -0.32871073
-1.5735228 5.4034643 -0.25724736
-1.3084764 3.4224157 -0.72021872
-1.7576346 6.7836618 -0.20625769
-1.3214332 3.5195632 -0.71776217
-1.7577519 6.7828293 -0.092850819
-1.3354588 3.6247091 -0.7140668
-1.8138216 7.2015247 0.030819669
-1.3508238 3.7398798 -0.70895368
-2.0866494 9.2445669 0.25349849
-1.3728272 3.904995 -0.71385753
-2.0793121 9.1870031 0.42101008
-1.3856176 4.0005927 -0.69133526
-2.0743685 9.1474018 0.58808702
-1.4124254 4.2016854 -0.69239432
-2.0686388 9.1019144 0.75461918
-1.4325641 4.4126883 -0.68571424
-1.5485916 5.3065209 -0.81551594
-1.556864 5.3688893 -0.74540305
-1.5649687 5.4299154 -0.67213732
-1.5662346 5.4382324 -0.58978683
-1.1712887 2.3990543 -0.34280956
-1.5664845 5.4387298 -0.50666517
-1.1756896 2.4329331 -0.34637088
-1.5664904 5.4373465 -0.42316937
-1.1803824 2.4690435 -0.34923148
-1.562634 5.4062653 -0.3386541
-1.1799722 2.4656098 -0.33276439
-1.56779 5.4445233 -0.2590431
-1.3051219 3.4340315 -0.72482139
-1.7460449 6.8134232 -0.20684415
-1.3173108 3.527626 -0.720653
-1.7399968 6.7649956 -0.092840925
-1.3300519 3.6254213 -0.71405536
-1.7958126 7.1917982 0.030562654
-1.3448137 3.7387595 -0.70830339
-2.0718307 9.3089828 0.25650406
-1.3655611 3.8982463 -0.71146965
-2.065217 9.2552624 0.42573512
-1.3785434 3.9976451 -0.69022304
-2.058876 9.2036676 0.59321064
-1.4059606 4.2083931 -0.69389206
-2.0535669 9.1599941 0.76123285
-1.4247799 4.4038777 -0.68340439
-1.5349922 5.2707872 -0.80763626
-1.5539898 5.4188108 -0.75458455
-1.5584925 5.4526424 -0.67565829
-1.1675454 2.3796153 -0.34562317
-1.5590127 5.4551406 -0.5919745
-1.1711568 2.407979 -0.3474915
-1.5577786 5.4438572 -0.50710398
-1.1772743 2.4561677 -0.35801184
-1.5590615 5.4523587 -0.42443293
-1.1789602 2.4692268 -0.34922814
-1.5585812 5.4470224 -0.3413786
-1.1783327 2.4639778 -0.33194971
-1.5591166 5.4496689 -0.25920367
-1.3008808 3.4327161 -0.72404331
-1.7345637 6.8249826 -0.20703554
-1.3132917 3.5300226 -0.72136849
-1.714753 6.6674213 -0.092923746
-1.3267252 3.6353283 -0.71745461
-1.7618856 7.034893 0.026701555
-1.3404876 3.7431393 -0.7095685
-2.0609934 9.3768482 0.25969678
-1.3601015 3.8970242 -0.71086401
-1.7405499 6.8632259 0.25426531
-1.3737936 4.0040741 -0.6918577
-2.0491099 9.2771988 0.60002273
-1.4001774 4.2110891 -0.69438237
-2.0436747 9.2313595 0.76948458
-1.418329 4.4125385 -0.68522143
-1.5249925 5.272047 -0.80761117
-1.5346131 5.3479414 -0.74093914
-1.5528404 5.493144 -0.68207216
-1.5563169 5.5193682 -0.60078371
-1.1703734 2.4134204 -0.35029876
-1.5551605 5.508265 -0.5144397
-1.1748245 2.4492669 -0.35442519
-1.5557212 5.5109916 -0.42972928
-1.1777902 2.4730201 -0.35093135
-1.5525831 5.4839768 -0.34382316
-1.1762918 2.4605501 -0.33032289
-1.5551075 5.5025311 -0.26154131
-1.2958879 3.4296231 -0.72249436
-1.6953969 6.6283855 -0.20258249
-1.3073215 3.5213819 -0.71772951
-1.6977972 6.6453676 -0.092915669
-1.3208944 3.6303778 -0.71539587
-1.7245926 6.858223 0.022358581
-1.3352631 3.7457075 -0.71019286
-1.3548917 3.9034553 -0.71262997
-1.7248147 6.855154 0.25359285
-1.366387 3.9953153 -0.68909657
-2.0356627 9.3451195 0.60628188
-1.3935757 4.213872 -0.69486952
-2.0291512 9.2892427 0.7761054
-1.4115672 4.4153318 -0.68566144
-1.5082896 5.212985 -0.79476404
-1.5417825 5.4876862 -0.76704615
-1.5283494 5.3748412 -0.66240311
-1.5514989 5.5638685 -0.60683054
-1.1685897 2.4100795 -0.34842116
-1.5494511 5.5449982 -0.51855338
-1.1746424 2.4600997 -0.35979527
-1.5490731 5.5399017 -0.43227148
-1.1756136 2.4678209 -0.34836644
-1.5481997 5.5307541 -0.34695297
-1.1748022 2.4607334 -0.33031887
-1.5494933 5.5394554 -0.26315051
-1.2931697 3.4429796 -0.72786409
-1.6803882 6.6141157 -0.20219383
-1.3036951 3.5293398 -0.72061872
-1.682519 6.6291122 -0.092900589
-1.3165227 3.6347044 -0.71674669
-1.7092257 6.8460131 0.022054777
-1.3305751 3.750104 -0.71145505
-1.7097666 6.8477888 0.13784353
-1.3488514 3.9003501 -0.71142763
-1.7095022 6.842968 0.25263739
-1.3605533 3.9960332 -0.68908077
-2.0243244 9.4227486 0.61348301
-1.3875964 4.2185073 -0.69586068
-2.0184641 9.3706036 0.78554273
-1.4052488 4.4219732 -0.6870178
-1.5013394 5.2335291 -0.79887307
-1.5320066 5.4908419 -0.76738524
-1.5411754 5.5661473 -0.69360745
-1.5455024 5.6005011 -0.61177045
-1.1672373 2.4102421 -0.34841728
-1.5428376 5.5758085 -0.5219745
-1.1725234 2.454951 -0.35710394
-1.542032 5.5668249 -0.43462777
-1.1762091 2.4859664 -0.35689795
-1.5426178 5.5696087 -0.34953123
-1.1748049 2.4736214 -0.33599418
-1.544147 5.5803452 -0.26493901
-1.2877897 3.4343281 -0.7240079
-1.6664069 6.6077404 -0.20197943
-1.299807 3.535439 -0.7227816
-1.6687516 6.6247234 -0.092869565
-1.3114686 3.6334181 -0.71605068
-1.6946396 6.8397102 0.021899506
-1.3254203 3.7507238 -0.71144015
-1.6949617 6.8395081 0.13740583
-1.3439487 3.9067101 -0.71319216
-1.6954408 6.8406401 0.25239325
-1.3549426 3.9986448 -0.68961287
-2.0111506 9.4885082 0.61956096
-1.3820469 4.2269716 -0.69785905
-2.0054536 9.4361849 0.79310846
-1.3971254 4.4209657 -0.68653435
-1.4893059 5.221149 -0.79594558
-1.5250058 5.5292692 -0.77434295
-1.5305886 5.5753384 -0.69485968
-1.5377758 5.6353126 -0.6164276
-1.165715 2.4104204 -0.34841251
-1.5347667 5.60676 -0.52538896
-1.1688333 2.4373789 -0.34814239
-1.5326492 5.5859718 -0.43624371
-1.1728071 2.4717968 -0.35006386
-1.5343933 5.5986977 -0.35141677
-1.1732941 2.4756389 -0.33680022
-1.5375177 5.6233664 -0.26681161
-1.2831864 3.436727 -0.72476172
-1.6510677 6.6034994 -0.20180161
-1.2946774 3.5360405 -0.72276568
-1.6667078 6.7357168 -0.092697248
-1.3066748 3.6396594 -0.71807951
-1.6783903 6.8335638 0.021752194
-1.3191867 3.7476377 -0.71014601
-1.6803463 6.8472557 0.1377397
-1.3393973 3.9226274 -0.71792096
-1.6799273 6.8404503 0.25229883
-1.3481488 3.9975049 -0.68904346
-1.9963582 9.5664244 0.62678081
-1.3749754 4.2297497 -0.69834071
-1.9906175 9.5119162 0.80186069
-1.3907405 4.4354086 -0.68972009
-1.1601236 2.3755183 -0.38456887
-1.4806159 5.2378955 -0.79921931
-1.5133978 5.528614 -0.77393705
-1.1595473 2.3694263 -0.35280412
-1.5197302 5.5825367 -0.69578725
-1.5291739 5.6642051 -0.62025332
-1.1636095 2.4053254 -0.34559682
-1.5278337 5.6495423 -0.53018034
-1.1701785 2.4642231 -0.36157131
-1.5240393 5.6130123 -0.43859059
-1.172088 2.4809809 -0.35432595
-1.5273268 5.6396685 -0.35412234
-1.1709648 2.4703851 -0.33436048
-1.5286171 5.6485119 -0.26786327
-1.2785704 3.4391117 -0.72551435
-1.6355398 6.5972204 -0.20157664
-1.2895467 3.5366254 -0.72274864
-1.6519053 6.739418 -0.092645004
-1.3008047 3.6365442 -0.71669769
-1.6621876 6.8273621 0.02160807
-1.3144439 3.7577176 -0.71331698
-1.6641254 6.8410635 0.13740869
-1.333056 3.9233508 -0.71789992
-1.6633059 6.8302984 0.25149858
-1.3409396 3.9925199 -0.68737447
-1.9804233 9.638382 0.63344336
-1.3683193 4.2363524 -0.69982928
-1.9744313 9.579731 0.809681
-1.3843514 4.4341607 -0.68923956
-1.1579448 2.365665 -0.37798327
-1.4616268 5.1395965 -0.77810067
-1.5103085 5.5823631 -0.78384191
-1.5178386 5.6482878 -0.70637923
-1.162438 2.4054556 -0.34559271
-1.1673222 2.4501464 -0.35440189
-1.5182883 5.6437092 -0.4413107
-1.1709254 2.4829302 -0.35517472
-1.1692426 2.466898 -0.33273315
-1.2746165 3.4376936 -0.72473252
-1.6232979 6.5905352 -0.20136042
-1.2861582 3.5426283 -0.72491044
-1.6262133 6.6134863 -0.092753813
-1.2963668 3.6351459 -0.71600091
-1.6505141 6.8306723 0.021698579
-1.3099142 3.7582214 -0.71330106
-1.6515629 6.8364305 0.13716386
-1.3287419 3.9295959 -0.71966314
-1.6514448 6.8316183 0.25154024
-1.3352169 3.9873517 -0.68570954
-1.9698589 9.7136841 0.64046901
-1.3628347 4.2389097 -0.70031339
-1.9642432 9.656805 0.81866163
-1.3768222 4.4388933 -0.69012779
-1.4283525 4.92276 -0.73175043
-1.1578 2.3772178 -0.37117809
-1.5002019 5.5973005 -0.78637499
-1.5081743 5.6691904 -0.70955479
-1.5117871 5.6999879 -0.62486953
-1.1598265 2.3950746 -0.33996606
-1.5122576 5.7012157 -0.53585362
-1.1667931 2.4609964 -0.35976928
-1.5104055 5.6806221 -0.44456911
-1.1693629 2.4849186 -0.35602176
-1.5087326 5.6617794 -0.35541892
-1.1673552 2.4652638 -0.33191556
-1.5125533 5.6944909 -0.26978594
-1.2699866 3.440053 -0.7254833
-1.607854 6.5841646 -0.20113012
-1.2815919 3.548748 -0.72706717
-1.6081702 6.5832548 -0.092737481
-1.2921095 3.646955 -0.72007167
-1.6347889 6.8283548 0.021657661
-1.3048846 3.7663932 -0.7158314
-1.6360567 6.8361015 0.13712509
-1.3219765 3.9264872 -0.71845263
-1.6359782 6.8312883 0.25145489
-1.3292856 3.9937978 -0.68733233
-1.9541411 9.7954998 0.64808416
-1.3561162 4.2454782 -0.70179892
-1.9472448 9.724577 0.82649386
-1.370306 4.4493666 -0.69239235
-1.4374397 5.0988884 -0.76892883
-1.1550869 2.3638494 -0.36271042
-1.4844031 5.5515227 -0.77750117
-1.1562696 2.374975 -0.35584438
-1.5004597 5.7037458 -0.71498311
-1.5017753 5.7129931 -0.62648141
-1.1589719 2.4004951 -0.34277111
-1.5022647 5.7142544 -0.5371893
-1.1641163 2.4504893 -0.35438967
-1.5029557 5.7174535 -0.4478268
-1.1684364 2.4922912 -0.35942924
-1.5028052 5.7125621 -0.35880381
-1.1661291 2.4690692 -0.33353189
-1.5028502 5.7095757 -0.27037778
-1.2657996 3.4442072 -0.72700274
-1.5930574 6.5756702 -0.20085607
-1.2757595 3.5399914 -0.72342181
-1.5938098 6.5787344 -0.09269087
-1.2867444 3.6456294 -0.71936971
-1.6203456 6.8298759 0.021714166
-1.2995514 3.7688608 -0.71644777
-1.6207868 6.8296747 0.13679932
-1.3163654 3.9309192 -0.71961606
-1.6203328 6.8209 0.25065988
-1.3221095 3.9848847 -0.68456322
-1.9395013 9.8791294 0.65588921
-1.3489764 4.2442846 -0.70126766
-1.9336617 9.8158798 0.8371436
-1.3634564 4.4481115 -0.69190627
-1.4124743 4.9342484 -0.73375022
-1.483495 5.638567 -0.79365104
-1.1545848 2.3699563 -0.35278517
-1.4913132 5.7126198 -0.71622974
-1.1552143 2.375757 -0.34265143
-1.497581 5.7711697 -0.63444334
-1.158426 2.4076562 -0.34651321
-1.4998974 5.7903891 -0.54588497
-1.1627417 2.4506302 -0.35438401
-1.4962273 5.7501745 -0.45072013
-1.1648091 2.4708443 -0.34918141
-1.4975166 5.7592363 -0.36191666
-1.1647098 2.4692147 -0.33352607
-1.5000048 5.7801619 -0.27351379
-1.2615807 3.4427834 -0.72621751
-1.5803317 6.5709438 -0.2006743
-1.2711043 3.536721 -0.72195375
-1.5810947 6.5740061 -0.092648372
-1.2816238 3.6404839 -0.7173056
-1.6069944 6.8252153 0.02162005
-1.294669 3.7693615 -0.71642768
-1.6074564 6.825016 0.13656487
-1.3108693 3.9295623 -0.71900076
-1.6078516 6.8241844 0.2508539
-1.31686 3.9873559 -0.68508977
-1.9255434 9.9466124 0.66218382
-1.3432405 4.2487631 -0.70225078
-1.9196903 9.8812027 0.84473753
-1.3558488 4.4527822 -0.69278938
-1.1536465 2.3762002 -0.38454348
-1.383859 4.7384844 -0.69195241
-1.4725188 5.647563 -0.79507214
-1.1551501 2.3906598 -0.36499614
-1.4850957 5.7727504 -0.72583324
-1.1544653 2.3828454 -0.34655553
-1.4894954 5.8137789 -0.64018577
-1.1569124 2.4078069 -0.34650671
-1.4902442 5.817306 -0.54882103
-1.16058 2.4454541 -0.35169041
-1.4876964 5.7870502 -0.45396882
-1.1641332 2.481818 -0.35429478
-1.4899569 5.8061085 -0.36501777
-1.1631808 2.4712043 -0.33432996
-1.4906583 5.8092022 -0.27473211
-1.2565646 3.4414277 -0.72542816
-1.564824 6.5624418 -0.20039181
-1.2670436 3.5483644 -0.72628289
-1.5661845 6.5714722 -0.092590764
-1.2763472 3.642899 -0.71796387
-1.5915161 6.8247471 0.021636918
-1.2884438 3.7661715 -0.71512663
-1.5920032 6.8245487 0.13653491
-1.3054243 3.9397016 -0.72194046
-1.5920349 6.819746 0.25049353
-1.310137 3.986093 -0.68451279
-1.9082201 10.026376 0.66963106
-1.3358797 4.2494965 -0.70221913
-1.9027946 9.9627256 0.85423255
-1.3492054 4.4632025 -0.69504893
-1.3747265 4.7315025 -0.69026083
-1.4577209 5.6094913 -0.78766447
-1.1525013 2.3770797 -0.35684544
-1.4775187 5.8151274 -0.73253947
-1.4807153 5.8444777 -0.64427215
-1.1554825 2.4079449 -0.34650025
-1.4839132 5.8738046 -0.55520469
-1.1592027 2.4473836 -0.35257894
-1.4799923 5.8278108 -0.45758373
-1.1629843 2.4873805 -0.35684758
-1.1617348 2.4731803 -0.33513391
-1.4801159 5.8202562 -0.27513379
-1.2521695 3.443707 -0.72617602
-1.5505565 6.5577927 -0.20019817
-1.2626796 3.5544033 -0.72843641
-1.5515327 6.5628395 -0.092541263
-1.2715355 3.6471419 -0.71930408
-1.576705 6.8221598 0.021604255
-1.2830946 3.7685924 -0.71573961
-1.5764579 6.8140078 0.13602607
-1.2993836 3.9402847 -0.72191322
-1.5776633 6.8211336 0.25055838
-1.3036076 3.9828594 -0.68338716
-1.8927662 10.115883 0.67802072
-1.3294683 4.255949 -0.70370013
-1.8873663 10.050019 0.86443287
-1.3428665 4.4677072 -0.69593483
-1.1511161 2.376441 -0.3845318
-1.3669777 4.7282977 -0.6893993
-1.4440763 5.5673313 -0.77952605
-1.1527002 2.3926225 -0.3660022
-1.4710698 5.8573661 -0.73924881
-1.4787472 5.936182 -0.65691411
-1.1546948 2.4133432 -0.3493045
-1.4797388 5.9420414 -0.56297016
-1.1575159 2.4439492 -0.35078156
-1.4778018 5.9160299 -0.46560115
-1.1610258 2.4821138 -0.35428047
-1.4765497 5.8975787 -0.37108451
-1.1591539 2.4605694 -0.32944882
-1.4796733 5.9266529 -0.27989209
-1.2473032 3.4348903 -0.72231442
-1.537745 6.5509605 -0.19996566
-1.258523 3.5566649 -0.72914118
-1.5413027 6.5838861 -0.092459664
-1.2673098 3.6513147 -0.7206459
-1.5630563 6.8133974 0.02141957
-1.2783841 3.7709377 -0.71635455
-1.5635875 6.8132076 0.13599013
-1.2938793 3.9388824 -0.72129482
-1.5649791 6.8223219 0.25061804
-1.2976487 3.977623 -0.68171495
-1.8785472 10.19321 0.68527442
-1.323491 4.2584524 -0.70417523
-1.8740788 10.135049 0.87439197
-1.3354397 4.4703369 -0.6963563
-1.1486233 2.3632333 -0.37575084
-1.3592985 4.7368555 -0.69101179
-1.4285281 5.5154471 -0.76954156
-1.4633564 5.9036551 -0.74659181
-1.4704863 5.9787035 -0.66264856
-1.1534008 2.415235 -0.35023415
-1.4723743 5.9945793 -0.56888652
-1.1559782 2.4440892 -0.35077405
-1.4698451 5.9607487 -0.46957529
-1.1584332 2.471452 -0.34915215
-1.4725738 5.9860954 -0.37705499
-1.1590005 2.4771042 -0.33674157
-1.4740524 5.9973793 -0.28300697
-1.2434 3.4426615 -0.72536623
-1.5237242 6.5482197 -0.199811
-1.2534529 3.5552542 -0.72839206
-1.5259584 6.5672064 -0.09241505
-1.2621236 3.6517861 -0.72062057
-1.5477672 6.8047504 0.021245286
-1.2728446 3.7714415 -0.71632743
-1.5486784 6.8085451 0.13577338
-1.2881761 3.9432366 -0.72245198
-1.549531 6.8117075 0.24983628
-1.2915044 3.9781816 -0.68168491
-1.8630133 10.292589 0.69461906
-1.3168507 4.2629433 -0.70514923
-1.8571422 10.216363 0.8839016
-1.3275501 4.4729838 -0.69677383
-1.3505757 4.7395859 -0.69137979
-1.4026482 5.3460298 -0.73748559
-1.4494541 5.8890247 -0.743954
-1.4619309 6.0291672 -0.66947883
-1.1515685 2.4118483 -0.34835297
-1.4609251 6.0115395 -0.57065928
-1.1546476 2.4477966 -0.35255653
-1.4605709 6.0015478 -0.47317541
-1.1556616 2.4589851 -0.34316999
-1.4608601 5.9991426 -0.37781179
-1.1566596 2.4699693 -0.33348823
-1.4609565 5.9945183 -0.28276068
-1.2390251 3.4486065 -0.72764701
-1.508575 6.5415211 -0.1995617
-1.2473216 3.5445662 -0.72401506
-1.509912 6.5505476 -0.092364028
-1.2563138 3.6485214 -0.71922934
-1.5327194 6.8080788 0.021371946
-1.2671365 3.7738457 -0.71693528
-1.5334711 6.8098803 0.13585098
-1.2814462 3.9399929 -0.72123265
-1.5341659 6.8110542 0.2497717
-1.2846709 3.97492 -0.68055409
-1.8438869 10.374221 0.70228463
-1.3096081 4.2655225 -0.70561546
-1.8401787 10.319536 0.89600921
-1.3208328 4.4735546 -0.69673824
-1.1471603 2.3767891 -0.38451171
-1.3537806 4.8689299 -0.71861809
-1.1487094 2.3951328 -0.38170642
-1.3938055 5.3487539 -0.73780566
-1.4504254 6.0276165 -0.76641726
-1.1475005 2.378222 -0.34359121
-1.4529538 6.0517979 -0.67245537
-1.1510074 2.4207633 -0.35302949
-1.4530058 6.0461102 -0.57450813
-1.1540018 2.4568253 -0.35702622
-1.4535311 6.0461187 -0.47714961
-1.4531937 6.0358381 -0.38022029
-1.154794 2.4646235 -0.33104736
-1.4544895 6.0451965 -0.28496921
-1.2343786 3.4415884 -0.72455174
-1.4953786 6.528595 -0.19919106
-1.2440845 3.5579357 -0.72906774
-1.4965425 6.5356245 -0.092320874
-1.2517458 3.6489096 -0.71920514
-1.5198641 6.8071642 0.021390185
-1.2622415 3.7742612 -0.71690935
-1.5201304 6.8029938 0.1355352
-1.2764286 3.9442532 -0.72239101
-1.520341 6.798214 0.24884419
-1.2790999 3.9734633 -0.67997658
-1.8288503 10.457428 0.71012282
-1.3039069 4.2718339 -0.70709473
-1.8248122 10.396588 0.90504891
-1.3141406 4.4858236 -0.69944793
-1.3390992 4.7955256 -0.70286578
-1.1465265 2.385093 -0.3753531
-1.3814063 5.3221569 -0.73260123
-1.4400773 6.0522337 -0.77021003
-1.4465059 6.1258678 -0.68259114
-1.1496748 2.4226458 -0.35395801
-1.4467797 6.1223717 -0.5831697
-1.1524247 2.456955 -0.35701758
-1.4462355 6.1086655 -0.48276126
-1.1529673 2.4628403 -0.34486049
-1.4461248 6.1004839 -0.38453454
-1.1530565 2.4629321 -0.33022752
-1.4471068 6.1059437 -0.28761905
-1.2303888 3.4493272 -0.7276004
-1.4812975 6.5237331 -0.19898498
-1.2393185 3.5601974 -0.72976583
-1.4827826 6.5347481 -0.092248842
-1.2464193 3.6474605 -0.71849507
-1.505162 6.8043594 0.021371022
-1.2566918 3.7747173 -0.71687889
-1.5056245 6.8021812 0.13551818
-1.2705247 3.9466546 -0.72295099
-1.5061944 6.8013783 0.24906473
-1.2728163 3.9720497 -0.67939413
-1.2968861 4.2724104 -0.70705622
-1.8073883 10.48969 0.91598994
-1.3064809 4.4922876 -0.70077729
-1.1456182 2.3936923 -0.39546311
-1.3274949 4.763073 -0.69578922
-1.3615384 5.203434 -0.71011049
-1.4296105 6.0867233 -0.77560347
-1.1459004 2.3941057 -0.35237193
-1.4167559 5.9116278 -0.65246183
-1.1481125 2.4227693 -0.35394913
-1.4396589 6.2026539 -0.59228134
-1.1518185 2.4713547 -0.36417067
-1.436301 6.1514053 -0.48653239
-1.1512811 2.4629736 -0.3448509
-1.4397762 6.1890535 -0.39048231
-1.1516463 2.4667113 -0.33184001
-1.4384748 6.1647472 -0.29016966
-1.2252524 3.4460287 -0.72603583
-1.4667587 6.5228767 -0.19885924
-1.2346699 3.5680442 -0.73263615
-1.4677681 6.5279112 -0.092177406
-1.241647 3.6572685 -0.72187161
-1.4899449 6.805562 0.021457717
-1.2510997 3.7789626 -0.71812081
-1.4898187 6.7954149 0.13522147
-1.2639626 3.9452572 -0.72232121
-1.491035 6.802577 0.24915116
-1.2658918 3.9668095 -0.67771101
-2.5681944 20.595358 1.6722624
-1.2897437 4.2768583 -0.7080217
-2.4890943 19.550802 1.9909177
-1.2997119 4.4928036 -0.70073742
-1.14616 2.4188111 -0.41190583
-1.3201632 4.765594 -0.69615835
-1.3542117 5.2217369 -0.71336865
-1.4205549 6.1131487 -0.77971971
-1.1441758 2.3872373 -0.34845543
-1.351881 5.1775398 -0.54984289
-1.1465579 2.4193432 -0.35206836
-1.4307933 6.2352095 -0.59588939
-1.149875 2.4643283 -0.36058104
-1.428484 6.1959429 -0.4904958
-1.1496158 2.4594722 -0.34313613
-1.4308529 6.2197495 -0.39246929
-1.1498384 2.4613485 -0.32939863
-1.4312749 6.2173939 -0.29245731
-1.2217449 3.4537034 -0.72908556
-1.4552224 6.5297718 -0.19891985
-1.2299048 3.562799 -0.73043549
-1.4566864 6.5407896 -0.092090771
-1.2374643 3.6632445 -0.72388905
-1.4771125 6.8045349 0.021483406
-1.2468795 3.7887895 -0.72128034
-1.4771826 6.7963781 0.13529594
-1.2587578 3.9475696 -0.72288293
-1.4776515 6.7935925 0.24851482
-1.2604995 3.9672203 -0.67767924
-1.2832532 4.2734709 -0.70697731
-2.3711729 18.5977 1.8777038
-1.2927222 4.5030766 -0.70298308
-1.1467218 2.448956 -0.43163621
-1.3116829 4.7662163 -0.69610673
-1.1442291 2.4108045 -0.39119214
-1.3422968 5.1930428 -0.70779437
-1.3481914 5.2693467 -0.64169484
-1.1422107 2.3786333 -0.34356064
-1.3447369 5.2138157 -0.55474585
-1.1450927 2.4194508 -0.35205942
-1.4186878 6.2460585 -0.59695953
-1.1480294 2.4608774 -0.3587808
-1.4197779 6.2524958 -0.49554491
-1.1481581 2.4613929 -0.34397972
-1.4202623 6.2505379 -0.39444393
-1.1485057 2.4651124 -0.33101094
-1.4211466 6.2541962 -0.29400826
-1.2179078 3.4650936 -0.73366749
-1.4419054 6.5347586 -0.1989245
-1.2249783 3.5631604 -0.73040551
-1.4439328 6.5537577 -0.091991648
-1.2319806 3.6598759 -0.72249436
-1.4623094 6.7996073 0.021423444
-1.2410219 3.7854178 -0.719971
-1.4627137 6.7954369 0.13528718
-1.2525605 3.9461091 -0.72225291
-1.4636452 6.7986212 0.24888621
-1.2542518 3.9657502 -0.67709339
-1.2770417 4.2855706 -0.70995778
-1.2844338 4.5017076 -0.70247334
-1.1452761 2.4524112 -0.433819
-1.3033597 4.7766094 -0.69811583
-1.1429155 2.4143004 -0.39329743
-1.3298556 5.162385 -0.70184791
-1.3304451 5.1637363 -0.62426633
-1.3864138 5.9813766 -0.66161984
-1.1427344 2.4072158 -0.34549418
-1.406572 6.2688189 -0.59939915
-1.1465803 2.4645648 -0.36056066
-1.1471884 2.4723411 -0.34908807
-1.1464547 2.4597585 -0.3285675
-1.2155539 3.5041323 -0.7497707
-1.4295394 6.5656948 -0.19948883
-1.2202539 3.570967 -0.73327231
-1.4303002 6.5667458 -0.091884181
-1.2263372 3.6583879 -0.72177815
-1.4468324 6.7966862 0.021420792
-1.2349842 3.783942 -0.71929616
-1.4472737 6.7925167 0.13519077
-1.2460173 3.9446542 -0.72161937
-1.4480816 6.7937155 0.24855478
-1.2479124 3.9681239 -0.67760128
-2.3700099 20.076811 1.6229126
-1.2698234 4.289959 -0.71091843
-2.3411069 19.621367 1.9988966
-1.2778904 4.5060511 -0.70334607
-1.1439856 2.4541745 -0.43490648
-1.2966064 4.7888336 -0.70054567
-1.1440452 2.4533567 -0.41761053
-1.3184078 5.1178379 -0.69333875
-1.3216789 5.1603708 -0.62356818
-1.1423218 2.4223533 -0.3679747
-1.3892949 6.1896515 -0.69048697
-1.1414745 2.4073007 -0.34548599
-1.3979011 6.3112202 -0.60414535
-1.1448315 2.4593053 -0.35786593
-1.3991438 6.3197994 -0.50142509
-1.1457577 2.4724376 -0.34907877
-1.3985205 6.3000393 -0.39756674
-1.145983 2.4744494 -0.33504575
-1.399828 6.3097401 -0.29628998
-1.2163792 3.5836582 -0.78277868
-1.419944 6.6044188 -0.20023945
-1.2158853 3.5712619 -0.733244
-1.4195398 6.5875177 -0.091778025
-1.2219814 3.6624508 -0.72311121
-1.4333783 6.7855711 0.021207675
-1.2304244 3.7899494 -0.72117704
-1.4339821 6.7834024 0.13479303
-1.2407967 3.9469206 -0.7221778
-1.4348062 6.7846136 0.24792515
-1.2425162 3.968488 -0.67756629
-2.3289113 20.169386 1.6317033
-1.2638295 4.2942429 -0.71188551
-2.2724946 19.283602 1.9587634
-1.2702967 4.5084925 -0.70375293
-1.1424986 2.4559469 -0.43599248
-1.2870922 4.7737608 -0.69718415
-1.1428657 2.4602375 -0.4218297
-1.3103423 5.1420002 -0.69768542
-1.3147337 5.2043381 -0.63057572
-1.138467 2.3823838 -0.34548938
-1.3890212 6.3901596 -0.71823204
-1.1400462 2.407393 -0.34547645
-1.3899338 6.393364 -0.61346745
-1.1430336 2.4558372 -0.35606503
-1.390203 6.3862371 -0.50737596
-1.1443524 2.4761539 -0.35077417
-1.3896769 6.3665934 -0.40199101
-1.1441386 2.4709044 -0.33341312
-1.3913679 6.3823633 -0.2994557
-1.2093792 3.5508034 -0.7689172
-1.4082571 6.6392374 -0.20088828
-1.2108208 3.5697212 -0.73248613
-1.4079306 6.6223383 -0.091638133
-1.2167615 3.6627884 -0.72307634
-1.4189361 6.7845001 0.021254078
-1.2247123 3.7884192 -0.72050208
-1.4199486 6.7883129 0.13508038
-1.2346185 3.9454057 -0.72154427
-1.4207923 6.7895174 0.2483051
-1.236752 3.9746428 -0.67917103
-2.2808754 20.260281 1.6403592
-1.2569786 4.2985644 -0.71284562
-2.2187805 19.243286 1.9539313
-1.262918 4.5147991 -0.70507479
-1.1415583 2.4677353 -0.44365704
-1.279047 4.7820992 -0.69877774
-1.1413602 2.4620311 -0.42287606
-1.3007482 5.1425915 -0.69761938
-1.303689 5.1832638 -0.62697303
-1.1386809 2.4103441 -0.36111456
-1.3767819 6.4087763 -0.7206201
-1.1387175 2.4092455 -0.34640306
-1.3770057 6.4001331 -0.61406446
-1.1417633 2.4612911 -0.35873955
-1.3785028 6.412899 -0.50966287
-1.1428223 2.4780607 -0.35161597
-1.1422122 2.465528 -0.33096951
-1.3797344 6.4091034 -0.30053896
-1.394331 6.6400967 -0.20079249
-1.2055532 3.5644431 -0.73027766
-1.3955184 6.6471491 -0.091508433
-1.2121903 3.6743736 -0.72712839
-1.4043838 6.7813921 0.021253929
-1.2192299 3.7906566 -0.72110111
-1.4052868 6.7832127 0.13489075
-1.229336 3.9591277 -0.72565365
-1.4053034 6.7704859 0.2469797
-1.2312876 3.9865413 -0.6824199
-2.2340121 20.378872 1.6516706
-1.2498782 4.2990022 -0.71279681
-2.1732993 19.333649 1.964627
-1.2553091 4.5093961 -0.70364839
-1.1400272 2.4678252 -0.44364619
-1.2715651 4.7923403 -0.70078576
-1.1399385 2.4638152 -0.42392272
-1.2917163 5.1431227 -0.69755548
-1.1390805 2.4454265 -0.39643413
-1.2985454 5.2547531 -0.63847762
-1.3701279 6.5143375 -0.73513073
-1.137746 2.416384 -0.3501389
-1.3741329 6.5714607 -0.6337052
-1.1399781 2.4560213 -0.3560437
-1.3742003 6.5587902 -0.52292496
-1.1413772 2.4799576 -0.35245806
-1.3735352 6.5334778 -0.41315168
-1.1408075 2.467442 -0.3317697
-1.376695 6.5753984 -0.30794251
-1.1994686 3.5440009 -0.76577836
-1.3868182 6.7386837 -0.20283207
-1.2017249 3.5796065 -0.73604292
-1.3853886 6.6998348 -0.091340169
-1.2072436 3.6746645 -0.7270934
-1.3909218 6.7821827 0.021349177
-1.2141683 3.7947519 -0.7223388
-1.3913807 6.7760258 0.13460161
-1.2234911 3.9575579 -0.72502005
-1.3922604 6.7772484 0.2475016
-1.2263296 4.0022459 -0.68676656
-2.1819344 20.363983 1.6503335
-1.2439448 4.3129234 -0.71627533
-2.1275411 19.376127 1.9696705
-1.2484511 4.5175791 -0.70542848
-1.1385789 2.4695814 -0.44473147
-1.2635084 4.7927914 -0.70072716
-1.1383373 2.4622045 -0.42285436
-1.2823695 5.1377387 -0.69638765
-1.1392616 2.4781804 -0.41575837
-1.3571609 6.5130796 -0.73476189
-1.1361073 2.4111655 -0.34731999
-1.3642236 6.6297235 -0.64026248
-1.1380416 2.4471731 -0.35155767
-1.3656512 6.6410532 -0.53032768
-1.1396446 2.4764309 -0.35074085
-1.3660693 6.6338186 -0.41988689
-1.1395794 2.4730043 -0.33419099
-1.3682907 6.659915 -0.31163776
-1.1993433 3.6309342 -0.80184609
-1.3751715 6.7713776 -0.20343043
-1.1971368 3.5817301 -0.7367335
-1.2018086 3.6655519 -0.72365111
-1.3772391 6.7789431 0.021348253
-1.2088871 3.7950473 -0.72230035
-1.3778456 6.7747822 0.13460307
-1.2175561 3.9540639 -0.72379249
-1.3790724 6.7819815 0.2478839
-1.221485 4.02178 -0.69220835
-2.8624823 33.599239 2.9067571
-1.2369156 4.3075008 -0.71471554
-2.079906 19.388742 1.9711969
-1.2404414 4.5219026 -0.70628363
-1.1366953 2.4663312 -0.4425258
-1.2546388 4.7971811 -0.70148528
-1.137429 2.4792531 -0.43341434
-1.2725196 5.1441669 -0.69741398
-1.1371086 2.4696739 -0.41065741
-1.2757418 5.1966858 -0.62869298
-1.347682 6.6127691 -0.74842268
-1.1349176 2.4183075 -0.35105371
-1.3518227 6.6781311 -0.64565569
-1.1375951 2.4722714 -0.36407548
-1.3537575 6.699523 -0.53551823
-1.1378284 2.4747157 -0.34987503
-1.3545418 6.69837 -0.42414534
-1.35672 6.7245522 -0.31441265
-1.1955022 3.6644235 -0.8156305
-1.3593973 6.7602005 -0.20305663
-1.1933051 3.6118002 -0.74828881
-1.3617405 6.7892504 -0.09100087
-1.1967295 3.6752362 -0.72701585
-1.3621033 6.7797451 0.021461293
