# .PCD v0.7 - Point Cloud Data file format
VERSION 0.7
FIELDS x y z
SIZE 4 4 4
TYPE F F F
COUNT 1 1 1
WIDTH 1485
HEIGHT 1
VIEWPOINT 0 0 0 1 0 0 0
POINTS 1485
DATA ascii
22.494675 -13.364634 2.7041945
2.3206184 -0.85140264 -1.1192658
2.4925821 -0.9569329 -1.0673702
22.078529 -13.029877 3.9315865
3.1238172 -1.3584605 -1.118108
23.734716 -14.017805 4.916091
4.10396 -1.9825307 -1.2071596
24.859226 -14.671833 5.8700118
54.334431 -32.79073 14.243142
11.159562 -6.4851956 -2.0232606
54.454315 -32.771145 15.867109
0.38201475 0.37375838 -0.99499369
21.123545 -12.928679 -2.963012
0.52392125 0.28158891 -1.0282371
29.003855 -17.949215 -3.1398275
0.57584989 0.2500428 -1.0031526
0.68568707 0.18004107 -1.0060383
26.179884 -16.048491 -1.3425273
0.72732985 0.1557343 -0.96901119
25.953424 -15.86038 -0.58918667
0.9428916 0.016267419 -1.0102525
7.7213068 -4.2356439 -0.025294647
1.1156096 -0.09415257 -1.0206399
22.971682 -13.884009 0.78704602
1.3091564 -0.21769452 -1.0289702
22.772636 -13.71962 1.4329797
1.5794387 -0.39104867 -1.0547906
22.481701 -13.497902 2.0602067
1.8909402 -0.5905149 -1.0790036
22.604567 -13.536938 2.7273328
2.3448591 -0.8819772 -1.1279578
21.853582 -13.027718 3.2694213
2.6506362 -1.0754288 -1.1116263
3.1172655 -1.3724629 -1.117749
23.755638 -14.139442 4.9349508
4.110342 -2.0092363 -1.2097552
24.87763 -14.796783 5.890996
5.0055046 -2.579494 -1.2289866
54.137783 -32.911369 14.230923
11.197118 -6.5629926 -2.030714
54.262726 -32.895721 15.853981
0.35749948 0.38479578 -0.98092163
21.049292 -12.967453 -2.9548976
0.51971114 0.2783252 -1.027106
28.786606 -17.926662 -3.1183937
0.56851602 0.24866807 -1.0003757
26.142094 -16.175142 -2.0962791
0.65982366 0.190642 -0.99380434
26.049265 -16.071184 -1.3343762
0.79970849 0.10046136 -1.0056806
25.873585 -15.914913 -0.58423078
0.92542624 0.020164013 -1.0035353
7.7226324 -4.2707586 -0.02370216
1.1620848 -0.13345909 -1.041653
22.959415 -13.970166 0.79209912
1.3129623 -0.22939551 -1.0317088
22.710138 -13.773057 1.4355439
1.6546984 -0.45102715 -1.0833213
22.338888 -13.499343 2.0546815
1.9453332 -0.63782632 -1.0983086
21.523396 -12.94541 2.6060176
2.3000205 -0.86573923 -1.1156671
21.760841 -13.058725 3.2654514
2.6294677 -1.0759851 -1.1070318
23.396118 -14.05093 4.1867418
3.2001584 -1.4429334 -1.1390194
23.683115 -14.190853 4.9332113
4.0715857 -2.0041127 -1.2025667
25.026058 -14.99102 5.9404287
53.943336 -33.005634 14.214916
11.25201 -6.6465459 -2.0407557
54.051964 -32.980595 15.830591
0.36825883 0.37200385 -0.98900402
20.966646 -13.000522 -2.9457304
0.52143717 0.27104437 -1.0295004
28.559662 -17.896564 -3.0960147
0.57471895 0.2381717 -1.0051543
26.061813 -16.230017 -2.0895395
0.67052889 0.17676342 -1.0007051
25.970741 -16.126938 -1.3286119
0.81799865 0.080953956 -1.0159405
25.833965 -15.995165 -0.58000267
0.96389472 -0.013330221 -1.0224106
1.1503694 -0.13426387 -1.0379635
52.73703 -33.165035 1.924976
1.3562534 -0.2674861 -1.0500213
52.883633 -33.172295 3.4158056
1.6547241 -0.46161938 -1.0846242
24.487103 -14.962198 2.2621379
1.8147688 -0.56296897 -1.056156
2.266614 -0.85676038 -1.1068143
21.386654 -12.910645 3.219641
2.6913419 -1.1312052 -1.1250883
20.880692 -12.55372 3.754678
3.1991932 -1.4589521 -1.1399294
23.723782 -14.313576 4.9546366
4.1234169 -2.0582047 -1.2147942
24.921209 -15.027248 5.9311581
5.5959539 -3.01336 -1.3406473
53.765301 -33.10952 14.203173
11.306526 -6.7304745 -2.0507782
53.877342 -33.087307 15.817643
0.39637566 0.34687567 -1.0081389
20.934748 -13.071912 -2.9432311
0.51258123 0.27056599 -1.0257127
26.081247 -16.400454 -2.8464804
0.55968523 0.24165642 -0.99816883
25.960018 -16.277266 -2.081208
0.68250024 0.16149426 -1.0083816
25.95611 -16.230652 -1.3256162
0.83599079 0.061016321 -1.0261756
25.903494 -16.152918 -0.5774622
1.0283201 -0.065169454 -1.053331
7.6886463 -4.3198562 -0.020787612
1.1571968 -0.14801681 -1.0422592
26.026348 -16.145121 0.92038023
1.3406889 -0.26706791 -1.0452538
26.00036 -16.084814 1.6654626
1.6082685 -0.44181335 -1.069123
25.844082 -15.940844 2.3977654
1.8590777 -0.60448205 -1.072222
23.371508 -14.31272 2.8477757
2.1812525 -0.81379259 -1.0822967
21.154799 -12.856333 3.195363
2.6989031 -1.1518477 -1.1284435
21.052223 -12.754825 3.7962475
3.1829922 -1.4659787 -1.1372116
23.724569 -14.417706 4.968822
3.9296305 -1.9518636 -1.1744267
24.786938 -15.050711 5.9159288
5.3770504 -2.896976 -1.30116
53.571053 -33.215961 14.18934
11.341057 -6.8049316 -2.0577869
53.691444 -33.199772 15.803766
0.39221072 0.34372288 -1.0069742
20.836212 -13.099453 -2.9321721
0.50225365 0.27114677 -1.0210475
25.916046 -16.405954 -2.8303893
0.51022565 0.26881194 -0.97189754
25.90489 -16.35475 -2.0763195
0.64439809 0.18028009 -0.9897722
33.005741 -20.959623 -1.6401323
0.8569473 0.038877487 -1.0379113
8.6594753 -5.0046325 -0.27713954
1.0213103 -0.0690943 -1.0515593
7.6735687 -4.346724 -0.019267216
1.1514709 -0.15336657 -1.0412191
22.427601 -13.920364 0.78902805
1.3377476 -0.27508056 -1.0454712
25.933271 -16.155052 1.6691319
1.6699414 -0.49446225 -1.0929582
21.835964 -13.462177 2.0317178
1.9127722 -0.65271962 -1.0914745
21.612368 -13.280723 2.6437104
2.2009044 -0.84049213 -1.0895636
21.142084 -12.941438 3.2036884
2.6771846 -1.1530577 -1.1238134
21.106199 -12.882297 3.8172004
3.227133 -1.513146 -1.1492292
23.879297 -14.620795 5.0147715
3.9430993 -1.9817148 -1.1785072
23.880404 -14.580438 5.7198715
5.3631392 -2.9147511 -1.2997535
53.37994 -33.323681 14.17631
11.365329 -6.873106 -2.0632191
53.485687 -33.298965 15.784094
0.39857209 0.33400089 -1.0122935
20.813927 -13.166233 -2.9307857
0.47898495 0.28148639 -1.0084926
25.841921 -16.457403 -2.8234522
0.5614717 0.227777 -1.0018526
25.894005 -16.447996 -2.0747876
0.65065002 0.16973245 -0.99429786
32.997814 -21.081295 -1.6372153
0.83847368 0.044472933 -1.0300964
0.99931431 -0.061743259 -1.042731
7.6085358 -4.3365469 -0.018480256
1.149343 -0.16006553 -1.0415572
22.357441 -13.961912 0.79143143
1.3038635 -0.26092064 -1.0332922
26.011011 -16.306179 1.6814358
1.4830425 -0.37800872 -1.026081
21.790205 -13.517581 2.0345681
1.9429326 -0.68407142 -1.1027671
21.59869 -13.356165 2.650212
2.2340374 -0.87486613 -1.1007954
21.149132 -13.028547 3.2138078
2.6417575 -1.1430963 -1.1152761
21.709806 -13.354298 3.9346983
3.2003701 -1.5111004 -1.1438115
21.203835 -12.99101 4.4754815
3.9101021 -1.9782187 -1.1724755
23.854227 -14.656317 5.7275457
5.312809 -2.9050508 -1.2914366
53.189636 -33.404209 14.159083
11.370674 -6.9229031 -2.0655084
53.303787 -33.38554 15.766596
0.40003836 0.32654625 -1.0148025
20.694641 -13.184719 -2.9172065
0.45379567 0.2921989 -0.99502009
25.796644 -16.547958 -2.8195779
0.55823386 0.22285676 -1.0015665
27.675879 -17.753065 -2.2038839
0.66836166 0.14993083 -1.0051385
33.079391 -21.288181 -1.6378175
0.84382153 0.032380104 -1.0342772
1.0121291 -0.079678774 -1.0501723
7.5890751 -4.3624811 -0.016926542
1.1402292 -0.16362536 -1.0391659
7.0603256 -4.0005322 0.20356505
1.3383331 -0.29497302 -1.0484198
21.269346 -13.314886 1.3743194
1.5491083 -0.4343363 -1.0516244
52.285778 -33.589302 4.9214501
1.9081585 -0.67380333 -1.0926329
2.2610717 -0.90787113 -1.1104535
21.731762 -13.507635 3.312366
2.6374712 -1.1567048 -1.1154977
24.175388 -15.058743 4.3872352
3.1315787 -1.4837154 -1.1283351
21.207464 -13.093031 4.4898057
3.904876 -1.9969052 -1.1726359
25.834242 -16.048204 6.2100945
5.2718992 -2.9060984 -1.2850857
52.985504 -33.515514 14.144751
11.444087 -7.0277767 -2.0788624
53.117752 -33.509289 15.755006
0.40034616 0.32058406 -1.0164177
20.684427 -13.264964 -2.9175484
0.47465026 0.27166033 -1.0088613
25.762217 -16.632427 -2.8167591
0.55832267 0.21641517 -1.0029891
0.63513255 0.16620255 -0.98895377
51.526409 -33.727551 -2.4596913
0.79319155 0.059941173 -1.0106469
8.3754978 -4.9341302 -0.26849151
0.99148202 -0.073609591 -1.0420417
7.4898777 -4.3311667 -0.016454384
1.1036582 -0.14713311 -1.0248342
1.2212152 -0.22397888 -1.0032785
21.399832 -13.490357 1.3894038
1.5522897 -0.4468689 -1.0540985
26.254627 -16.65262 2.4737256
1.8041241 -0.61446035 -1.0591207
22.466282 -14.118418 2.7754264
2.251842 -0.9147824 -1.1089499
20.801888 -12.98912 3.1821439
2.5210929 -1.0922521 -1.0848082
24.569117 -15.41707 4.4701185
3.195318 -1.5436586 -1.1451486
23.338259 -14.571888 4.9439459
3.9871337 -2.0723729 -1.1915225
24.922764 -15.562601 6.0111737
5.171875 -2.8638396 -1.2675645
52.810112 -33.617683 14.133587
6.6923656 -3.8775625 -1.3299655
52.926109 -33.601723 15.73699
0.40191829 0.31334388 -1.0189399
20.603865 -13.303371 -2.9089346
0.47907019 0.2621032 -1.0130048
25.783892 -16.76162 -2.81969
0.54482293 0.2190758 -0.99685609
0.66046214 0.14135671 -1.0037847
0.75011647 0.082166553 -0.9907766
8.4799414 -5.0442562 -0.26892895
0.99214458 -0.082729101 -1.0438262
7.4448185 -4.3374705 -0.015311822
1.0824459 -0.1415602 -1.0171497
1.1620958 -0.192729 -0.98114592
51.746834 -33.758373 3.4349692
1.5898008 -0.48380065 -1.0692438
26.335361 -16.822676 2.4912069
1.8938699 -0.68834126 -1.0905974
2.2198296 -0.90686023 -1.1005914
2.6219733 -1.1765054 -1.1138427
21.319984 -13.387706 3.9004643
3.1449473 -1.5273451 -1.1341051
23.159924 -14.558784 4.9210711
3.9545109 -2.071619 -1.1857504
24.941969 -15.685902 6.0323353
5.1989422 -2.9087615 -1.2738358
52.623383 -33.725365 14.121615
6.859416 -4.0238147 -1.3574517
52.729698 -33.703857 15.719941
0.40490925 0.30505955 -1.0223825
20.49861 -13.324639 -2.897155
0.46878505 0.26288831 -1.0083532
26.15629 -17.129496 -2.8581126
0.50760627 0.23855996 -0.97732759
0.67215776 0.12585759 -1.0114504
51.133549 -33.912384 -2.4334643
0.83309782 0.01629293 -1.0333446
8.5572844 -5.1371708 -0.26889169
1.0080953 -0.10258424 -1.0526999
7.1508389 -4.1761904 -0.017029956
1.1370721 -0.18875945 -1.0420766
7.045042 -4.0919313 0.20888515
1.1593473 -0.2002387 -0.98139524
21.175045 -13.531954 1.3879033
1.482393 -0.42050612 -1.0312986
1.7407067 -0.5948652 -1.0405895
22.055311 -14.04584 2.7441638
2.1527746 -0.8745178 -1.0815251
20.579882 -13.02843 3.1690648
2.6115625 -1.1850234 -1.1123374
21.52614 -13.620038 3.9494154
3.1011703 -1.5151983 -1.1246656
23.170948 -14.669686 4.937572
3.9349291 -2.0796061 -1.1827962
24.719881 -15.65073 5.9963951
5.2078524 -2.9416032 -1.2767407
52.420197 -33.821503 14.105244
52.549423 -33.815769 15.707621
0.39775038 0.30397093 -1.0193783
20.418016 -13.362276 -2.888597
0.4541254 0.26684988 -1.0010674
26.793371 -17.681852 -2.9233606
0.51494288 0.2267102 -0.98292875
0.67179585 0.11876249 -1.0127528
0.76734269 0.054664612 -1.0022043
8.3312731 -5.0251942 -0.2638647
0.81749618 0.022796512 -0.96589649
7.0897884 -4.1701183 -0.016151771
1.1127198 -0.1810168 -1.0330629
7.0388603 -4.1225281 0.21066161
1.1659172 -0.21428883 -0.9853707
21.155523 -13.614412 1.3933871
1.5276599 -0.46296501 -1.0493259
21.418591 -13.755223 2.0399692
1.7716007 -0.62834394 -1.052358
22.281832 -14.296979 2.7819564
2.1384997 -0.87833083 -1.0785501
20.427755 -13.01973 3.1561925
2.639607 -1.2201718 -1.1214391
21.696533 -13.830695 3.9922016
3.1784265 -1.5864352 -1.1449776
24.070704 -15.372246 5.1400938
3.985039 -2.1355805 -1.1949239
24.231773 -15.437611 5.8970098
5.1987095 -2.9622111 -1.2762886
52.236454 -33.929707 14.094021
6.2673359 -3.685318 -1.2659463
52.355984 -33.918396 15.691408
0.39381361 0.30133367 -1.0182456
20.360466 -13.404539 -2.8828285
0.44860876 0.26512039 -0.99908912
26.589756 -17.648203 -2.9035628
0.55659425 0.19107366 -1.0078095
0.67180622 0.11224627 -1.0140889
8.3467741 -5.0866814 -0.52658451
0.79895544 0.025354743 -1.0192238
8.4947834 -5.1724172 -0.26538444
0.96538949 -0.088949203 -1.0357575
7.0935917 -4.2036738 -0.014714763
1.1459422 -0.21266139 -1.0487009
7.059288 -4.167161 0.2132677
1.3113008 -0.32504427 -1.044627
6.9528074 -4.0819826 0.43270981
1.5262995 -0.47178495 -1.0500969
1.7808857 -0.64555359 -1.056726
2.1329236 -0.88654101 -1.0780761
20.789766 -13.344854 3.2205226
2.618742 -1.2196485 -1.1169155
24.057631 -15.500654 4.4303346
3.0824845 -1.5358065 -1.1225533
24.610697 -15.829084 5.2665
3.7868869 -2.0173078 -1.1531807
24.118277 -15.458075 5.8844919
5.2218561 -3.0020118 -1.2817515
52.070084 -34.021782 14.082969
52.184841 -34.007992 15.676939
0.37370431 0.30965877 -1.0069619
20.284687 -13.444946 -2.8749535
0.4442035 0.26185679 -0.99796176
26.304558 -17.571011 -2.8756456
0.55490506 0.18538177 -1.0083793
26.796556 -17.865601 -2.1355262
0.65647054 0.11582267 -1.0074468
8.2932777 -5.090579 -0.52345681
0.78021765 0.030778289 -1.0114019
0.92026436 -0.065492153 -1.0162997
7.544178 -4.5474405 -0.0077310055
1.12621 -0.20810974 -1.0416874
7.1304245 -4.2508416 0.21817107
1.2073193 -0.26156187 -1.0045257
6.9663687 -4.1258459 0.43610221
1.5071008 -0.46933365 -1.0444793
1.8193767 -0.68490326 -1.0711356
2.0504029 -0.84227288 -1.0541924
20.776794 -13.430665 3.229033
2.5698929 -1.2012483 -1.104823
21.624908 -13.967433 4.002192
3.1465089 -1.5984687 -1.1396755
23.762783 -15.369303 5.1034908
3.9806659 -2.1734724 -1.196474
24.633982 -15.913387 6.0242767
5.1525011 -2.9808869 -1.2700387
24.418446 -15.726179 6.7097435
6.1322842 -3.6510792 -1.2465583
51.989571 -34.107956 15.66013
0.37536716 0.3026768 -1.0095009
20.235874 -13.498403 -2.8704903
0.44287634 0.25675499 -0.99860728
26.137836 -17.567253 -2.8596859
0.54307461 0.18740821 -1.0031093
0.59817123 0.1508745 -0.97779417
8.1193352 -5.0084391 -0.5150609
0.76926529 0.031202793 -1.0073596
0.97435713 -0.11225414 -1.0428928
7.2197924 -4.3591518 -0.010107473
1.0991006 -0.19760406 -1.0313792
7.2054138 -4.3358226 0.22315045
1.1953349 -0.2622155 -1.0010697
23.504412 -15.496469 1.5740231
1.4851146 -0.464131 -1.0377413
7.4792662 -4.4964538 0.71332657
1.8564365 -0.72288144 -1.0850292
7.1717386 -4.2727065 0.91680682
2.1142452 -0.90007198 -1.0750941
20.715282 -13.478117 3.229512
2.6172464 -1.2494367 -1.1192464
21.561796 -14.017354 4.0022583
3.0247304 -1.5299221 -1.1109139
23.147518 -15.054047 4.9877682
3.780947 -2.053843 -1.1543963
23.588299 -15.311852 5.7895966
5.2168255 -3.0513139 -1.2833444
24.272396 -15.731886 6.6877437
6.1039991 -3.6607151 -1.2430917
51.790909 -34.191334 15.639842
0.38257003 0.29124546 -1.0157046
20.172964 -13.5474 -2.8643494
0.44716525 0.24716711 -1.0027512
25.599005 -17.309166 -2.8061433
0.5340184 0.18708658 -0.99950033
25.625908 -17.284365 -2.0492091
0.55920517 0.17196608 -0.95846593
8.2466164 -5.1371169 -0.51995176
0.77163577 0.021598339 -1.0100605
8.4002228 -5.2287769 -0.26003104
7.4593248 -4.5612764 -0.0055341572
1.1330836 -0.23136604 -1.0476245
7.3694077 -4.4852457 0.23192503
1.2634571 -0.32080972 -1.02983
1.4893603 -0.47819161 -1.0407711
7.4174967 -4.4911332 0.71046472
1.8709838 -0.74590909 -1.0914466
7.187726 -4.31953 0.92232668
2.1631839 -0.94867265 -1.0915703
20.675594 -13.545956 3.2339742
2.6002877 -1.2533797 -1.1159856
21.4142 -14.015193 3.9876244
3.085283 -1.5905622 -1.127233
3.7615044 -2.061182 -1.1514853
23.513391 -15.368422 5.7879515
5.0829105 -2.9843044 -1.2595021
24.150921 -15.759954 6.6733499
6.1592274 -3.7307816 -1.2529731
51.613121 -34.301617 15.628201
0.37684226 0.28923213 -1.0136291
20.083958 -13.577796 -2.8548481
0.43836868 0.24710774 -0.9989922
25.392765 -17.280994 -2.7862859
0.54404128 0.17287123 -1.0067626
25.420851 -17.257456 -2.0337656
0.59009278 0.14245117 -0.97645468
0.74397814 0.03377223 -0.99774849
0.9192766 -0.089930773 -1.0202891
26.583473 -17.93914 0.23642184
1.1470196 -0.25096691 -1.0552276
7.3767262 -4.5272155 0.23436041
1.2325613 -0.30861807 -1.0189106
1.4360192 -0.45089889 -1.0225103
7.2247324 -4.3946772 0.69478953
1.8462598 -0.74092877 -1.0845883
7.1953278 -4.3608394 0.92682016
2.043077 -0.87673032 -1.056066
20.666737 -13.635079 3.243222
2.5722249 -1.2493058 -1.1096466
21.359713 -14.076165 3.9899533
2.8948331 -1.4729682 -1.0814879
23.917122 -15.793743 5.1803346
3.7853992 -2.0992374 -1.1580112
23.567873 -15.513327 5.817492
5.0139446 -2.9622798 -1.2478459
24.160095 -15.876606 6.6941929
5.9825706 -3.6374173 -1.2259964
51.423946 -34.403492 15.613134
0.3711133 0.28724337 -1.0115552
20.004675 -13.614712 -2.8466408
0.42958224 0.24709046 -0.99523598
25.188536 -17.252935 -2.7666609
0.54082179 0.16827536 -1.0064993
25.212908 -17.227205 -2.0181515
0.56901169 0.15074658 -0.96666193
0.70143914 0.057041287 -0.97794181
7.4405355 -4.6365476 -0.24249028
0.94097388 -0.11437857 -1.0319846
7.5274343 -4.6838069 -0.0013431162
1.0708508 -0.20516992 -1.0236719
7.3658552 -4.5566702 0.23605563
1.1971352 -0.29290855 -1.0061432
8.3110971 -5.2035356 0.53953129
1.5256014 -0.52665019 -1.0571785
7.2239618 -4.4305229 0.69779205
1.8325303 -0.74372494 -1.0814519
2.0304582 -0.88121831 -1.0536073
21.435055 -14.263772 3.3730457
2.598079 -1.2838 -1.1182855
23.666033 -15.77124 4.425993
2.9919159 -1.5599045 -1.1068909
23.772844 -15.803991 5.1649227
3.6217005 -2.0034285 -1.1236945
23.605536 -15.647591 5.8431501
4.8663025 -2.883626 -1.2213527
51.130657 -34.521961 14.018653
51.245831 -34.51228 15.601377
0.3582592 0.29058194 -1.0048873
19.931837 -13.655905 -2.8393016
0.41503417 0.25140011 -0.98797286
24.996065 -17.231911 -2.7482543
0.53466785 0.16585135 -1.004566
25.023275 -17.208603 -2.0039067
0.59822083 0.1220938 -0.98384535
7.9365253 -5.0398288 -0.50415963
0.626194 0.10472453 -0.94164693
7.4522743 -4.6823726 -0.24151246
0.84339714 -0.051512122 -0.98782492
1.0391114 -0.19125962 -1.0113794
7.2486868 -4.5112596 0.23333578
1.2462912 -0.33868647 -1.0274391
8.3177452 -5.2495542 0.5429399
1.4289639 -0.46760178 -1.0228329
1.7766869 -0.71585071 -1.0640017
2.1105292 -0.95283163 -1.0797745
2.5779171 -1.2853144 -1.1141559
21.566645 -14.417981 4.0528622
2.9247453 -1.5292884 -1.0916126
23.682123 -15.85062 5.1608515
3.6791899 -2.0654268 -1.1375588
24.48245 -16.364473 6.0723672
4.8091011 -2.868701 -1.211876
50.949158 -34.626995 14.007898
51.051582 -34.609287 15.584747
0.36141682 0.28275502 -1.0083592
19.875393 -13.697678 -2.8338711
0.44265163 0.22511387 -1.0061823
24.844341 -17.225344 -2.7338712
0.53180909 0.16182017 -1.0043356
24.898829 -17.22188 -1.9944838
0.5878706 0.12336516 -0.9796406
7.8613844 -5.0214 -0.50025702
0.57993829 0.13243008 -0.91965592
7.4349613 -4.70333 -0.24022411
0.91072488 -0.1085614 -1.0207639
0.96845567 -0.1473943 -0.98189557
7.3279486 -4.5999041 0.23852117
1.3034391 -0.38959217 -1.0518584
7.8944759 -4.9869266 0.51583767
1.4136322 -0.46604216 -1.0184469
7.5775375 -4.7488432 0.73850822
1.7061296 -0.67534041 -1.0413235
7.1849661 -4.458425 0.93580496
1.9009023 -0.81241167 -1.0162754
21.263704 -14.330887 3.3672884
2.5570796 -1.2843448 -1.1096635
20.756998 -13.939339 3.914408
2.9269917 -1.5464574 -1.0933927
23.613611 -15.899563 5.1597152
3.6433947 -2.0580282 -1.1309358
23.315191 -15.650572 5.8041067
4.8977242 -2.9556141 -1.2297798
50.77557 -34.709827 13.994743
5.8714828 -3.6470051 -1.2115523
50.870129 -34.687313 15.56702
0.3654505 0.27311981 -1.0127079
19.798222 -13.740778 -2.8261569
0.41353095 0.2399888 -0.99013722
24.814169 -17.325975 -2.7320495
0.5210911 0.16243851 -0.9998849
24.879911 -17.330894 -1.9926876
0.56517243 0.1326412 -0.96904963
7.8350592 -5.0445309 -0.49838746
0.64033461 0.079832077 -0.95160574
7.4209471 -4.7333021 -0.23878787
0.925964 -0.12907505 -1.0296048
1.0489476 -0.21648657 -1.0186634
7.3174133 -4.6318808 0.24035604
1.2799187 -0.383268 -1.0440221
7.8501263 -4.9975204 0.51571161
1.4498582 -0.50431693 -1.033522
7.5582867 -4.7758269 0.74004734
1.7761998 -0.73981845 -1.0667987
7.1130209 -4.4462423 0.93042648
1.9914103 -0.89267552 -1.0458009
2.4845607 -1.2482635 -1.0910083
24.104967 -16.4034 4.5479002
2.8580244 -1.5148419 -1.0777135
23.279644 -15.780897 5.1043382
3.8001688 -2.1943259 -1.1666684
23.294292 -15.750784 5.8166885
4.8765469 -2.9682794 -1.2272135
50.582546 -34.819084 13.983086
5.6810837 -3.5416341 -1.1823612
50.688328 -34.80513 15.556578
0.36570799 0.26738715 -1.0143405
19.756117 -13.792618 -2.8226516
0.39651513 0.24710095 -0.9811579
24.798153 -17.416656 -2.731493
0.52984071 0.149701 -1.0063363
24.870287 -17.42647 -1.9916638
0.57543886 0.11860931 -0.97594804
8.0129156 -5.208066 -0.50556743
0.63724172 0.075523376 -0.95136034
25.010307 -17.442511 -0.50267088
0.90884471 -0.1240499 -1.022961
7.4344921 -4.7627287 0.0038325936
1.1253052 -0.28159344 -1.053478
7.3098936 -4.6594925 0.24194022
1.2756319 -0.38924015 -1.0436819
7.8399763 -5.0253592 0.51749229
1.4498706 -0.51415491 -1.0348791
7.4967546 -4.7658277 0.73681056
1.7911463 -0.76198781 -1.0732692
7.0702 -4.4479084 0.92810678
2.1560199 -1.0260373 -1.0981513
21.435566 -14.646408 3.4159687
2.4843068 -1.2620004 -1.0922464
24.077095 -16.482922 4.5552444
2.9124329 -1.5701767 -1.0925008
23.110117 -15.75696 5.0813327
3.7832229 -2.2010474 -1.1642143
24.461498 -16.670748 6.1166458
4.8495684 -2.9719596 -1.2233174
50.41518 -34.90498 13.971575
5.5900202 -3.5018296 -1.1688088
50.51786 -34.889503 15.542122
0.32301831 0.29321992 -0.98838425
19.675564 -13.832821 -2.8145597
0.374722 0.25682938 -0.96951264
24.622393 -17.411489 -2.7149749
0.50027871 0.16463149 -0.99103922
24.852186 -17.536798 -1.9899911
0.60555708 0.088188171 -0.99388754
8.0135164 -5.251615 -0.50487643
0.66017628 0.050279498 -0.96455163
24.991949 -17.553328 -0.49864185
0.92245984 -0.1435442 -1.031091
7.2565975 -4.6743064 0.0031605214
1.1174603 -0.28601098 -1.0517732
21.147488 -14.692085 0.83294857
1.2384756 -0.37247455 -1.0302945
8.160099 -5.2982688 0.54327905
1.4489183 -0.52528882 -1.0361629
7.2977848 -4.6633973 0.72040051
1.7182796 -0.72124684 -1.0500114
7.0324545 -4.4594049 0.92705512
2.0943301 -0.99546206 -1.080645
23.267311 -16.064203 3.716538
2.4889576 -1.2822212 -1.0951365
21.149187 -14.511979 4.0244427
2.9934704 -1.6488615 -1.1142391
3.7945926 -2.2323985 -1.1682295
24.637022 -16.916771 6.1783972
4.8650055 -3.0113678 -1.2277104
50.226643 -35.016048 13.961109
5.6134939 -3.5506358 -1.1737794
50.329361 -35.001347 15.529634
0.34554243 0.26982725 -1.0046849
19.592754 -13.865557 -2.8060699
0.40317464 0.22872233 -0.98855829
24.427647 -17.38447 -2.6964829
0.48691082 0.16787493 -0.984945
24.830471 -17.637985 -1.988109
0.5728389 0.10563135 -0.97777605
8.0231438 -5.2995625 -0.50462461
0.66249669 0.040857673 -0.96726662
7.4374647 -4.8572836 -0.2356476
0.91681492 -0.14812863 -1.030061
7.1854448 -4.6599512 0.0038087815
1.0209718 -0.22298992 -1.011026
7.1470213 -4.6185708 0.23942401
1.1819592 -0.34024596 -1.0089096
1.4942091 -0.57050467 -1.054679
7.3945332 -4.7710161 0.73328882
1.7494764 -0.7570504 -1.0622504
7.0183153 -4.4856219 0.92882812
2.0829971 -1.0011529 -1.0786726
7.8286667 -5.0560098 1.2891445
2.4861367 -1.2960581 -1.0958655
21.12384 -14.593934 4.032383
3.0651357 -1.7203504 -1.1336282
22.728004 -15.706932 5.0301204
3.7004254 -2.1844144 -1.1490095
23.051775 -15.898932 5.8067918
4.7761002 -2.9722781 -1.2122445
50.039658 -35.113979 13.948764
5.7045965 -3.6479592 -1.1895479
50.145607 -35.102314 15.516094
0.35844326 0.25436437 -1.0145806
19.535952 -13.906181 -2.8007286
0.43755317 0.19656324 -1.0111271
24.250946 -17.355967 -2.679692
0.47972524 0.16728365 -0.98222101
24.786053 -17.708889 -1.9846414
0.58879209 0.087006927 -0.98783529
8.0219984 -5.3349948 -0.50398731
0.65340412 0.040987492 -0.96402442
0.82969975 -0.089744568 -0.99026871
7.03263 -4.580946 0.0030906647
1.1043305 -0.29441476 -1.0491167
1.2020545 -0.36432171 -1.0184678
1.4267194 -0.52972603 -1.0308002
7.3639317 -4.782475 0.7330783
1.7226391 -0.74800909 -1.0544391
7.0093718 -4.5113368 0.93085504
2.0708928 -1.004557 -1.076281
2.4997754 -1.3203813 -1.1010491
22.528715 -15.697571 4.3070745
3.0448029 -1.7215835 -1.129881
21.671055 -15.040079 4.814209
3.6535509 -2.1684389 -1.1399806
23.094793 -16.026169 5.8323364
4.7492085 -2.9755597 -1.2083751
49.871979 -35.197849 13.937101
5.4353514 -3.4751291 -1.1474171
49.981152 -35.189156 15.503419
0.3640734 0.24402761 -1.0198705
19.466875 -13.943051 -2.7939477
0.42178321 0.20242476 -1.0030164
24.064943 -17.326283 -2.6620526
0.48387635 0.15758979 -0.98615587
24.795866 -17.82699 -1.9851216
0.59134567 0.078080416 -0.99074966
0.64852595 0.037483454 -0.96301371
7.363821 -4.873167 -0.23248117
0.8764919 -0.13350427 -1.0139575
7.017745 -4.6045671 0.0043836385
1.1015065 -0.30144107 -1.0494453
7.1372604 -4.6792078 0.24289604
1.2490115 -0.40962923 -1.0391114
1.4308937 -0.54345489 -1.0338552
7.3547726 -4.8117576 0.73521423
1.7262781 -0.76259553 -1.0571802
6.9591494 -4.5091286 0.92773902
2.0723355 -1.0189742 -1.0782125
2.4177842 -1.2737843 -1.0794612
24.00462 -16.87117 4.5974712
2.9894826 -1.6975137 -1.1174566
21.638773 -15.113914 4.8209219
3.5589192 -2.117599 -1.1205107
22.959404 -16.031544 5.814959
4.7928448 -3.033031 -1.2180103
49.696068 -35.288857 13.925458
5.4825745 -3.5381479 -1.1561024
7.4998369 -4.8185287 2.506681
0.33565807 0.2593894 -1.0031149
19.389309 -13.98435 -2.7863691
0.40852809 0.20566583 -0.99663383
23.877668 -17.307934 -2.6444695
0.48472643 0.14957106 -0.98839259
24.811369 -17.963812 -1.9860195
0.59926188 0.064079881 -0.99679667
8.0130663 -5.4110761 -0.50228703
0.7195946 -0.025470614 -1.0008783
7.3379774 -4.89465 -0.23090498
0.95075357 -0.1998837 -1.0509887
7.005538 -4.6345177 0.0059000999
1.0876336 -0.30115414 -1.0451035
7.1279793 -4.7119136 0.2447613
1.1878848 -0.3739177 -1.0158775
7.2074356 -4.7572784 0.48584753
1.3765056 -0.5138818 -1.0150917
7.3289051 -4.8333139 0.73604941
1.6202016 -0.69518125 -1.0223572
7.0031176 -4.5801253 0.93731046
1.9771235 -0.96168387 -1.0501316
7.7730932 -5.1315498 1.2934201
2.4176252 -1.290403 -1.0810449
21.008705 -14.800488 4.0475988
2.9755352 -1.7064744 -1.1155716
21.713337 -15.278053 4.8527241
3.5656393 -2.1449428 -1.1235164
22.895668 -16.101202 5.8172588
4.762044 -3.0380945 -1.2136747
49.505367 -35.395695 13.914325
5.4802361 -3.5679903 -1.1569945
7.4783993 -4.8442383 2.5077145
0.29929388 0.28195262 -0.98089224
19.32807 -14.026641 -2.7806721
0.40417135 0.20282423 -0.99553561
23.705124 -17.286011 -2.6282434
0.48019445 0.14652741 -0.98732424
24.104841 -17.545336 -1.9345711
0.57417345 0.076510787 -0.98467761
0.66470611 0.0094957352 -0.97442776
7.3751163 -4.9586277 -0.23036866
0.89931548 -0.16869438 -1.0281283
6.9840822 -4.6532893 0.0070911497
1.041445 -0.27470481 -1.0262612
7.1046562 -4.7298551 0.24576195
1.2511744 -0.43225157 -1.0432934
7.1807337 -4.7730851 0.48644292
1.3746014 -0.52285707 -1.0158622
7.330781 -4.8708534 0.73931813
1.6897886 -0.75998151 -1.0478189
6.9688454 -4.5895233 0.93627155
1.9308438 -0.93935239 -1.0371088
7.7611895 -5.1608257 1.2958277
2.4089758 -1.2987539 -1.0800692
20.903969 -14.81867 4.0399218
2.9329455 -1.6914357 -1.1063144
3.5938203 -2.1862516 -1.1311127
22.869596 -16.185478 5.8269277
4.6492176 -2.9777427 -1.1935263
49.332382 -35.487553 13.903451
5.430398 -3.5585337 -1.1501169
7.5139847 -4.9069271 2.5255094
0.30878425 0.26794755 -0.9889133
19.288403 -14.096186 -2.7781334
0.42064607 0.18283367 -1.0075381
23.518543 -17.265772 -2.6107812
0.47097671 0.14634943 -0.98372865
0.59360802 0.053440571 -0.9970516
0.72805035 -0.048240542 -1.0085272
0.89040864 -0.1712203 -1.0256782
6.9541025 -4.6699648 0.0083372742
1.0276906 -0.27417862 -1.0219339
7.0727787 -4.7457399 0.24663268
1.2473793 -0.4404918 -1.0435114
7.1726599 -4.8071771 0.48871011
1.4508946 -0.59359622 -1.0463499
21.83935 -15.73172 2.2238722
1.7002671 -0.7813853 -1.0531489
6.9484558 -4.6134257 0.93747544
2.0331812 -1.0325712 -1.0708531
7.7405224 -5.1884174 1.2973821
2.3405836 -1.2631127 -1.0624063
21.834164 -15.614899 4.2302089
2.8910062 -1.6787318 -1.097386
3.5705125 -2.1910853 -1.1275322
23.095802 -16.468966 5.9015636
4.7932138 -3.1153107 -1.2225683
7.0752583 -4.6404028 2.1512492
5.4200439 -3.5822825 -1.1497455
7.4688101 -4.9154482 2.5192783
0.30183864 0.26758945 -0.98595679
19.255404 -14.1598 -2.7762103
0.42187726 0.17550588 -1.009939
23.343477 -17.23971 -2.5943415
0.47358024 0.13772309 -0.98682868
0.60323906 0.038755059 -1.003916
24.924368 -18.357992 -1.229647
0.72586441 -0.054222107 -1.0090024
7.162426 -4.8754921 -0.22512202
0.93211877 -0.21227455 -1.0472136
6.9628963 -4.7114592 0.0099715739
0.96687889 -0.23569977 -0.99650896
7.0621634 -4.7731071 0.24818434
1.2591569 -0.45963228 -1.0499388
7.1618233 -4.8348231 0.4904635
1.4472482 -0.60161722 -1.046537
20.804276 -15.055063 2.1263313
1.6930604 -0.78774178 -1.0521972
6.9316874 -4.635674 0.93872666
2.0037735 -1.0232211 -1.0631422
7.7284355 -5.2176366 1.2997823
2.410809 -1.3320526 -1.0837425
21.372278 -15.370401 4.1550093
2.7849338 -1.6141945 -1.0720903
8.361413 -5.6591721 1.9568404
3.6108968 -2.2422276 -1.1378851
48.866383 -35.691891 12.358082
4.6523752 -3.032794 -1.1970489
5.4585629 -3.6399379 -1.1571289
0.28951204 0.27192044 -0.97934914
19.164902 -14.17382 -2.7666042
0.4331249 0.16057765 -1.0184762
23.1751 -17.211044 -2.5785131
0.46494544 0.13836896 -0.98328012
24.777063 -18.395134 -1.9830097
0.59428382 0.039103389 -1.0005181
24.876278 -18.428061 -1.2259856
0.74864924 -0.079432249 -1.0221992
7.1128111 -4.8714252 -0.22345881
0.88708711 -0.1849277 -1.0272151
7.0713339 -4.8266296 0.013037905
1.0461257 -0.30613434 -1.0332056
7.0509329 -4.7978511 0.24958353
1.1812668 -0.40806866 -1.0194128
1.3895326 -0.56673074 -1.02616
20.679859 -15.050917 2.1211925
1.6588061 -0.77225745 -1.041782
7.9568129 -5.4398661 1.0775281
1.9457195 -0.9905678 -1.0463088
2.4595578 -1.3840445 -1.0989728
22.107832 -16.013519 4.3072433
2.8301609 -1.6649138 -1.0848491
8.3285704 -5.6731591 1.9550878
3.553437 -2.2169456 -1.1264921
23.339773 -16.855104 5.9947462
4.5910673 -3.0089283 -1.1866226
5.3215475 -3.5612636 -1.1361169
0.32264495 0.23916447 -1.0029562
19.067564 -14.193229 -2.7564251
0.40037107 0.17990017 -0.99987292
22.994341 -17.185104 -2.5616202
0.42181158 0.16575384 -0.95972419
0.59210563 0.033216 -1.0010422
0.74759281 -0.086936831 -1.0234017
7.1230583 -4.9173603 -0.22250281
0.8813448 -0.18937302 -1.0261971
1.0311215 -0.30402136 -1.0282434
7.0311241 -4.820539 0.25085229
1.2346222 -0.46046829 -1.0430717
7.1509991 -4.8985415 0.49478555
1.4368653 -0.61527383 -1.0457708
1.6133204 -0.74919212 -1.0276359
1.9191861 -0.98375428 -1.0395548
7.3684788 -5.0225263 1.2502061
2.4163578 -1.3666731 -1.0883533
22.009727 -16.047638 4.3023233
2.7689002 -1.6352836 -1.0709069
8.2444439 -5.6535773 1.9427062
3.485606 -2.1857018 -1.1129556
23.209326 -16.870983 5.9798899
4.6268969 -3.0630369 -1.1949844
5.3794603 -3.6358166 -1.1467394
7.0526714 -4.7160378 2.4103024
0.31011117 0.24326563 -0.99633622
18.950951 -14.191653 -2.7435713
0.36651921 0.20077097 -0.98041922
22.831303 -17.165113 -2.5464628
0.46982741 0.12080777 -0.98946476
0.58438146 0.03219986 -0.99842286
7.1788836 -5.0098562 -0.46283859
0.77139676 -0.11381435 -1.0373174
7.0945787 -4.9314928 -0.22108255
0.87291443 -0.19113767 -1.0237916
7.1198807 -4.9376388 0.016954556
1.0578144 -0.33435595 -1.0417854
7.021843 -4.849062 0.25246632
1.2283418 -0.46553135 -1.0421064
7.1033926 -4.898284 0.4938221
1.4030755 -0.5995003 -1.0345325
1.6774116 -0.81144679 -1.0514621
1.9312427 -1.006307 -1.0448781
7.4184074 -5.0975718 1.2625562
2.461247 -1.4171802 -1.1026603
21.84697 -16.025969 4.2841363
2.989363 -1.8247977 -1.1282034
7.8869305 -5.4239945 1.8691812
3.6498597 -2.334074 -1.1509165
23.133881 -16.921032 5.9777694
4.6616564 -3.1151938 -1.2030895
7.0267925 -4.746058 2.1620367
5.4973478 -3.7559309 -1.167037
7.1051168 -4.7911205 2.433399
0.2846539 0.25682843 -0.98143977
18.835905 -14.207232 -2.731416
0.32665074 0.22564518 -0.95744067
22.657438 -17.155466 -2.5305057
0.45756233 0.12277138 -0.98419911
0.55884778 0.044218183 -0.98628318
7.1785021 -5.0528803 -0.46220446
0.77119601 -0.12318349 -1.0392283
6.397377 -4.4339113 -0.21047769
0.89441371 -0.2184304 -1.036104
7.0959415 -4.9621124 0.018408671
1.021574 -0.31642783 -1.0275496
6.9047918 -4.801177 0.2495725
1.1839552 -0.44207442 -1.0256917
7.0984516 -4.9373627 0.49650657
1.3054333 -0.5346725 -0.99924642
7.2037449 -5.004982 0.7458812
1.6599844 -0.81192386 -1.04728
1.8902693 -0.98950422 -1.0337458
7.2613506 -5.0218935 1.2420189
2.4064624 -1.3923324 -1.0889338
24.04781 -17.827173 4.7239628
2.7897332 -1.6886107 -1.0793934
7.850008 -5.4428267 1.8676927
3.4831655 -2.2276344 -1.1155666
44.556408 -33.335854 11.413702
4.6192122 -3.1119328 -1.196659
7.0605497 -4.8140812 2.1789298
5.4370413 -3.743155 -1.1587471
7.002264 -4.7560902 2.4091833
0.29700935 0.24085867 -0.99131012
18.718037 -14.203329 -2.7184279
0.38934159 0.16855252 -0.99830151
22.502853 -17.140007 -2.5162547
0.42897129 0.13931894 -0.96899778
0.54974353 0.044476867 -0.98288167
7.0284748 -4.9723191 -0.45527041
0.76734793 -0.12813818 -1.0389519
0.87280381 -0.20963097 -1.0273712
7.1131096 -5.0117359 0.020227477
1.0127699 -0.3185308 -1.0252557
6.8197489 -4.7705603 0.24770601
1.2252364 -0.48508692 -1.044423
7.4564991 -5.251008 0.52594674
1.3782544 -0.60338748 -1.0285752
7.1291542 -4.9840422 0.74123383
1.6587403 -0.82296193 -1.0484447
1.8870399 -0.99999082 -1.0342579
7.0940733 -4.9300942 1.218872
2.2753108 -1.3034602 -1.0530903
21.445778 -15.940332 4.2352381
2.7845998 -1.7016162 -1.0795851
7.8432465 -5.4772177 1.8718706
7.5545521 -5.24157 2.0653718
4.6241283 -3.1410632 -1.1990737
7.0600357 -4.8497281 2.185034
5.511941 -3.8310704 -1.1721653
6.9585638 -4.7585893 2.4021811
0.30928922 0.2248131 -1.0011765
18.615938 -14.211233 -2.7075369
0.37237525 0.1760509 -0.98934865
22.33444 -17.11272 -2.5006077
0.43006837 0.13186145 -0.97126955
0.55490208 0.033172727 -0.98737532
7.0628462 -5.03547 -0.45623922
0.74764144 -0.12021387 -1.0304694
6.3809767 -4.4875121 -0.20838563
0.9007175 -0.24080276 -1.0425428
6.9725618 -4.9382672 0.019493178
1.003968 -0.32059789 -1.0229644
1.152236 -0.43634856 -1.0157871
7.3183441 -5.1813893 0.51824713
1.3461828 -0.58840227 -1.0179324
7.0311394 -4.9443874 0.73409063
1.648427 -0.82676208 -1.0464529
6.8029785 -4.7540126 0.94319642
1.8246837 -0.96314418 -1.0160165
7.0904779 -4.9636931 1.222452
2.3474588 -1.3759724 -1.0752393
7.1454334 -4.9927039 1.4747487
2.9021049 -1.8124622 -1.1110064
7.8987408 -5.55972 1.8900276
3.3573549 -2.1679502 -1.0904099
7.7285013 -5.4137988 2.1156974
4.6041489 -3.1505809 -1.1967078
7.0330725 -4.8652301 2.1836519
5.2552023 -3.6569872 -1.1317321
6.9472599 -4.7856669 2.40537
0.26936591 0.25169587 -0.97626305
1.772752 -0.90530717 -0.48120981
0.38185596 0.16191363 -0.99699515
1.7747569 -0.90223467 -0.39748234
0.42269969 0.13131332 -0.96855229
0.54436946 0.034637332 -0.98318791
6.7393599 -4.816287 -0.44194055
0.73948741 -0.12158263 -1.0279598
6.3443708 -4.4920216 -0.20697258
0.90379953 -0.25203228 -1.0457606
7.0635023 -5.0458713 0.02251412
1.0039613 -0.32977509 -1.02463
6.7698259 -4.801878 0.24941029
1.2007227 -0.48552191 -1.0375839
7.2796431 -5.1886368 0.51799488
1.3544433 -0.60581076 -1.0227022
6.9224234 -4.8956409 0.72576177
1.5420239 -0.75294363 -1.0108086
6.7450504 -4.7440472 0.93890798
1.7565002 -0.92109835 -0.99587142
7.2369785 -5.1143069 1.2507732
1.8532612 -0.99397337 -0.93536007
7.0978413 -4.9924865 1.4702488
1.7428465 -0.90040362 -0.81703091
6.8831959 -4.8124042 1.6675781
1.7450147 -0.89733684 -0.73109186
1.7500904 -0.8966676 -0.64706409
7.2114649 -5.0391922 2.2408707
1.7489479 -0.89106619 -0.5624482
6.9758234 -4.843513 2.4211955
0.29785383 0.22179151 -0.99709648
0.38692069 0.15091503 -1.0020055
0.44880998 0.10275519 -0.98577213
0.55350554 0.019526005 -0.9900319
0.71102476 -0.10672581 -1.0149966
6.3537922 -4.534934 -0.20610832
0.83415771 -0.20427012 -1.0138375
6.9959965 -5.0313063 0.023033038
1.0504229 -0.37756479 -1.047358
6.6637783 -4.7555523 0.24661337
1.1454191 -0.45114827 -1.0163276
7.2884321 -5.2354741 0.52150434
1.371222 -0.63095081 -1.0308676
6.9351454 -4.9438343 0.73037684
1.6259375 -0.83347929 -1.0419272
6.6705389 -4.7228642 0.93255734
1.7364628 -0.91827452 -0.99109381
7.3628006 -5.2525702 1.2761258
1.7372811 -0.91406739 -0.903552
7.0398598 -4.9861507 1.4639894
1.7303009 -0.9036237 -0.81501913
6.8382454 -4.8152952 1.662932
1.733963 -0.90178907 -0.72960711
7.5015745 -5.3185091 2.070636
1.7374604 -0.8998915 -0.64541733
7.1782494 -5.0529079 2.2382617
1.7455795 -0.90172827 -0.56249857
0.32363868 0.19422352 -1.016104
1.7321649 -0.89886749 -0.47662181
0.39904475 0.1343658 -1.0113924
0.4637785 0.083588958 -0.99634981
0.56137097 0.0057961941 -0.99609947
6.9929285 -5.0917015 -0.45176029
0.68003273 -0.089055896 -1.0005682
6.3562298 -4.5704322 -0.20521103
0.88643837 -0.25585115 -1.0409391
0.99627256 -0.34251583 -1.0246483
6.6013756 -4.7409086 0.24568178
1.164196 -0.47645974 -1.0258241
7.1495657 -5.1631236 0.51359612
1.3526051 -0.62664616 -1.0253705
6.8534193 -4.9153209 0.72481573
1.6320655 -0.85057676 -1.0457239
6.6097679 -4.709826 0.92780674
1.7198524 -0.9173311 -0.98730916
7.1946468 -5.1581402 1.2526342
1.7221127 -0.91432703 -0.90051788
6.9893188 -4.9830198 1.4588512
1.7150922 -0.90384233 -0.81225818
6.8223209 -4.8384905 1.6645004
1.7202258 -0.90323961 -0.72746462
7.5134878 -5.3665304 2.0798738
1.7190616 -0.89761245 -0.6426093
7.1430893 -5.0626535 2.2346814
1.7286534 -0.90070164 -0.5603084
6.8474522 -4.818099 2.3945587
0.31639791 0.19371068 -1.0131423
1.7241106 -0.90575397 -0.47596616
0.3970927 0.12904465 -1.0120344
1.7306564 -0.90645063 -0.39359188
0.43236351 0.10255206 -0.97949356
0.54918098 0.0082075596 -0.99111235
7.5814028 -5.6040406 -0.47625178
0.68317354 -0.099984288 -1.0040176
6.2826366 -4.5471807 -0.20329134
0.9021405 -0.27818978 -1.0504565
6.6362505 -4.8184748 0.020075575
0.99298525 -0.34965014 -1.0249785
6.5739574 -4.7559924 0.24649079
1.1429079 -0.46956027 -1.0187138
6.9601068 -5.0516129 0.50189525
1.3322203 -0.62144399 -1.0192865
6.81604 -4.923769 0.72411656
1.6049454 -0.84123433 -1.0379399
6.5574102 -4.7052455 0.92438602
1.6998839 -0.91432464 -0.98254329
7.2481833 -5.2404394 1.2661318
1.7050714 -0.91375792 -0.89702725
1.7010417 -0.90570748 -0.80986494
6.7959538 -4.8556986 1.6640375
1.7061195 -0.90510571 -0.72529989
1.7033842 -0.89821708 -0.64037573
7.1144629 -5.07971 2.2333767
1.7129121 -0.90132511 -0.5583486
6.8332977 -4.8451171 2.3973153
0.29285431 0.20700026 -0.99921155
1.719126 -0.91512287 -0.47572321
0.3964994 0.12256658 -1.0135497
1.7272041 -0.91710269 -0.39346015
0.40385401 0.11934876 -0.96430838
7.1014442 -5.2711053 -0.70071656
0.54124475 0.0071388483 -0.9884932
7.1693954 -5.3125615 -0.4582395
0.66490519 -0.093086362 -0.99629146
6.2372522 -4.5461617 -0.20174669
0.89184093 -0.27904189 -1.0473374
6.6351471 -4.8549395 0.021622345
1.0216136 -0.38335276 -1.0397884
6.5060301 -4.7383933 0.24537881
1.1890488 -0.51847696 -1.0398459
6.796298 -4.9590287 0.49205118
1.2956443 -0.60268474 -1.0069443
6.8424578 -4.9831376 0.73021817
1.6180665 -0.86494505 -1.0443368
6.5362186 -4.7252412 0.92520237
1.6964343 -0.92480671 -0.98306018
7.1524754 -5.2043762 1.2548095
1.7016239 -0.92427075 -0.89745271
7.0006857 -5.0699387 1.4712269
1.6976173 -0.91622269 -0.81019998
6.7464314 -4.8544297 1.6583054
1.7057428 -0.91814601 -0.7262283
7.4006281 -5.3599811 2.064049
1.7030377 -0.91126668 -0.64112121
7.0949907 -5.1039124 2.2347136
1.7141013 -0.91567242 -0.55915999
6.8464613 -4.8937373 2.4088361
0.28178167 0.21028018 -0.993527
1.7237303 -0.93156993 -0.47673655
0.39607882 0.11632657 -1.0150785
1.7117503 -0.91718328 -0.39208657
0.4284693 0.091931701 -0.98069775
7.0924501 -5.3012633 -0.7001453
0.54899669 -0.0066548586 -0.99455839
7.0935926 -5.2886605 -0.45455331
0.64123952 -0.081028342 -0.98560798
6.2193451 -4.5651102 -0.20061319
0.90191078 -0.29636681 -1.0540609
6.9984884 -5.1848083 0.029434636
1.0170398 -0.38900459 -1.0394768
6.3958206 -4.6839514 0.24210747
1.1753297 -0.51727557 -1.035827
6.7506924 -4.9582582 0.49109101
1.3773696 -0.68149626 -1.0401789
7.01404 -5.1576381 0.75172812
1.5483265 -0.81921303 -1.0213724
6.5981789 -4.809896 0.93722451
1.6993053 -0.93977582 -0.9855215
7.0056124 -5.124197 1.2345738
1.7015285 -0.93680108 -0.89877343
6.9331636 -5.0528283 1.4627069
1.6990743 -0.93001401 -0.81172842
6.704236 -4.856493 1.6538877
1.7026556 -0.92822492 -0.72649682
7.3846188 -5.3859959 2.0661418
1.7106602 -0.93014276 -0.6433785
7.101018 -5.1460738 2.2430372
1.7156157 -0.92957103 -0.5599969
7.2509356 -5.2510862 2.5455353
0.29761362 0.19028878 -1.0061108
1.7171257 -0.93968308 -0.47628999
0.39132428 0.11333632 -1.0139776
1.69593 -0.91766846 -0.3906914
0.46522212 0.053514004 -1.0045362
0.54664588 -0.012453556 -0.99509233
6.9843664 -5.2391934 -0.44943905
0.62592351 -0.076324105 -0.97938287
6.2204933 -4.6017141 -0.19966279
0.89587975 -0.30080903 -1.0530487
7.1031466 -5.3096571 0.032928124
0.99337602 -0.37918544 -1.0305973
6.3701887 -4.6996078 0.24294616
1.2079749 -0.55556238 -1.051419
1.3819132 -0.69717181 -1.0437739
7.0008402 -5.18648 0.75370592
1.5436511 -0.8280133 -1.0214807
6.7081003 -4.9363089 0.95616138
1.697257 -0.95151818 -0.98651826
6.9846735 -5.1467767 1.2356261
1.7040005 -0.95231807 -0.90093631
6.8862257 -5.054131 1.4585146
1.7015996 -0.94555604 -0.81361902
6.6671314 -4.8646474 1.6509365
1.7067325 -0.94506347 -0.72845352
7.3505096 -5.39995 2.0639465
1.7040949 -0.93820727 -0.64293456
7.1437731 -5.2202191 2.2624953
1.7212756 -0.94776094 -0.56155992
7.2581663 -5.2975049 2.5556676
0.28518462 0.19476211 -0.9995153
1.7216141 -0.95618355 -0.4773019
0.39770269 0.10124338 -1.0198663
1.6805198 -0.91760695 -0.38932717
0.44940817 0.060046077 -0.99684179
0.56548822 -0.035863161 -1.0074539
7.0772305 -5.3529525 -0.45290846
0.61512363 -0.074865222 -0.97541118
6.2086239 -4.6256776 -0.19861172
0.85154247 -0.27218413 -1.0331275
1.0320687 -0.42136216 -1.0500145
6.3564167 -4.7227349 0.24422644
1.1767428 -0.5396229 -1.0400435
6.7900009 -5.0647888 0.49945664
1.3867307 -0.71247113 -1.0473902
6.9902391 -5.2151556 0.75576997
1.580678 -0.8711344 -1.0362927
7.3506327 -5.4950342 1.0486835
1.7015028 -0.96778595 -0.98945719
7.0387201 -5.2278867 1.2490492
1.708293 -0.96864617 -0.90355796
6.9602699 -5.1508904 1.4780515
1.7074594 -0.9631716 -0.81631142
6.6816769 -4.9121432 1.6594988
7.4121799 -5.4886127 2.0862763
1.7100601 -0.95589626 -0.64489233
7.3635654 -5.435133 2.3332059
1.722667 -0.96172011 -0.56239492
0.25123668 0.21789455 -0.97830802
1.7290878 -0.97527468 -0.47872031
0.40539062 0.087931395 -1.0266247
1.6651289 -0.91747749 -0.38796723
0.45572698 0.047685027 -1.0024267
7.036025 -5.3701801 -0.69635832
0.56327403 -0.041443229 -1.0080007
6.6968956 -5.0758467 -0.43641096
0.66078806 -0.12160707 -1.0012063
6.2012987 -4.6534476 -0.19761918
0.85867989 -0.28708661 -1.0384505
6.8701105 -5.1932402 0.031877324
1.0374622 -0.43561053 -1.0543036
1.1514163 -0.52845502 -1.031129
6.6532917 -4.9889865 0.49134541
1.388556 -0.72533453 -1.0498675
15.912116 -12.568116 1.7264584
1.5570555 -0.86338747 -1.0296094
1.6700571 -0.95404541 -0.98090452
7.0631857 -5.2855229 1.2575557
2.2606881 -1.4464709 -1.0653089
6.8898058 -5.1307454 1.4688845
6.7723837 -5.0218863 1.6856519
7.3230104 -5.4414253 2.3282969
0.27501929 0.19083536 -0.99636859
17.680683 -14.359817 -2.6118081
0.39784205 0.087282777 -1.0237814
1.6401966 -0.91007102 -0.38564026
0.45902252 0.037402511 -1.0063367
0.5413146 -0.030490875 -0.99751449
6.6442089 -5.0705104 -0.43373853
0.68766546 -0.15317547 -1.0173011
0.84557402 -0.28529143 -1.0339442
6.2967653 -4.7568297 0.023053631
1.0166636 -0.4281491 -1.0467453
6.3429747 -4.7829404 0.24759473
1.1982419 -0.57935464 -1.0528359
6.6421471 -5.018085 0.49319607
1.3607919 -0.71376669 -1.0409538
15.812127 -12.570101 1.7228459
1.5434177 -0.86472285 -1.0265752
20.5842 -16.470757 2.9006071
1.6975474 -0.99086797 -0.99147654
7.0816135 -5.3409901 1.2653683
2.2377808 -1.4435185 -1.060446
6.8917389 -5.1717863 1.4744531
2.6147041 -1.7563313 -1.0536675
6.728817 -5.0250998 1.6812887
7.2748518 -5.4578872 2.0634997
4.2032099 -3.0806394 -1.1345947
7.3568745 -5.5106053 2.3455997
5.0615749 -3.7927055 -1.1136589
7.1757097 -5.3487997 2.5517418
0.25022256 0.20554137 -0.98154044
17.565104 -14.361753 -2.5996592
0.38195372 0.093520761 -1.0156997
1.6363018 -0.92097151 -0.3854996
0.45244277 0.03519237 -1.0044268
7.8286142 -6.1192007 -0.75424165
0.51087236 -0.01245904 -0.9822998
6.6854858 -5.1458712 -0.43500471
0.69446969 -0.16820598 -1.0229597
6.3473091 -4.8501072 -0.19736533
0.72728515 -0.19316959 -0.97759628
6.2408171 -4.7489901 0.023626938
0.98704529 -0.41353178 -1.035234
6.3544359 -4.8316197 0.25035739
1.1852639 -0.58005822 -1.0493962
6.7218666 -5.1251087 0.50239897
1.3313184 -0.70121133 -1.0314584
1.505959 -0.8463577 -1.0151447
20.674675 -16.66036 2.9248717
1.656517 -0.97033799 -0.98001325
7.1383295 -5.4308991 1.2800306
2.1772964 -1.4093548 -1.044732
6.7444782 -5.0922518 1.4504046
2.576853 -1.7435211 -1.0456812
6.7115345 -5.0519857 1.6833259
3.1936152 -2.2606421 -1.0708773
7.2682276 -5.4964466 2.0689046
4.2107506 -3.1148405 -1.1378472
7.2443991 -5.4627852 2.3204544
5.0942402 -3.8526859 -1.1206216
7.1106529 -5.3390131 2.5389857
0.26484954 0.18698943 -0.99322772
17.457781 -14.353502 -2.5880716
0.35588336 0.11005294 -1.0006944
1.6228766 -0.92146742 -0.38433528
0.44513106 0.034968734 -1.0017316
7.79249 -6.1280947 -0.75176322
0.53803992 -0.043009043 -0.99938846
6.6778011 -5.1737051 -0.43429327
0.68373632 -0.16656041 -1.0189999
6.3036366 -4.8461657 -0.19599484
0.80697119 -0.27014148 -1.0186597
6.2325716 -4.7743874 0.024804547
0.94697058 -0.38782787 -1.0185359
6.3750391 -4.8817034 0.25321537
1.1602917 -0.56835818 -1.0405126
6.6451693 -5.0954065 0.49876165
1.3378179 -0.71733487 -1.0356685
1.5282612 -0.87683809 -1.0247295
22.255741 -18.073833 3.1564882
1.6948915 -1.0152422 -0.99397534
7.6281815 -5.8744121 1.3679186
2.2073998 -1.4494239 -1.0551008
6.7289324 -5.1138682 1.4518214
2.5988381 -1.7783748 -1.0529208
6.7005939 -5.0772882 1.6858419
3.2368958 -2.3163671 -1.0822334
7.2167482 -5.4907327 2.0613356
4.1872883 -3.1181946 -1.1347384
7.1961088 -5.4596744 2.3127716
5.0808945 -3.8686032 -1.1197532
7.0687771 -5.340662 2.5323308
0.28454006 0.16342044 -1.0085491
17.340363 -14.341524 -2.5753238
0.33511198 0.12171984 -0.98916692
1.6060436 -0.91978085 -0.38283581
0.43214488 0.039328098 -0.9957093
20.221764 -16.727533 -1.6557258
0.52334464 -0.037620902 -0.99286276
6.4645691 -5.0296664 -0.42493689
0.67417276 -0.16638374 -1.0157703
6.2895012 -4.8691387 -0.19491951
0.8309449 -0.29982924 -1.0323838
6.3316612 -4.8926468 0.028091952
0.84405816 -0.30768168 -0.97295207
7.4717522 -5.8412189 0.30937296
1.1839523 -0.59936702 -1.0524241
6.7951984 -5.2581329 0.51332641
1.2526095 -0.65478206 -1.0040891
1.5237684 -0.88516152 -1.024868
21.32303 -17.403244 3.0364141
1.6973679 -1.030382 -0.99643236
2.2146509 -1.4711155 -1.0589402
6.6863899 -5.1152716 1.4480962
2.6960213 -1.8792244 -1.0798705
6.6657467 -5.0850282 1.6831393
3.2897589 -2.3820677 -1.0959257
7.1671667 -5.4887323 2.0546267
4.1871262 -3.1429367 -1.1363156
7.3493376 -5.6258554 2.3650355
5.0605812 -3.8803849 -1.1178323
7.0242701 -5.3423104 2.5252521
0.23338068 0.20212936 -0.97549403
17.22649 -14.337374 -2.5632493
0.30208361 0.14400446 -0.96979761
1.5933964 -0.92236412 -0.38178653
0.44489789 0.020600557 -1.0054207
20.077492 -16.712412 -1.6456902
0.52639723 -0.048235536 -0.9965471
0.64903605 -0.15296817 -1.0043546
6.2909632 -4.9076133 -0.19396953
0.81647313 -0.29662001 -1.0271899
6.4717131 -5.0490584 0.032293335
0.95312274 -0.41273427 -1.0251428
21.353058 -17.653538 1.0014848
1.1469088 -0.57828808 -1.0386122
6.9782381 -5.452796 0.53082061
1.2975314 -0.70558202 -1.0235869
1.5072231 -0.88378131 -1.0208008
6.4155512 -4.9519095 0.94137537
1.6993797 -1.0460259 -0.99886286
2.0560403 -1.3502179 -1.0143137
6.6427593 -5.1178331 1.4444318
2.5650268 -1.7849337 -1.0475382
3.3356807 -2.4436979 -1.1081963
7.0593109 -5.440165 2.0328395
4.449892 -3.3958082 -1.1898144
7.4584856 -5.7594604 2.4050014
5.0589142 -3.9099631 -1.1191012
6.9458389 -5.3178697 2.5074737
0.24883056 0.1818558 -0.98806536
17.102268 -14.323572 -2.5497916
0.289361 0.14850783 -0.96349436
1.5777369 -0.92228734 -0.38042814
0.42490065 0.030810833 -0.99524665
19.933508 -16.696579 -1.6357001
0.51977026 -0.050337076 -0.99472874
6.6409025 -5.2573862 -0.43148911
0.62259889 -0.13818598 -0.99220401
0.7051084 -0.20778453 -0.97373325
6.156354 -4.8178782 0.027789488
0.95100987 -0.42103279 -1.0261399
21.614384 -17.990795 1.0209576
1.118587 -0.56454837 -1.0284812
6.9154634 -5.4402585 0.5286817
1.3263206 -0.74274981 -1.0368309
6.7156429 -5.2573333 0.74903965
1.5313852 -0.91791832 -1.0313721
6.3694372 -4.9508176 0.93870056
1.6925485 -1.0540329 -0.99842834
6.2898645 -4.8711591 1.1521266
2.2764838 -1.558148 -1.0808131
6.6369333 -5.1520667 1.4484303
2.5930295 -1.8276912 -1.056635
3.187813 -2.3376794 -1.0761417
7.0283213 -5.4553552 2.031352
4.3090553 -3.3018336 -1.16386
7.311511 -5.6793585 2.3690696
5.0571318 -3.9395714 -1.1203703
