# .PCD v0.7 - Point Cloud Data file format
VERSION 0.7
FIELDS x y z
SIZE 4 4 4
TYPE F F F
COUNT 1 1 1
WIDTH 1492
HEIGHT 1
VIEWPOINT 0 0 0 1 0 0 0
POINTS 1492
DATA ascii
25.202549 -6.6043582 0.74101514
2.249902 -0.37796721 -1.0867338
2.5523069 -0.46310493 -1.1075503
50.957428 -13.500215 4.1038709
2.9219453 -0.56716239 -1.1328673
50.483421 -13.285913 5.3059859
3.2630503 -0.66150594 -1.1319079
3.5984499 -0.75309253 -1.1139133
4.4170485 -0.98434162 -1.1816088
5.5269837 -1.2971116 -1.2621211
9.2135706 -2.3478904 -1.7021089
10.127159 -2.5927157 -1.5858974
1.0949161 -0.058824092 -1.0210814
13.334983 -3.5310187 -1.6771522
1.2246923 -0.0962874 -1.0374428
24.921402 -6.8206768 -2.3400097
1.3403797 -0.12890676 -1.0407716
24.949774 -6.7861748 -1.7250023
1.4677241 -0.16476551 -1.0437503
20.336962 -5.4399004 -0.93097734
1.6584063 -0.21975198 -1.0669342
21.131954 -5.6285481 -0.43934691
1.8797426 -0.28352365 -1.0930581
20.053783 -5.2915101 0.070343062
2.0403533 -0.32798544 -1.0857382
21.69327 -5.7122064 0.62555498
2.245831 -0.38550147 -1.0855559
21.19071 -5.5366449 1.1306126
2.5461402 -0.47097632 -1.1057794
51.095692 -13.702332 4.1293683
2.8932843 -0.5694766 -1.1247406
49.87701 -13.283378 5.2559819
3.2562487 -0.67147255 -1.1301714
3.6736515 -0.7884326 -1.1315857
4.495769 -1.0231889 -1.1980032
5.3217115 -1.2562165 -1.2238506
9.24547 -2.388083 -1.7065132
10.095583 -2.6174061 -1.5806403
1.1191304 -0.071082145 -1.0345795
13.391704 -3.5864162 -1.6820636
1.2576909 -0.11165246 -1.0546784
1.3632958 -0.14134267 -1.0521376
29.521273 -8.1701441 -2.0048542
1.4505231 -0.1649166 -1.036261
25.005482 -6.8309445 -1.1033967
1.6639113 -0.22755721 -1.0695484
20.952543 -5.6385818 -0.43324685
1.8923023 -0.29412737 -1.0982876
20.069479 -5.3538675 0.074369892
2.0330896 -0.33290908 -1.0832934
21.732765 -5.7858558 0.63149804
2.1365421 -0.35977021 -1.0485319
20.847759 -5.5022354 1.115268
2.5384171 -0.47721013 -1.1035092
49.403515 -13.378986 4.0013537
2.979399 -0.6050967 -1.1495961
49.901264 -13.43221 5.2716718
3.2943788 -0.69352472 -1.1401763
3.6481707 -0.79257035 -1.1255544
4.3530459 -0.99482751 -1.1678784
5.455317 -1.3120942 -1.2482939
9.2952461 -2.4301195 -1.71387
10.133522 -2.6583004 -1.5849223
1.1058671 -0.072284251 -1.0278037
13.316401 -3.6112614 -1.672122
1.2424464 -0.11271355 -1.0472877
1.3114429 -0.1311008 -1.0275241
72.966377 -20.890345 -4.6851087
1.4803002 -0.18098155 -1.0501117
25.357244 -7.0188165 -1.1119221
1.6513865 -0.2309421 -1.0645871
21.09683 -5.7526321 -0.43079722
1.9080391 -0.30716506 -1.1048404
25.108831 -6.8620582 0.13340221
2.0344496 -0.34191552 -1.0840765
21.220667 -5.7158585 0.61903763
2.2341282 -0.39892074 -1.082001
20.828701 -5.5692263 1.1198803
2.5119233 -0.47934654 -1.0953877
48.97504 -13.42796 3.9801569
2.9468107 -0.60690546 -1.1403685
49.463383 -13.481043 5.2402654
3.2427506 -0.69066691 -1.1267536
3.6276848 -0.80041897 -1.120705
4.5402622 -1.0675406 -1.2070848
5.3424826 -1.2985154 -1.2271374
9.2941418 -2.4629002 -1.7129803
10.14501 -2.697648 -1.5854677
1.1248586 -0.083338708 -1.0385171
13.524645 -3.7146649 -1.6936905
1.2119925 -0.10809627 -1.0320562
1.2961633 -0.1316472 -1.0205027
20.870962 -5.8235211 -1.4624008
1.5119526 -0.19710037 -1.0647902
23.983873 -6.6959834 -1.0565701
1.6072676 -0.22339085 -1.0461947
1.9025552 -0.31269464 -1.1029704
24.863497 -6.8685031 0.13583086
2.0432327 -0.35232452 -1.0875707
21.143684 -5.7593126 0.62109721
2.2355816 -0.40762338 -1.0827178
21.007441 -5.6845737 1.1356041
2.4893999 -0.48143092 -1.0884978
49.40139 -13.698141 4.0285935
2.9532781 -0.61929536 -1.1423612
48.494598 -13.358888 5.1495819
3.1952507 -0.68736041 -1.1144106
3.6281259 -0.81299734 -1.1207979
4.3148556 -1.0142825 -1.1596051
5.4075809 -1.3357728 -1.2389143
9.3147345 -2.4985614 -1.7156554
10.27526 -2.7685766 -1.6021862
1.1150343 -0.085324258 -1.0336006
13.546915 -3.7662816 -1.6946356
1.2002795 -0.10976383 -1.0264543
1.3291969 -0.14817628 -1.0368271
1.4980028 -0.19905177 -1.0588405
20.830366 -5.8442369 -0.93539989
1.6443071 -0.2420713 -1.0622469
20.846062 -5.8134594 -0.41951191
1.8630702 -0.30778989 -1.0876638
24.705366 -6.9037714 0.13945149
2.0482531 -0.36208573 -1.0897068
25.035549 -6.9574876 0.76437205
2.2132905 -0.40936694 -1.0753666
21.176922 -5.8025331 1.1511946
2.5124335 -0.4982594 -1.0959289
49.423519 -13.864764 4.0442076
2.9521649 -0.63002837 -1.1421937
49.519802 -13.808531 5.2751431
3.2421267 -0.71376669 -1.1267384
3.6450994 -0.8314805 -1.1247946
4.4025865 -1.0566466 -1.1779312
5.3422408 -1.3347794 -1.2265846
9.3441715 -2.5389307 -1.7197189
10.300212 -2.8106294 -1.6046236
1.0968606 -0.084175259 -1.0241195
13.484066 -3.7896762 -1.6863042
1.1886554 -0.11107686 -1.0208774
1.3294373 -0.15380022 -1.0373147
20.307331 -5.7877016 -1.4216154
1.531297 -0.21597722 -1.074296
20.91637 -5.9343638 -0.93515825
1.6866646 -0.26231363 -1.0805564
20.980078 -5.9177489 -0.41737413
1.8932078 -0.3246682 -1.0999148
19.817972 -5.5397267 0.088744387
2.0246146 -0.36222091 -1.0812802
25.244808 -7.0961089 0.77747244
2.2872 -0.44114563 -1.100798
21.241573 -5.8870311 1.1602747
2.484411 -0.49849567 -1.0873277
49.384476 -14.00465 4.0539131
2.9456754 -0.63842845 -1.1404808
48.138771 -13.562284 5.1392512
3.2705591 -0.73399901 -1.1342542
3.6491735 -0.8452909 -1.1257628
4.2787161 -1.0330919 -1.1518162
5.3958282 -1.3689559 -1.2362517
9.3077965 -2.5575202 -1.7133216
10.357816 -2.8608129 -1.6115346
1.0820715 -0.084061176 -1.01648
13.873854 -3.9512806 -1.7278239
1.1923864 -0.11745057 -1.0231847
1.3417401 -0.1634334 -1.0436382
20.653248 -5.9553943 -1.4398954
1.5209074 -0.21871689 -1.0699552
20.778112 -5.9575968 -0.92665231
1.6531422 -0.25796744 -1.0666736
21.086857 -6.0147905 -0.41485202
1.8716667 -0.32491198 -1.0917056
25.112421 -7.1776137 0.15426074
2.0476794 -0.37734339 -1.0900654
24.964762 -7.0912476 0.77307624
2.2758551 -0.44594494 -1.0971835
24.724899 -6.9785137 1.3749804
2.5586052 -0.53128457 -1.1108372
49.47514 -14.182497 4.0745692
2.8748336 -0.62632966 -1.1202673
48.180557 -13.722034 5.1574807
3.2970617 -0.75380909 -1.1412764
3.638314 -0.85444605 -1.1232227
4.3178267 -1.059805 -1.1599529
5.4624405 -1.407535 -1.2483308
9.3167257 -2.589952 -1.7141771
10.352668 -2.8920817 -1.6099871
1.1127462 -0.099267095 -1.033603
14.238161 -4.1074476 -1.7664809
1.204618 -0.12671766 -1.0298671
1.3315918 -0.16564026 -1.0391239
20.690989 -6.0310802 -1.4392664
1.5000577 -0.21792755 -1.0608726
21.06251 -6.1086259 -0.93367755
1.6249382 -0.25518999 -1.0550475
20.797012 -5.9926562 -0.4073832
1.7754564 -0.3005031 -1.053902
24.344122 -7.0242977 0.15031217
2.0204458 -0.37618628 -1.080326
24.887932 -7.1456127 0.77591354
2.239172 -0.44246104 -1.0849342
24.623409 -7.0249743 1.3749323
2.5542407 -0.53916383 -1.1096861
49.515491 -14.346288 4.0910487
2.8940682 -0.64275515 -1.1259691
48.433632 -13.94446 5.1988339
3.1681912 -0.7241751 -1.1077018
3.5084012 -0.82574403 -1.0926483
4.2951202 -1.0672536 -1.1551129
5.3203044 -1.3809693 -1.2218764
9.3519707 -2.6307158 -1.7192483
10.449718 -2.9551404 -1.6222317
1.084316 -0.09507075 -1.0185964
14.127392 -4.123168 -1.7527094
1.2200391 -0.13780466 -1.0382546
1.359149 -0.1812298 -1.0528966
20.281773 -5.9769735 -1.4110408
1.4598596 -0.21127608 -1.0430539
21.183445 -6.219512 -0.93423474
1.6422884 -0.26826242 -1.0628206
20.658234 -6.0230389 -0.4013958
1.8639102 -0.33766285 -1.0893464
24.284174 -7.091042 0.15517782
1.9840097 -0.37278715 -1.0672339
24.846579 -7.2199783 0.78070998
2.1371646 -0.41835502 -1.0504347
20.752615 -5.9463863 1.1469961
2.5550003 -0.54986262 -1.1101829
48.780376 -14.297553 4.0433669
2.9183846 -0.6622591 -1.1331677
48.16967 -14.033514 5.1855264
3.2108998 -0.75051022 -1.1189926
3.6439703 -0.88297915 -1.1246252
4.357842 -1.1036773 -1.1682204
5.3260646 -1.402694 -1.2227187
9.3520889 -2.6643932 -1.7186598
10.477212 -3.0011759 -1.6250033
1.1081817 -0.10814783 -1.0320424
14.17945 -4.184093 -1.7570286
1.2253878 -0.14489177 -1.0414294
1.3179877 -0.17287138 -1.0333955
20.355564 -6.0632601 -1.4126755
1.4616787 -0.21787503 -1.044266
20.372776 -6.0338025 -0.90139008
1.6351984 -0.27241012 -1.0601757
1.8299561 -0.3334972 -1.0762274
24.282135 -7.1659327 0.16010748
1.8672786 -0.34147719 -1.0244889
20.803076 -6.0616951 0.6381433
2.1656308 -0.43582824 -1.060416
24.704124 -7.2121286 1.3927455
2.5287449 -0.55052567 -1.1021698
48.806904 -14.455857 4.0585761
2.9301491 -0.67653036 -1.1367445
48.228951 -14.19982 5.2058544
3.2889481 -0.78724861 -1.1395205
48.712444 -14.263295 6.463028
3.6367362 -0.89326096 -1.1229689
4.2697163 -1.0900677 -1.149662
5.5762177 -1.5006337 -1.2686999
6.7986622 -1.88008 -1.3108753
10.418719 -3.0160184 -1.6163133
1.126781 -0.12016597 -1.042694
14.220221 -4.2474208 -1.7599447
1.2543221 -0.16085199 -1.0568007
1.2870054 -0.16845843 -1.0188624
20.36965 -6.1392345 -1.4103289
1.4806488 -0.23111698 -1.0533314
20.371626 -6.1050601 -0.89764535
1.654217 -0.28622523 -1.0686873
16.360828 -4.8180394 -0.34261048
1.829484 -0.34134653 -1.0764388
20.828041 -6.1779981 0.12265609
1.9562488 -0.37955913 -1.0576589
20.769016 -6.1243582 0.64218688
2.2099738 -0.45982978 -1.0758677
20.576385 -6.0300879 1.1471524
2.489454 -0.54785275 -1.0900941
48.844738 -14.636862 4.0764213
2.9359972 -0.69024539 -1.1386548
20.902044 -6.0591173 2.2143078
3.2189186 -0.77720165 -1.1213647
3.4361377 -0.84177125 -1.0757738
4.2595148 -1.1031175 -1.1474769
5.4935169 -1.4946835 -1.2532361
6.7840829 -1.9004178 -1.3081288
10.394949 -3.0458307 -1.6122209
1.1052449 -0.11758253 -1.0314021
14.126019 -4.2620378 -1.748255
1.240917 -0.16154435 -1.0503551
20.507357 -6.2817307 -1.9304296
1.2957668 -0.17698029 -1.0235194
20.543653 -6.2584357 -1.4180257
1.4841452 -0.23839256 -1.0553291
20.414438 -6.1824169 -0.89590299
1.6295393 -0.2843487 -1.0585779
16.418612 -4.887826 -0.34027123
1.8434126 -0.35323527 -1.0823326
24.589518 -7.4232407 0.17452155
1.9934506 -0.39971283 -1.071715
24.888924 -7.4750643 0.7997973
2.2526972 -0.48255244 -1.0907501
2.4759617 -0.55246902 -1.0861043
20.986788 -6.1865416 1.700897
2.9751072 -0.7138207 -1.1501279
3.2525351 -0.79974675 -1.1303003
48.300869 -14.457601 6.4396324
3.5439117 -0.88943446 -1.1012317
4.3839469 -1.1585824 -1.1735823
5.390954 -1.4794557 -1.2341471
6.7965636 -1.9267347 -1.3097565
10.493074 -3.1108625 -1.6246413
1.1055193 -0.12261036 -1.0320174
14.135898 -4.3099813 -1.7479947
1.1969759 -0.15140179 -1.0281904
20.488932 -6.3400197 -1.9264841
1.2873313 -0.1795384 -1.0198566
20.641125 -6.3541808 -1.4210706
1.4442337 -0.23057607 -1.0375923
20.283737 -6.2046056 -0.88794756
1.6329379 -0.29205951 -1.0604181
16.373238 -4.9252019 -0.33673525
1.8466747 -0.36154559 -1.0840032
24.607473 -7.5057793 0.17976461
2.0162766 -0.41517958 -1.0804816
25.152506 -7.6359239 0.8152619
2.2719045 -0.49753579 -1.0976183
20.512733 -6.1392798 1.1534716
2.4715414 -0.56009316 -1.0849755
20.975433 -6.2489095 1.7056127
2.9501259 -0.7160449 -1.1431583
20.896725 -6.1887145 2.225981
3.2658136 -0.81569529 -1.1339291
48.896492 -14.79108 6.5351877
3.6144297 -0.92534685 -1.1179245
4.3461585 -1.1609982 -1.1656289
5.3726974 -1.4914621 -1.2306262
6.8183498 -1.9562197 -1.3128777
10.639959 -3.1924777 -1.6436173
1.0670896 -0.1144115 -1.0115516
14.225262 -4.3897901 -1.7562786
1.2156336 -0.1639156 -1.0383126
53.943485 -17.346056 -4.7589288
1.3318577 -0.20147923 -1.0419267
20.891567 -6.5085249 -1.4329616
1.4804428 -0.25004163 -1.0545413
20.685183 -6.4061828 -0.89859366
1.6203091 -0.29501733 -1.0554945
20.352251 -6.2641435 -0.37812293
1.78952 -0.34977165 -1.0617256
19.579027 -5.9822602 0.11963724
2.0458956 -0.43412557 -1.0918175
20.068684 -6.1049981 0.6305933
2.2781463 -0.50926149 -1.1001101
20.430773 -6.1859221 1.1541561
2.3742831 -0.53706396 -1.054674
20.999516 -6.3307481 1.7141078
2.9302557 -0.72119188 -1.1376969
3.1866813 -0.80189157 -1.1134161
48.928295 -14.971824 6.5567155
3.5659411 -0.92321181 -1.1065964
4.371089 -1.1860839 -1.1708571
5.5406518 -1.5677471 -1.2614448
6.7566309 -1.9609823 -1.3026654
10.653356 -3.2353046 -1.6445599
1.0976567 -0.12966534 -1.0286747
14.106093 -4.3898859 -1.7421023
1.1990511 -0.16259804 -1.0301763
53.293083 -17.277918 -4.6985683
1.3527048 -0.2138513 -1.0524313
20.337845 -6.3844781 -1.3971775
1.4737008 -0.25299069 -1.051852
17.565342 -5.4454784 -0.78501368
1.5293915 -0.26868245 -1.0171224
16.367859 -5.0271091 -0.33067095
1.7859654 -0.35469499 -1.0606493
17.471756 -5.3558445 0.095217749
2.0296435 -0.43531552 -1.0861307
19.894562 -6.1044359 0.62801129
2.2490048 -0.50663495 -1.0904365
20.488461 -6.2607327 1.1622118
2.5224421 -0.59592283 -1.1015475
2.8235431 -0.69379795 -1.1071626
3.2003341 -0.81647527 -1.1171392
48.934708 -15.107052 6.5710378
3.5867884 -0.94123542 -1.1115937
4.2093239 -1.1445175 -1.1368877
5.5135179 -1.5748663 -1.2563238
6.7134442 -1.9660435 -1.2955043
10.725574 -3.2893085 -1.653604
1.0910265 -0.13280371 -1.0255976
14.276139 -4.4973221 -1.7592229
1.2041008 -0.17032912 -1.033311
52.601021 -17.233479 -4.6333904
1.2669506 -0.18942013 -1.0113399
20.31665 -6.4495802 -1.3927934
1.4699721 -0.25850877 -1.0506502
20.432497 -6.4532027 -0.88308573
1.5220902 -0.27313092 -1.0144613
20.276642 -6.3676696 -0.369892
1.8136609 -0.37243298 -1.0721054
24.698692 -7.7767816 0.19666539
2.0252993 -0.44256064 -1.0849421
19.852833 -6.1615949 0.63152248
2.2480152 -0.51582217 -1.0904744
20.767185 -6.4235783 1.1853808
2.5447221 -0.61416638 -1.108894
46.765816 -14.745419 3.9630313
2.7363017 -0.67507613 -1.0822936
21.054369 -6.4450769 2.2628684
3.1892388 -0.82547402 -1.1144415
48.893547 -15.265525 6.5827937
3.3703048 -0.88111615 -1.0606871
4.3660526 -1.2143419 -1.169818
5.5036831 -1.5923491 -1.2543733
6.6761441 -1.9784105 -1.289217
10.618271 -3.2920618 -1.638375
1.0828111 -0.13502076 -1.0216275
14.273123 -4.5446978 -1.7575289
1.1872401 -0.16977623 -1.0251243
1.2789245 -0.19958076 -1.0176338
20.565332 -6.6009927 -1.4047487
1.4697974 -0.2649208 -1.0510494
17.49527 -5.5439405 -0.77642465
1.565552 -0.29539058 -1.0334293
20.189989 -6.4070959 -0.36505091
1.7920237 -0.37230244 -1.0639294
24.658972 -7.8463397 0.20146964
2.0210776 -0.44935319 -1.0837847
20.387547 -6.4037781 0.65679407
2.2525353 -0.52644265 -1.0923867
20.524387 -6.4141641 1.1757028
2.4314544 -0.58432162 -1.073542
46.696957 -14.878219 3.9704723
2.7094884 -0.67631614 -1.0748267
20.353914 -6.2896156 2.1911974
3.1838329 -0.83569694 -1.1132315
49.48727 -15.61862 6.6802545
3.5565512 -0.9583323 -1.1047096
4.4169769 -1.2478518 -1.1805398
5.4233179 -1.5844684 -1.2394394
6.5437841 -1.9567623 -1.2678365
10.639434 -3.3356652 -1.6404574
1.0947978 -0.14406005 -1.0286623
14.316864 -4.602356 -1.7611113
1.1722763 -0.16917226 -1.0178553
51.274654 -17.111044 -4.5099969
1.2654326 -0.1998122 -1.0115138
20.556585 -6.6590242 -1.4016337
1.4266441 -0.25493202 -1.0318018
17.462645 -5.5851111 -0.77268088
1.5655196 -0.3013778 -1.0338144
20.056372 -6.42239 -0.3602103
1.8182452 -0.38839969 -1.0747533
24.66184 -7.9202056 0.20621787
2.0100167 -0.45270565 -1.0800569
48.549015 -15.782759 1.7445765
2.2483714 -0.53294361 -1.0912941
20.426487 -6.4429207 1.1743824
2.4379635 -0.59513354 -1.0758784
46.693848 -15.014091 3.9820666
2.8450398 -0.73344827 -1.1141524
20.333885 -6.3436332 2.1946516
3.1898172 -0.84847772 -1.1149877
48.926853 -15.581978 6.618361
3.4590573 -0.93603933 -1.0818417
4.3830881 -1.2503202 -1.1734558
5.4312434 -1.6043663 -1.2408099
10.757464 -3.4083238 -1.6556294
1.0881367 -0.14714667 -1.0255903
14.22424 -4.6220307 -1.7496132
1.2110305 -0.18941686 -1.038426
1.268713 -0.20719495 -1.0136353
20.526974 -6.7222309 -1.3967769
1.3607862 -0.23745981 -1.0022686
17.464636 -5.6483564 -0.76964283
1.6052098 -0.32310006 -1.0512458
20.872305 -6.7695208 -0.36456323
1.8105464 -0.39369175 -1.072167
24.643003 -8.001565 0.21160398
1.9487836 -0.4393141 -1.0578365
47.932632 -15.747587 1.7329996
2.1702726 -0.51442564 -1.064965
2.5522292 -0.64629662 -1.1122493
46.759598 -15.200463 4.00211
2.8869991 -0.76006091 -1.1265651
20.699139 -6.5366993 2.2425725
3.1530201 -0.84829783 -1.1055913
48.64106 -15.660822 6.5967364
3.6556013 -1.0191733 -1.1283362
4.424262 -1.2817881 -1.1821562
5.5496745 -1.6663945 -1.2625463
6.5639739 -2.0087113 -1.2704868
10.80945 -3.4654846 -1.6618217
1.0666692 -0.1440064 -1.0143402
14.298744 -4.6935563 -1.7564969
1.2077441 -0.19351295 -1.0372386
1.2824061 -0.21780404 -1.0207729
20.476988 -6.7702441 -1.3910764
1.4228334 -0.26624683 -1.0310446
17.372078 -5.672411 -0.76367998
1.6537545 -0.34754327 -1.0724303
24.564383 -8.0939665 -0.3983295
1.794313 -0.39492384 -1.0661339
24.909061 -8.1698484 0.22042964
1.9855294 -0.46033409 -1.0718411
20.363798 -6.5940499 0.67012668
2.1480851 -0.51467335 -1.0577288
20.301453 -6.5389585 1.1774004
2.4105029 -0.6045959 -1.0678982
46.815128 -15.365858 4.0197406
2.8783746 -0.76748228 -1.1243657
3.2373588 -0.88980198 -1.1279019
3.5137475 -0.98160017 -1.0950311
4.4714251 -1.3137736 -1.1921206
5.6109004 -1.7067411 -1.2737576
6.5722728 -2.0335379 -1.2715516
10.70142 -3.4628401 -1.6466761
1.0784996 -0.15338966 -1.0213534
14.213373 -4.7096019 -1.7459965
1.2027638 -0.19695929 -1.0351816
1.3250217 -0.23937294 -1.0420002
19.589323 -6.527267 -1.3357346
1.4124048 -0.2683461 -1.0267562
17.326757 -5.7123175 -0.75938427
1.6464992 -0.351558 -1.0698018
24.559471 -8.1702061 -0.39386356
1.7851164 -0.39867178 -1.0629085
17.386591 -5.6744437 0.11641966
1.9175828 -0.44307843 -1.0470788
20.292845 -6.6348171 0.67200828
2.2010043 -0.54229259 -1.0762293
17.93903 -5.8029714 1.0321233
2.5446832 -0.66253209 -1.1105524
46.832329 -15.518946 4.0340533
2.9278042 -0.79591179 -1.1389301
46.778965 -15.422707 5.2024684
3.2794898 -0.91662657 -1.1391752
3.6404216 -1.0395571 -1.1250643
4.5073657 -1.3420725 -1.1997395
5.4770031 -1.678138 -1.2490132
6.7128787 -2.105268 -1.2936655
10.705783 -3.4991698 -1.6466078
1.0652685 -0.15356472 -1.0146576
14.095261 -4.7164564 -1.7318959
1.1976755 -0.20067444 -1.0331073
1.3248761 -0.24537531 -1.042472
19.533077 -6.5739899 -1.3296676
1.4018641 -0.27072039 -1.0224499
17.312376 -5.7662864 -0.75600588
1.6165085 -0.34743121 -1.0574895
16.481752 -5.4487677 -0.30998266
1.7810457 -0.40473107 -1.0617611
17.345661 -5.7195301 0.1196122
1.9399276 -0.45938954 -1.0557963
20.150656 -6.6547875 0.67134404
2.1321812 -0.52582622 -1.0530475
17.803076 -5.8175454 1.0282782
2.4767978 -0.64766991 -1.0895091
45.470882 -15.212004 3.9271946
2.9188893 -0.80400372 -1.1366882
47.892586 -15.956888 5.3435054
3.1862361 -0.89520109 -1.1150017
3.5829799 -1.0324602 -1.1116923
4.4948988 -1.3541505 -1.1972063
5.5506902 -1.7243521 -1.2625407
6.7875137 -2.1557808 -1.3052797
10.873894 -3.5959654 -1.668431
1.0553672 -0.15495214 -1.0097914
14.13275 -4.7782049 -1.7347331
1.2077062 -0.21017954 -1.0388684
1.3077071 -0.24488482 -1.0346597
20.210928 -6.8802004 -1.3669579
1.3810093 -0.26911893 -1.0134315
17.597616 -5.9258022 -0.76288652
1.6021855 -0.34905115 -1.0518755
16.475594 -5.5029569 -0.30675149
1.7506549 -0.40087608 -1.0501196
48.189938 -16.538958 0.58374739
1.9604301 -0.47517768 -1.063849
21.341475 -7.136817 0.72346431
2.2222662 -0.56814241 -1.0843507
2.4845371 -0.66042745 -1.0923324
44.19841 -14.926997 3.8274922
2.9298749 -0.81940854 -1.1402036
48.025066 -16.162994 5.3737979
3.1259451 -0.88529623 -1.0994666
3.6356461 -1.0652641 -1.1243079
5.3721662 -1.6797764 -1.2295959
6.7409601 -2.1631665 -1.2976407
10.895848 -3.64153 -1.6707008
1.0904455 -0.1731858 -1.0295845
14.115637 -4.8149042 -1.7318006
1.1910384 -0.20875069 -1.0307441
48.536167 -17.124933 -4.2472382
1.3162546 -0.25349417 -1.0393174
20.265335 -6.9602919 -1.3676984
1.4548633 -0.30294862 -1.0476812
17.490623 -5.9408712 -0.75667536
1.6158884 -0.36045387 -1.0581973
1.6697674 -0.37681225 -1.0182577
17.616524 -5.9264112 0.13083421
2.0112195 -0.50157404 -1.0831007
44.458752 -15.295299 1.6493492
2.1876974 -0.56315506 -1.0728735
17.550589 -5.8440924 1.0210961
2.4584618 -0.65944505 -1.084443
44.033054 -15.000841 3.8241911
2.883323 -0.81215858 -1.1270669
48.166512 -16.354313 5.4034343
3.1718132 -0.91291749 -1.1117351
17.457554 -5.7230673 2.3506873
3.6868403 -1.0962604 -1.1365675
4.3599534 -1.3358815 -1.1690457
5.572289 -1.7700412 -1.2664542
6.5521512 -2.1157904 -1.2674375
10.808936 -3.643476 -1.6585031
1.0522399 -0.16380975 -1.0092038
14.017192 -4.830595 -1.7198563
1.1254287 -0.18910363 -0.99734604
1.3108585 -0.25782147 -1.0372877
20.362576 -7.068481 -1.3704641
1.4595704 -0.31168064 -1.0504202
17.449972 -5.9897175 -0.75224495
1.6031549 -0.3630344 -1.0533074
20.688574 -7.1163921 -0.33960807
1.763624 -0.42040899 -1.056259
1.997854 -0.50535333 -1.0786499
48.148941 -16.758968 1.8086864
2.1402135 -0.55464888 -1.0570384
17.168964 -5.7734771 1.0014571
2.4444277 -0.6645968 -1.0804307
44.369041 -15.275761 3.8679085
2.8325949 -0.8050524 -1.1127868
48.714985 -16.717432 5.4824314
3.2569053 -0.95767307 -1.1343582
3.5595858 -1.0636979 -1.1067549
4.3637829 -1.3544394 -1.1699753
5.273407 -1.6813006 -1.2113523
6.5870657 -2.153456 -1.2727661
10.852352 -3.6991625 -1.6636407
1.0573263 -0.17071977 -1.012565
14.15036 -4.9249744 -1.7331848
1.1958838 -0.22197321 -1.0344342
1.3158486 -0.26548317 -1.0402668
20.349344 -7.1291604 -1.3670712
1.4713426 -0.32244191 -1.0563425
17.456547 -6.048471 -0.74976742
1.5837569 -0.36213556 -1.0455031
20.85564 -7.2431092 -0.33741641
1.7578857 -0.42532191 -1.0544473
1.8030999 -0.43842474 -1.0067797
20.176136 -6.9308419 0.69147414
2.1109133 -0.55176032 -1.0473914
17.138145 -5.8181129 1.0038638
2.4899144 -0.69116104 -1.0951902
43.937157 -15.264159 3.8415022
2.7462339 -0.78283739 -1.0881625
3.1895659 -0.94410896 -1.1169804
17.350304 -5.8055339 2.3481011
3.520818 -1.0619189 -1.097808
4.0684958 -1.2594719 -1.1080371
5.4450245 -1.7632189 -1.2429783
6.6078606 -2.1834052 -1.2758868
10.828053 -3.7258358 -1.6598167
1.0870948 -0.1878328 -1.0295701
14.080649 -4.9481292 -1.7244737
1.1706479 -0.21764496 -1.021938
1.305455 -0.26747009 -1.0357786
20.313997 -7.1858792 -1.3622402
1.455555 -0.32284805 -1.0496821
20.043776 -7.0529733 -0.8337754
1.6420887 -0.39193818 -1.0710559
20.849754 -7.3123965 -0.33339787
1.788672 -0.44487378 -1.0672789
17.308924 -5.9966097 0.13752548
1.9504385 -0.50321901 -1.0619924
20.152138 -6.9914098 0.69544184
2.1667826 -0.58204746 -1.0670325
17.500719 -6.0071783 1.0321968
2.4473388 -0.68483913 -1.0821514
43.701874 -15.32896 3.8333273
2.6616175 -0.76139212 -1.0640557
16.858202 -5.7198882 1.8532877
3.1584091 -0.94461572 -1.1091161
17.323658 -5.8559647 2.3505607
3.6791022 -1.1352741 -1.1354179
4.1683116 -1.3123604 -1.1291511
5.4239373 -1.7751927 -1.2391014
6.6429238 -2.2202599 -1.2812743
10.879248 -3.7827096 -1.6660608
1.0721819 -0.18717054 -1.0219786
14.178699 -5.0335436 -1.7339463
1.1655154 -0.22121009 -1.0198772
16.996441 -6.0566435 -1.6013205
1.2764542 -0.26198789 -1.0222
52.374355 -19.11903 -3.230917
1.407284 -0.31028661 -1.0281236
16.872221 -5.953423 -0.72453153
1.6518912 -0.40300092 -1.0758303
1.7635405 -0.44269618 -1.0577608
17.306618 -6.0554867 0.14126877
1.9196479 -0.49941912 -1.051046
2.1816759 -0.59679198 -1.0726177
2.4334455 -0.68935418 -1.0781844
44.111565 -15.624836 3.8832355
2.6275957 -0.75889635 -1.0545797
16.908661 -5.7962804 1.8646631
3.2361014 -0.98668075 -1.1298326
17.285671 -5.9022856 2.3514371
3.6399515 -1.1343423 -1.1264178
4.1963196 -1.3386573 -1.1351869
5.5318704 -1.8358779 -1.259016
6.4982567 -2.1897018 -1.2581315
10.870748 -3.8176174 -1.6643484
1.0787356 -0.19513234 -1.0262263
14.03244 -5.027699 -1.7170066
1.1737401 -0.23014626 -1.0247664
16.932653 -6.0914302 -1.5942018
1.272845 -0.26652589 -1.0210302
17.002506 -6.0889654 -1.1639106
1.4069314 -0.31657222 -1.0285392
16.679083 -5.9399624 -0.71535993
1.6340308 -0.40314159 -1.068746
17.318707 -6.1487403 -0.29537952
1.7541227 -0.44658843 -1.0545321
44.547924 -16.153664 0.58559227
1.9240646 -0.50930417 -1.0531945
20.066092 -7.098526 0.70179784
2.1840947 -0.6067636 -1.0739286
43.395409 -15.585855 2.7444718
2.4713726 -0.71402729 -1.0906254
16.564003 -5.7582045 1.4031119
2.4712234 -0.70865285 -1.0096896
3.2664802 -1.0109904 -1.1381494
3.6500485 -1.1521444 -1.1290612
4.4001355 -1.4325762 -1.178202
5.4166918 -1.8121727 -1.2378234
6.4869733 -2.2089128 -1.2561879
10.980936 -3.8974557 -1.678496
1.0786643 -0.20043913 -1.0268322
14.156049 -5.1235371 -1.729269
1.1568971 -0.22894564 -1.0166304
16.930355 -6.1491847 -1.5922205
1.3046751 -0.28540751 -1.0372121
16.98333 -6.1406212 -1.1605189
1.321228 -0.28846827 -0.98976552
1.5627334 -0.38174465 -1.0387087
1.7777762 -0.4636375 -1.0645584
17.153357 -6.1183047 0.1463183
1.8968275 -0.50665927 -1.0435733
20.073463 -7.1705365 0.70703495
2.182936 -0.61535645 -1.0740198
43.414555 -15.740755 2.757462
2.3556671 -0.6784898 -1.0544412
2.8742981 -0.87665093 -1.1267823
3.2225502 -1.0065383 -1.1269619
3.6109211 -1.1509244 -1.1200832
4.3764744 -1.4399242 -1.1734051
5.4157414 -1.8317213 -1.2376965
6.3795786 -2.1912553 -1.2389989
10.940572 -3.9206519 -1.672565
1.0788829 -0.2049332 -1.0274918
14.066538 -5.1299458 -1.7187088
1.1337221 -0.22406998 -1.0050851
1.2777417 -0.27945533 -1.0245372
1.3229876 -0.29426149 -0.99104357
1.5591416 -0.38604149 -1.0376409
16.201004 -5.8376975 -0.2802186
1.7617979 -0.46355781 -1.0586199
17.126007 -6.1571326 0.14895324
1.9490578 -0.5342319 -1.0634525
2.1840429 -0.62326479 -1.0748124
17.230869 -6.1386504 1.0326982
2.4386842 -0.71935117 -1.0811058
16.409985 -5.8062835 1.3982774
2.9053664 -0.89829779 -1.1361333
16.970232 -5.9847279 1.8876734
3.2969229 -1.0461129 -1.1468022
3.6199224 -1.1658751 -1.12244
4.0337129 -1.3199716 -1.1014674
5.4195585 -1.8496351 -1.2384496
6.5708098 -2.2842026 -1.2692549
10.928329 -3.9476957 -1.6704987
1.0786762 -0.21052161 -1.0280802
14.090218 -5.1911702 -1.7201421
1.1517889 -0.23740986 -1.0151634
45.839199 -17.38183 -3.9835169
1.2722859 -0.28359666 -1.0225245
47.154808 -17.810179 -2.9022546
1.3463926 -0.31039199 -1.0024201
16.730829 -6.1267085 -0.70927465
1.5790925 -0.40156117 -1.0468421
1.7487175 -0.46636793 -1.0539787
17.032211 -6.184773 0.15134262
1.8655467 -0.50930524 -1.0329072
16.789188 -6.0646229 0.57926214
2.17205 -0.6280694 -1.0712212
42.864563 -15.813854 2.7430284
2.4209778 -0.72280204 -1.0759901
16.430998 -5.8747511 1.4055061
2.9139218 -0.91390467 -1.1390795
17.048264 -6.0763841 1.90277
3.1425562 -0.99850643 -1.1066208
17.374758 -6.1684909 2.3882923
3.6223419 -1.1815854 -1.1233183
4.3754468 -1.4705298 -1.1735578
5.5392466 -1.91766 -1.26059
6.6214747 -2.3292444 -1.2771759
10.900074 -3.9775882 -1.6661937
1.0901616 -0.22038499 -1.035068
14.299167 -5.3190417 -1.7416968
1.188314 -0.25791243 -1.0348123
45.818123 -17.521173 -3.9774308
1.2687366 -0.28779832 -1.0213792
23.171093 -8.697607 -1.5115042
1.3512523 -0.31830689 -1.0052181
16.824526 -6.2176862 -0.70980167
1.5717456 -0.40519378 -1.0442475
16.045916 -5.8913527 -0.27284515
1.768909 -0.48180947 -1.0626267
1.9190867 -0.5386498 -1.0533714
16.811928 -6.1284437 0.58413541
2.1780617 -0.63904142 -1.0737811
17.471088 -6.3496437 1.0582697
2.4303536 -0.73591268 -1.0794117
16.446547 -5.9346905 1.4116709
2.7382622 -0.85428774 -1.0885729
3.1856201 -1.0273454 -1.1182978
17.223825 -6.1692934 2.3728609
3.6887734 -1.2211771 -1.1393161
4.3666496 -1.4825968 -1.1719073
5.5438724 -1.938741 -1.261525
10.845521 -3.9925632 -1.6584628
1.0801618 -0.22158679 -1.0302202
14.278708 -5.3611922 -1.7384549
1.1847486 -0.26216975 -1.0336224
23.451975 -8.9264116 -2.1245024
1.2986813 -0.30633911 -1.0367151
23.105181 -8.7522182 -1.5047004
1.3644574 -0.33010748 -1.0119065
16.957685 -6.3281641 -0.71143293
1.4818399 -0.37503144 -1.0061419
16.068161 -5.9561377 -0.26996934
1.7680809 -0.48919085 -1.0628883
17.486404 -6.4750409 0.16638307
1.9181037 -0.54647887 -1.0535605
43.103062 -16.261097 1.6979376
2.1838555 -0.65051734 -1.0763091
42.963139 -16.137138 2.772296
2.4074893 -0.73658192 -1.0726467
16.296833 -5.9354439 1.4029616
2.7417624 -0.86671412 -1.0900291
3.2481315 -1.0650655 -1.1351333
17.006918 -6.147913 2.3483415
3.6387131 -1.2153177 -1.1277879
4.3502088 -1.4925549 -1.1686716
4.9600806 -1.7269561 -1.1539912
6.3189492 -2.2562442 -1.2289784
10.806835 -4.0157776 -1.6528406
1.0800045 -0.22692028 -1.0308269
14.208178 -5.3834758 -1.7298431
1.1595931 -0.25727823 -1.0211679
23.363396 -8.9728546 -2.114857
1.2932761 -0.31020531 -1.0347222
23.306808 -8.911726 -1.5133142
1.3453588 -0.32846799 -1.0037278
16.980511 -6.3964953 -0.709463
1.579056 -0.42237034 -1.0486287
15.924324 -5.9564629 -0.2658515
1.7014294 -0.46923873 -1.0367092
17.1675 -6.4124823 0.1646537
1.9345665 -0.56153607 -1.0602722
17.031466 -6.3311076 0.60180843
2.1913681 -0.66276145 -1.0794431
16.545155 -6.1155286 1.0056403
2.4379096 -0.75896418 -1.0827988
16.234718 -5.9688888 1.4022577
2.8006539 -0.90179992 -1.1075736
43.724442 -16.434128 5.051743
3.2330568 -1.0717046 -1.1315732
3.5090425 -1.1769332 -1.0974193
4.2718472 -1.4774863 -1.1524119
5.499043 -1.9618323 -1.2534738
10.864006 -4.0769687 -1.6600096
1.0635576 -0.22496721 -1.0223702
14.288327 -5.4626675 -1.7375385
1.1743817 -0.26893523 -1.0295334
23.361597 -9.0486536 -2.1125429
1.2527587 -0.29878739 -1.0154402
23.251253 -8.9660749 -1.5073162
1.392539 -0.35434696 -1.0260724
16.892704 -6.4179544 -0.70409071
1.5185583 -0.4036248 -1.0231376
16.15029 -6.0980153 -0.26465821
1.6834812 -0.46881285 -1.0300541
1.9144802 -0.56099927 -1.0533158
16.980701 -6.3676572 0.60363203
2.1708562 -0.6629076 -1.0728835
2.4081252 -0.75610697 -1.0738213
17.493282 -6.5091963 1.523422
2.781004 -0.90432668 -1.102312
43.59264 -16.525558 5.0499387
3.07797 -1.0201735 -1.0911313
16.912079 -6.2276182 2.3469729
3.4974635 -1.1850929 -1.0949845
3.8956659 -1.3400069 -1.0734333
5.441371 -1.9577622 -1.2429574
10.840637 -4.1040397 -1.6564918
1.0536752 -0.22575364 -1.0175509
14.303543 -5.5163198 -1.7382566
1.1775277 -0.27569553 -1.0318317
43.957638 -17.386459 -3.8067632
1.2558758 -0.30578175 -1.0175984
23.212276 -9.026844 -1.5022976
1.4040277 -0.3653473 -1.0319864
16.82535 -6.4470997 -0.69940794
1.5232034 -0.41210827 -1.0257295
16.238005 -6.1863489 -0.2624079
1.7139289 -0.48870173 -1.0428715
17.381863 -6.6106906 0.17554121
1.9205637 -0.5713408 -1.0561408
16.968927 -6.4193182 0.60711026
2.1257489 -0.6526562 -1.0578297
16.535707 -6.2215328 1.0137005
2.3783762 -0.75309336 -1.0648549
43.30714 -16.628387 3.924015
2.8131106 -0.9282068 -1.1120903
43.599689 -16.670319 5.0644851
3.2141664 -1.0879235 -1.1273935
17.564093 -6.5357695 2.4462349
3.5310419 -1.2117701 -1.1032544
4.2869034 -1.5143361 -1.1560533
4.9474573 -1.7755001 -1.151994
5.9791708 -2.1853039 -1.1748919
10.87425 -4.154079 -1.6605791
1.0502284 -0.22960243 -1.0163485
14.249327 -5.5449681 -1.7314693
1.1441357 -0.26700774 -1.0150642
23.100523 -9.101368 -2.0866718
1.2806041 -0.32248065 -1.0304445
23.206692 -9.105773 -1.4990413
1.4119558 -0.37529615 -1.0363122
16.803144 -6.4975452 -0.69603705
1.5772505 -0.44214806 -1.0497034
17.089327 -6.5839467 -0.26523745
1.7009871 -0.49080619 -1.0382812
43.871857 -17.216084 0.65667963
1.9525621 -0.59320259 -1.0687054
16.751438 -6.3930111 0.60196269
2.1525321 -0.67296314 -1.0676482
16.456219 -6.2485981 1.0129232
2.3750103 -0.76156163 -1.064307
43.37788 -16.806438 3.9438152
2.8413181 -0.95136416 -1.1207842
16.734213 -6.3022923 1.8992226
3.224174 -1.1048282 -1.1304687
17.529814 -6.5844421 2.447854
3.5750544 -1.2438395 -1.114033
4.3339229 -1.5501571 -1.1662271
5.2382965 -1.9137437 -1.2057796
6.694911 -2.5005736 -1.2884345
10.930778 -4.2160664 -1.6677086
1.0696251 -0.24345663 -1.0278491
14.40318 -5.6585798 -1.7470678
1.1008871 -0.25380388 -0.99311709
23.06155 -9.1664133 -2.0812697
1.2918818 -0.33351842 -1.0366945
23.311872 -9.2298479 -1.5021205
1.4080145 -0.38018075 -1.0351688
16.823423 -6.5651603 -0.69403124
1.5884631 -0.45413086 -1.0552118
1.7311466 -0.51131427 -1.0510601
17.324783 -6.7105184 0.18210743
1.9566295 -0.60338056 -1.0708437
16.719814 -6.4396648 0.60477924
2.1230953 -0.66958213 -1.0580454
16.912626 -6.4886618 1.048753
2.3132896 -0.74533534 -1.0452051
17.236435 -6.5889411 1.5154061
2.835597 -0.96044242 -1.1196319
42.384037 -16.493063 4.9495015
3.1391408 -1.0819457 -1.1085006
45.197472 -17.53001 6.4358406
3.582864 -1.2611099 -1.1162496
4.3100924 -1.5568452 -1.161489
5.0712485 -1.8642023 -1.1751206
7.4527898 -2.8381908 -1.4086723
10.992552 -4.2806835 -1.6755514
1.0677629 -0.24806163 -1.0275522
14.383584 -5.7017326 -1.7440407
1.107239 -0.262135 -0.99713969
45.283077 -18.38899 -3.9031339
1.2914243 -0.33951011 -1.0371788
23.390652 -9.3440237 -1.5036914
1.4108124 -0.38799176 -1.0371498
16.847151 -6.6344662 -0.692137
1.5518744 -0.44546458 -1.0400666
16.369371 -6.41224 -0.2540834
1.7302172 -0.51861465 -1.0513318
17.177414 -6.7122355 0.18318211
1.9415491 -0.60536921 -1.0658242
16.715866 -6.4974022 0.60879421
2.028877 -0.63827074 -1.0260216
17.045477 -6.6020393 1.0626326
2.350549 -0.77093434 -1.0575969
17.248451 -6.6548986 1.5219183
2.7676177 -0.94305944 -1.1003751
42.258694 -16.590921 4.9489112
3.1867168 -1.1146154 -1.1215019
45.181263 -17.681128 6.4501719
3.5581977 -1.2647831 -1.1107785
4.1794543 -1.5185862 -1.1342471
5.1482925 -1.9155877 -1.1895032
6.1882482 -2.3391047 -1.2080133
10.914687 -4.2879162 -1.6648321
1.0414596 -0.24178293 -1.0136567
14.242599 -5.6943212 -1.7280074
1.1168549 -0.27197 -1.0028898
45.124908 -18.481091 -3.8860004
1.2942829 -0.34697703 -1.0393088
43.387836 -17.689346 -2.6360321
1.3815482 -0.38175324 -1.024303
16.774488 -6.6644077 -0.6872133
1.5868905 -0.46788284 -1.0558968
16.35088 -6.4628806 -0.25088704
1.7103467 -0.51767921 -1.0439712
43.225967 -17.410454 0.67293358
1.9143291 -0.60201132 -1.0562587
16.776514 -6.5815291 0.61564744
2.0380917 -0.65099859 -1.0297848
16.913267 -6.6090946 1.0583289
2.3277318 -0.77097833 -1.0508796
42.593857 -16.943579 3.9100552
2.3818569 -0.78914416 -0.98859763
16.591028 -6.4230785 1.8994207
3.1930189 -1.130039 -1.1236349
42.72805 -16.857061 6.1120896
3.5443332 -1.2729104 -1.1078769
3.947818 -1.4367363 -1.0857054
5.2559752 -1.9804614 -1.2095579
11.034675 -4.3774328 -1.6804535
1.0056558 -0.2304574 -0.99436641
14.27089 -5.7511311 -1.7302723
1.1497183 -0.29159394 -1.0207763
44.592201 -18.397482 -3.8387442
1.2807097 -0.34644362 -1.0332526
43.63591 -17.926365 -2.6454177
1.3492281 -0.37322089 -1.0099484
16.813223 -6.7331734 -0.6861155
1.5948765 -0.47778818 -1.059971
16.401199 -6.5350981 -0.24848987
1.7045546 -0.52190435 -1.0422161
43.267822 -17.561079 0.6819315
1.8822873 -0.59540629 -1.044807
42.763718 -17.283604 1.7650645
2.100059 -0.6857096 -1.0517716
16.8391 -6.6320257 1.0574193
2.3299985 -0.78060746 -1.0520926
42.414604 -17.002319 3.9047651
2.7424729 -0.95349264 -1.0940455
3.0962131 -1.0997379 -1.0985022
44.437023 -17.678446 6.3738461
3.5723517 -1.2972515 -1.1148764
4.1616182 -1.5414313 -1.1310575
5.0265803 -1.900661 -1.1673918
6.5285106 -2.5264542 -1.262032
10.985762 -4.3919978 -1.6736634
0.98930782 -0.22801366 -0.98594487
14.274082 -5.8006272 -1.729809
1.1264443 -0.28653905 -1.009249
44.454002 -18.48617 -3.8236609
1.2304118 -0.32976809 -1.0090925
43.949821 -18.20188 -2.6581891
1.3572032 -0.38283256 -1.0142995
16.813568 -6.7898016 -0.68366277
1.5278897 -0.45492736 -1.0316091
16.387247 -6.5844493 -0.24550869
1.6968799 -0.52572942 -1.0397451
44.054123 -18.029911 0.70567513
1.8882129 -0.60580778 -1.0476329
42.806129 -17.442308 1.7768823
2.1337428 -0.70897019 -1.064023
17.060846 -6.7799091 1.0773058
2.3144357 -0.7830708 -1.0476631
42.304138 -17.097191 3.9066892
2.8096373 -0.99327469 -1.1141268
16.490257 -6.4900789 1.8978481
3.0528426 -1.0927165 -1.0874981
42.917873 -17.207626 6.1687245
3.5910046 -1.3185931 -1.1196915
4.212193 -1.5783691 -1.1420288
5.0347357 -1.9221876 -1.1690873
6.2764673 -2.4420018 -1.2220688
11.135212 -4.4928646 -1.6932482
0.9971109 -0.23707631 -0.9910835
14.157792 -5.8053474 -1.7164624
1.1719775 -0.31318679 -1.0339793
44.250393 -18.564823 -3.8028383
1.2082198 -0.3261514 -0.99888515
43.991161 -18.382725 -2.6549163
1.3900721 -0.40445939 -1.0302985
42.786007 -17.802423 -1.4863904
1.5693886 -0.48097745 -1.0503484
16.300619 -6.6102247 -0.24174942
1.6991651 -0.53485632 -1.041387
43.558624 -17.986532 0.7061727
1.881649 -0.61170828 -1.0458589
17.318592 -6.9802518 0.65197492
2.1460109 -0.72410333 -1.0689437
17.045187 -6.8381076 1.0813458
2.3793054 -0.82199037 -1.0689692
42.437626 -17.310032 3.9332805
2.7593155 -0.98341966 -1.1000499
16.526743 -6.5677505 1.9083436
3.1551068 -1.1504426 -1.1150389
42.732449 -17.291565 6.1587586
3.5086153 -1.2978429 -1.1005726
4.0943427 -1.5446837 -1.1175126
5.0945163 -1.9683487 -1.1803535
7.245883 -2.8835106 -1.3759568
11.16933 -4.5502419 -1.6974785
1.001853 -0.24418488 -0.99444157
14.31074 -5.9190693 -1.7320857
1.1306472 -0.2998279 -1.0129573
43.913944 -18.567251 -3.771714
1.2344522 -0.34369752 -1.0125515
44.126549 -18.586119 -2.657589
1.3576643 -0.3960155 -1.0159402
43.504494 -18.249422 -1.5024607
1.5669792 -0.48669776 -1.0499833
44.989227 -18.807089 -0.4019208
1.6966033 -0.54093826 -1.0409988
43.247173 -17.999609 0.70893955
1.894418 -0.62524271 -1.0512797
17.325308 -7.0415301 0.65638316
2.1150596 -0.71902359 -1.0588011
17.020884 -6.8855228 1.0842125
2.3162711 -0.80350995 -1.0494077
42.519558 -17.485048 3.9535308
2.7696571 -0.99868572 -1.1035999
3.1757555 -1.1715183 -1.12098
42.619255 -17.38669 6.1573777
3.5504787 -1.3293344 -1.1109228
3.9270055 -1.4867419 -1.0825047
5.0445814 -1.9649894 -1.1713476
7.2059655 -2.8916075 -1.3696868
11.142948 -4.5770764 -1.6937184
1.0257726 -0.26082447 -1.0086271
14.161445 -5.9090924 -1.7152599
1.1235771 -0.3026354 -1.0100445
43.50536 -18.554846 -3.7343614
1.2553718 -0.35972449 -1.0237061
44.138905 -18.756283 -2.6527321
1.3200138 -0.38574091 -0.99921644
43.37072 -18.35471 -1.491384
1.5642481 -0.49312815 -1.0495737
16.302753 -6.7283764 -0.23566093
1.5894153 -0.50060368 -0.99832964
43.067532 -18.084976 0.71527481
1.6601133 -0.52856946 -0.96387887
17.161716 -7.0382047 0.65364337
2.1133399 -0.72794795 -1.0588868
43.197582 -17.999632 2.9286447
2.2967687 -0.80523407 -1.0438085
42.370338 -17.581556 3.9533668
2.6717627 -0.96722102 -1.075635
42.535446 -17.581097 5.0675554
3.0926981 -1.1483028 -1.0995637
42.554306 -17.519321 6.1649485
3.5826576 -1.3585447 -1.1190431
3.987642 -1.5298128 -1.0956701
4.9360938 -1.9379523 -1.1515617
6.8819733 -2.7786214 -1.3183546
11.10932 -4.6054697 -1.6889864
1.0239677 -0.26503947 -1.0083592
14.317322 -6.0254312 -1.7312189
1.1543961 -0.32229248 -1.02702
42.584381 -18.298965 -3.6558158
1.2450144 -0.36075631 -1.0192926
42.639908 -18.253489 -2.5637674
1.316184 -0.39000586 -0.99811792
1.5499642 -0.49341992 -1.0440634
16.282724 -6.7751493 -0.23268785
1.6330435 -0.52739263 -1.0166476
43.166302 -18.270863 0.72598314
1.8263946 -0.61116958 -1.0270418
17.131439 -7.0835347 0.65635794
1.9573519 -0.66608214 -1.0052694
42.989288 -18.055105 2.9253826
2.3547313 -0.84056604 -1.0629066
42.497021 -17.776644 3.9780202
2.7790923 -1.0258219 -1.1075274
42.353943 -17.646467 5.0594234
3.0813365 -1.1550843 -1.0970517
3.4974616 -1.3341036 -1.0992137
4.2300553 -1.6520762 -1.1472197
5.037878 -2.0008242 -1.1706038
7.0851707 -2.8923423 -1.3506973
11.195547 -4.681489 -1.7002294
1.0237665 -0.27000496 -1.0089968
14.416197 -6.1178184 -1.7410846
1.1148174 -0.30931309 -1.0068868
42.213161 -18.278299 -3.6222138
1.2330096 -0.36096713 -1.0140625
42.308178 -18.250904 -2.5404968
1.3875878 -0.42906782 -1.0320426
42.463055 -18.248966 -1.4514761
1.5373831 -0.49441651 -1.0392939
44.897293 -19.235361 -0.37721586
1.6936023 -0.56225181 -1.0418683
43.244194 -18.448687 0.73631239
1.7805953 -0.59794331 -1.0104309
17.179979 -7.1626992 0.66265172
1.9960637 -0.6918453 -1.019328
42.847084 -18.137829 2.9267128
2.3233409 -0.83578002 -1.0534545
42.4086 -17.880995 3.9821119
2.6783054 -0.99114203 -1.0786382
42.296799 -17.763842 5.0663505
3.0185509 -1.1386765 -1.080928
44.009193 -18.420496 6.4095421
3.5586703 -1.3747584 -1.1142125
4.1921239 -1.6507685 -1.1395668
4.9609833 -1.98491 -1.1566422
6.8680086 -2.8211281 -1.3163317
11.165216 -4.7066817 -1.6960015
1.010644 -0.26888457 -1.0023999
14.418222 -6.1680641 -1.7406049
1.1030779 -0.30917111 -1.0014294
41.849659 -18.258986 -3.5893383
1.2276223 -0.36421147 -1.0121181
41.943882 -18.232182 -2.5155075
1.3819785 -0.43273005 -1.0301564
16.953056 -7.2069764 -0.6726712
1.5366204 -0.50083387 -1.0396718
45.524166 -19.659443 -0.37261653
1.7267373 -0.58485436 -1.0560049
43.08123 -18.522589 0.74179053
1.8328519 -0.62957692 -1.0307609
17.200706 -7.2302871 0.66770315
2.1230533 -0.75836349 -1.0641497
42.750538 -18.23974 2.9312444
2.3531284 -0.85875666 -1.0635827
42.453487 -18.04253 3.9990454
2.7254932 -1.023157 -1.0930009
42.195473 -17.862288 5.0679059
3.1152456 -1.1941751 -1.1070564
43.965996 -18.54966 6.4190383
3.4682758 -1.3473948 -1.0931458
3.982302 -1.5719237 -1.0955772
4.9813933 -2.0121508 -1.160674
6.0801773 -2.4937184 -1.1913773
11.134828 -4.7317557 -1.6917851
0.99592537 -0.26693037 -0.99490368
14.594576 -6.2962775 -1.7587748
1.1272364 -0.32595041 -1.0149446
41.781803 -18.36911 -3.580585
1.2156298 -0.36432049 -1.0068957
41.855743 -18.333786 -2.5060267
1.3796995 -0.43793127 -1.0298276
16.950083 -7.2635741 -0.67015648
1.5206709 -0.50016308 -1.0334402
45.599895 -19.845415 -0.3651638
1.7002194 -0.57992327 -1.0459393
42.806499 -18.546705 0.74491358
1.8437572 -0.64239895 -1.035533
17.287117 -7.3268337 0.67579001
2.033314 -0.7256459 -1.0335331
42.878845 -18.439194 2.9517841
2.3740919 -0.87789035 -1.0709072
42.338821 -18.135452 4.0006132
2.7760489 -1.0570495 -1.1083758
42.581085 -18.170767 5.129004
3.0259643 -1.165426 -1.0839157
43.582043 -18.532152 6.3781781
3.5808847 -1.4118021 -1.120418
4.0877628 -1.6346064 -1.1182491
4.8794703 -1.9843307 -1.1420972
6.0992603 -2.524143 -1.1945233
11.169619 -4.785924 -1.6962452
0.99869925 -0.27389124 -0.99732178
14.395904 -6.2632666 -1.7368046
1.1559534 -0.34576854 -1.0310012
41.577961 -18.435688 -3.5604501
1.249526 -0.38687232 -1.0245955
41.842911 -18.486423 -2.5002222
1.3821149 -0.4461399 -1.031791
41.923523 -18.45392 -1.4166489
1.5364075 -0.51516926 -1.0411193
45.527054 -19.985573 -0.35602617
1.6139364 -0.54770374 -1.0116566
42.779518 -18.696865 0.75414801
1.8319628 -0.64568818 -1.031837
2.0989823 -0.76572847 -1.0571485
42.279675 -18.338591 2.9217641
2.2725756 -0.84159279 -1.0390681
42.273933 -18.267572 4.0085659
2.8083897 -1.0842768 -1.1185229
42.53949 -18.31411 5.1397781
3.0705655 -1.1991765 -1.0963428
43.284477 -18.568211 6.3518858
3.461555 -1.3723725 -1.0925188
4.86129 -1.9962044 -1.1390469
11.267532 -4.8738251 -1.7090898
1.0192385 -0.28914633 -1.0096934
14.575743 -6.397665 -1.7553318
1.1326392 -0.3404685 -1.0194948
41.179249 -18.404371 -3.5247927
1.2604036 -0.3983095 -1.0308285
41.825527 -18.628576 -2.4944844
1.3829799 -0.45325455 -1.0329973
41.927925 -18.606218 -1.4105616
1.5169342 -0.51317632 -1.0334045
45.512115 -20.142027 -0.34766817
1.6281376 -0.56194198 -1.0181707
42.998276 -18.947851 0.7679801
1.792953 -0.63561523 -1.0178214
42.510849 -18.66139 1.8577733
2.0040693 -0.73044837 -1.0247347
42.336353 -18.515465 2.9378781
2.3280995 -0.87739658 -1.0575318
42.188251 -18.381609 4.0137134
2.6691234 -1.0311918 -1.0783702
42.409794 -18.409931 5.1388659
3.0376618 -1.1965971 -1.0881895
43.65313 -18.885117 6.4234929
3.5557272 -1.4299598 -1.1154763
3.9933703 -1.6246195 -1.0991254
4.8417058 -2.0062444 -1.1357309
6.2543445 -2.6431534 -1.2194505
11.228606 -4.897789 -1.7037888
1.0030265 -0.28606489 -1.0013174
1.0933659 -0.32662418 -0.99941885
40.818405 -18.370562 -3.4926901
1.2632887 -0.40524456 -1.0329999
41.705162 -18.706532 -2.4836335
1.3791287 -0.45733705 -1.0319139
41.905659 -18.729092 -1.4044323
1.5179458 -0.52000904 -1.0345432
1.691766 -0.59891725 -1.0447438
44.295433 -19.666607 0.80359197
1.8005443 -0.64642859 -1.0213271
42.524273 -18.802303 1.8678129
2.0046024 -0.73857617 -1.0255309
42.286095 -18.627468 2.9449129
2.3404472 -0.89209533 -1.0620916
42.216412 -18.528097 4.0283713
2.7774527 -1.0919214 -1.1106998
42.117649 -18.415369 5.1161132
3.1216326 -1.2469192 -1.1110103
43.461567 -18.939322 6.4099622
3.4570644 -1.3967909 -1.0924075
4.0291152 -1.6552954 -1.1070714
4.9232144 -2.0606551 -1.151098
6.7229857 -2.8800297 -1.2940371
11.308782 -4.9713068 -1.7143376
1.0025177 -0.29151943 -1.0019276
1.0878811 -0.32999548 -0.9973864
40.446526 -18.355478 -3.459228
1.2608109 -0.41072503 -1.0326564
41.790882 -18.904804 -2.4834099
1.3847837 -0.46719041 -1.03543
1.5050485 -0.52144265 -1.0297505
1.7073016 -0.61466563 -1.0519056
44.195572 -19.790375 0.81160593
1.7904747 -0.65032697 -1.0182933
42.109951 -18.777748 1.8596644
2.0389636 -0.76440847 -1.0382837
42.128933 -18.718328 2.9463382
2.3607442 -0.91246212 -1.0693427
42.386642 -18.765654 4.0593934
2.7658458 -1.0988251 -1.1080084
41.977222 -18.51368 5.1146297
3.1534779 -1.2755935 -1.1201229
43.464207 -19.106609 6.428369
3.56653 -1.463081 -1.1190925
4.0280681 -1.6719117 -1.1073174
4.9316597 -2.0850611 -1.1530175
6.7145963 -2.9033873 -1.2929105
11.259693 -4.9931245 -1.7077219
1.010232 -0.30040202 -1.0070838
14.117041 -6.3394904 -1.7045629
1.0972264 -0.33994964 -1.0031371
40.101494 -18.333391 -3.4284084
1.2520354 -0.41238543 -1.0290772
1.3824096 -0.47239974 -1.0351042
1.5008473 -0.52617514 -1.0286705
1.6977575 -0.61750424 -1.0487652
44.215286 -19.94964 0.82103515
1.775646 -0.65092158 -1.0133752
42.021278 -18.88076 1.8654583
2.1406817 -0.8217237 -1.0745413
42.085659 -18.842154 2.9545679
2.3155353 -0.90051627 -1.0554736
42.399265 -18.915688 4.073482
2.6953893 -1.0763048 -1.0879647
42.022823 -18.677193 5.1344199
3.1031806 -1.2640531 -1.10734
3.6108902 -1.4977261 -1.1302072
4.0650005 -1.7045374 -1.1155734
4.9640841 -2.1185446 -1.1593521
6.5799437 -2.8647153 -1.2717123
11.331242 -5.0659566 -1.7171558
1.0113945 -0.30642107 -1.0086118
15.078241 -6.8413448 -1.8064604
1.0432777 -0.31904349 -0.9753105
39.746426 -18.313166 -3.3966913
1.2300253 -0.40785906 -1.0189357
1.3550434 -0.46575657 -1.0231208
1.4128635 -0.49040636 -0.9909389
1.5816774 -0.56893444 -1.0021769
44.249027 -20.12533 0.8313477
1.7606485 -0.65183532 -1.0084378
42.034309 -19.039106 1.8766799
2.0976088 -0.81041181 -1.0602273
43.719666 -19.740692 3.0859427
2.2442226 -0.87632143 -1.0332366
42.378906 -19.060259 4.0851789
2.7294254 -1.104091 -1.0986477
3.0860267 -1.2687901 -1.1034089
43.494526 -19.426119 6.4661698
3.4711711 -1.4459765 -1.0973947
4.0854483 -1.7306073 -1.12038
4.953126 -2.1329548 -1.1576867
5.9703879 -2.6030219 -1.1750591
11.255919 -5.0729618 -1.7071042
1.0094628 -0.31059578 -1.0083517
14.022695 -6.3967552 -1.6934018
1.0413034 -0.32331029 -0.97504473
39.393234 -18.283239 -3.365396
1.2278128 -0.41264066 -1.0186379
1.2782822 -0.43416646 -0.98789936
1.4621882 -0.52115643 -1.0133122
1.6784933 -0.6234262 -1.0424715
44.733921 -20.501133 0.85102868
1.7730641 -0.66556549 -1.0138561
41.997608 -19.16601 1.8849292
1.9381683 -0.7416966 -1.0050894
43.626335 -19.847357 3.0909698
2.3634505 -0.94338524 -1.0722836
27.731441 -12.49299 2.6499925
2.7426991 -1.1214381 -1.1032103
41.937042 -18.9345 5.1530762
3.086688 -1.2812525 -1.1041902
27.140797 -12.133383 4.0207229
3.5507047 -1.497542 -1.1169412
4.0281639 -1.7187667 -1.1086819
4.88201 -2.1175563 -1.1448604
5.9763932 -2.6277544 -1.1762156
11.174415 -5.074151 -1.6962545
1.0088706 -0.31608775 -1.0089619
1.0794246 -0.34833398 -0.99624294
39.068356 -18.281412 -3.3361394
1.1159029 -0.36338219 -0.96351212
1.3202713 -0.46186736 -1.0084881
1.4810219 -0.53800344 -1.0224493
1.5759938 -0.58116686 -1.0014157
1.7816558 -0.67849064 -1.0179313
42.332237 -19.483801 1.9122396
1.9431925 -0.75348771 -1.0076206
43.726532 -20.062181 3.1116943
2.3282192 -0.93713009 -1.0617161
27.664774 -12.569968 2.6529932
2.6267185 -1.0774025 -1.069838
26.158373 -11.830967 3.1949384
3.0622265 -1.2830945 -1.0983659
27.002985 -12.175746 4.0114508
3.5377762 -1.5067638 -1.1144718
3.9366224 -1.6919844 -1.0897686
4.9061966 -2.1496987 -1.1497531
6.5724583 -2.9374452 -1.2712278
11.3636 -5.2087798 -1.7213644
1.0135288 -0.32295981 -1.0123419
14.008389 -6.4884114 -1.6908894
1.0695684 -0.3480877 -0.99170804
38.724297 -18.235069 -3.3060899
1.1972511 -0.40907553 -1.0049644
1.3544769 -0.48442128 -1.0252657
1.4854331 -0.5461185 -1.025079
1.7048144 -0.65133679 -1.0548047
1.7773633 -0.68317652 -1.0169438
42.377285 -19.632292 1.9232504
2.1149476 -0.84544706 -1.0684947
43.482338 -20.079821 3.1041107
2.2629244 -0.91348886 -1.0412736
26.471088 -12.098696 2.5417414
2.7811942 -1.1623319 -1.115903
26.039398 -11.855225 3.1879034
3.0371938 -1.2814964 -1.0922371
26.721319 -12.127598 3.9778047
3.5613134 -1.5302281 -1.1205989
4.0853791 -1.7772493 -1.1217676
