# .PCD v0.7 - Point Cloud Data file format
VERSION 0.7
FIELDS x y z
SIZE 4 4 4
TYPE F F F
COUNT 1 1 1
WIDTH 1490
HEIGHT 1
VIEWPOINT 0 0 0 1 0 0 0
POINTS 1490
DATA ascii
1.371079 2.0129795 0.26985636
2.5032115 2.0815582 0.20856108
-5.0160761 1.9205544 0.35651156
-4.804491 1.8943543 0.343162
-2.6595168 1.9706779 0.30730784
-2.6390491 2.0138679 0.30957264
-1.0256348 2.0709486 0.31631124
2.4889607 2.1855943 0.21325198
-4.7952409 1.9901667 0.34697217
-2.6160135 2.0626354 0.31217986
2.4768913 2.2851999 0.21784943
-5.3562412 2.015862 0.38044453
-4.7814822 2.0474789 0.34881765
-2.6074409 2.1387525 0.31778377
-1.0448276 2.2319734 0.33478087
-0.58286369 2.3044794 0.33773288
-0.49867624 2.2914059 0.28231356
-0.44337326 2.2756622 0.26524228
-0.29273486 2.2537482 0.26295316
-0.25819981 2.2925599 0.26629865
2.4611509 2.3850081 0.22246969
-5.3886175 2.1227024 0.38698775
-5.340189 2.1981819 0.38752925
-4.8432407 2.2084982 0.35977578
-1.9738686 2.3223133 0.36115783
-1.9095871 2.3412609 0.37479907
-1.0576807 2.3471961 0.3479881
-0.66828644 2.3597245 0.32675016
-0.61449325 2.3264594 0.29913765
-0.51668513 2.3280232 0.31336647
-0.45090121 2.3835306 0.34621724
2.4494445 2.4903741 0.22750723
-5.3785744 2.2776172 0.39328951
-5.0007439 2.2991147 0.37283963
-4.8301592 2.2648451 0.36170086
-1.9813123 2.3653221 0.3075026
-1.909667 2.3714814 0.3266038
-1.8130959 2.4015093 0.34053785
-1.7155938 2.4203196 0.33878547
-1.6446381 2.4338949 0.34486353
-1.0820922 2.4405417 0.28745532
-0.27064884 2.4920073 0.28362548
2.4380753 2.5898123 0.23232603
-4.8364983 2.3791716 0.36749434
-2.1095586 2.5012136 0.32431561
-1.1011723 2.5418348 0.29685098
2.4201324 2.7057464 0.23795259
2.4288802 2.6559656 0.23553985
-4.813117 2.4683287 0.37051335
1.6616695 2.7363765 0.22960338
2.4063747 2.7890902 0.24204344
-4.8505697 2.5922275 0.37860078
-0.30835575 2.8006763 0.31065929
-4.8603334 2.6860561 0.38375705
-0.28354013 2.8625989 0.31598428
-0.25258315 2.8853269 0.31786883
-4.8684573 2.7820332 0.38897049
-0.20774317 2.9404824 0.32255611
-4.8792448 2.8817639 0.39455611
1.7296848 3.130615 0.25234058
6.9608345 3.3834989 0.15111296
-4.8923082 2.9964397 0.40105975
-4.8841696 2.9758906 0.39958683
1.6839402 3.2645657 0.25955278
1.7388105 3.2486742 0.2591235
6.8989182 3.4242995 0.15217215
-4.9085126 3.1183422 0.40815014
-4.8852153 3.0542428 0.40364334
-4.9110355 3.1877515 0.41186503
-4.9121428 3.2879176 0.41712654
-4.9228907 3.3798993 0.4224911
-4.9281592 3.4670923 0.42735282
6.7500067 3.9947126 0.16910908
-4.9335737 3.5808141 0.43365982
-2.7237759 3.7093732 0.34468338
-2.6985879 3.7197993 0.34444791
6.7439137 4.0518384 0.17086494
-4.9653802 3.6914747 0.4411599
-2.6635013 3.7408798 0.34454304
-5.1650248 3.9359043 0.46421686
0.79469764 4.4076796 0.32601556
0.9011811 4.404593 0.32560521
0.97156644 4.4120164 0.32596985
1.8213701 4.4716568 0.3311035
1.9009242 4.4730005 0.33155614
2.0000725 4.4895201 0.33304641
2.0907845 4.5070987 0.33459592
0.76020753 4.5169063 0.33298269
2.1975703 4.5618238 0.33845803
2.254981 4.5854902 0.34020969
-5.0951834 4.3421621 0.48290831
-4.9986997 4.3546777 0.4789893
0.75502849 4.6021919 0.33838123
-3.8162386 4.5651817 0.43889773
0.75042224 4.7141042 0.3454715
-3.8667481 4.5764718 0.44162887
-3.7819841 4.6087561 0.44014266
-3.6972804 4.6026096 0.43638912
-3.6036522 4.6355462 0.43471301
-3.5091052 4.6590991 0.43249971
-3.3790076 4.6363654 0.42617184
-3.3376701 4.646987 0.42528486
-1.3967516 4.7109914 0.3717986
-1.3107203 4.6947584 0.36890835
-1.2262152 4.701097 0.36759382
-0.90219623 4.7158222 0.36250997
-0.85557371 4.7392311 0.36325046
0.75032723 4.8144484 0.35182369
1.9679339 4.8888702 0.35668033
-3.3522933 4.7211242 0.43041265
2.0532565 4.9947619 0.36336368
-3.3536863 4.8323278 0.43735254
1.9913371 5.0329833 0.36541942
-3.3543227 4.9046125 0.44186085
-3.3213391 5.0292444 0.44842172
-3.2586112 5.0382271 0.44673604
-2.9005547 5.0213032 0.43337649
0.81793535 5.3044128 0.38263285
0.84544384 5.3051353 0.38255841
0.82295609 5.3823185 0.38756305
-2.1938436 5.5285702 0.44470641
-1.8288466 5.5365171 0.4358235
-1.7492994 5.5505199 0.43482384
-1.6644375 5.5634379 0.43367442
-1.5708947 5.5675735 0.43180948
-2.1478677 5.6147108 0.44906855
-2.0456042 5.6374788 0.44786295
-1.961352 5.6308107 0.4452728
-1.8940176 5.6056919 0.44194505
-1.6217765 5.5689511 0.43305418
-1.5356048 5.5745215 0.43147677
-2.1068616 5.6617341 0.4510389
-2.0670238 5.6521869 0.44937664
-0.74643731 5.7139082 0.42545518
-0.65456283 5.720211 0.42440164
-0.55243134 5.7312655 0.42356911
-0.44926941 5.7437406 0.42288753
-0.3553493 5.7520151 0.42213202
-4.044364 -6.3566589 0.26362059
-3.9576838 -6.3734779 0.26055184
-4.1252556 -6.2742271 0.2650651
-4.0678568 -6.3028569 0.26336837
-2.6428962 -6.0908523 0.33959055
-2.583488 -6.0881596 0.33721969
-2.5375566 -6.079205 0.33507702
-2.4572694 -6.060842 0.33125812
-2.3698647 -6.0442691 0.32734358
-2.2677088 -6.0324526 0.32324094
-2.1668949 -6.0220294 0.31936911
-2.0672483 -6.0086441 0.31550536
-1.9695866 -6.0013413 0.31212088
-1.8721461 -5.9909844 0.30870545
-1.7745299 -5.9752893 0.30513242
-1.6705654 -5.962009 0.30162901
-1.5682185 -5.9527078 0.29849842
-1.4743018 -5.946806 0.29587746
-1.3781573 -5.9397321 0.29326093
-1.3114086 -5.932302 0.29137969
-1.3420281 -5.9306517 0.29197606
-1.2646446 -5.9256406 0.29002935
-1.1723547 -5.9126544 0.28745276
-1.072845 -5.9020967 0.28496999
-0.97355717 -5.8904753 0.28257126
-0.87472826 -5.8822856 0.28048137
-0.76895654 -5.869638 0.27819526
-0.67129731 -5.8542652 0.27602756
-0.57332623 -5.8438435 0.27423847
-0.47498417 -5.8367348 0.27273846
-0.37629497 -5.8268094 0.27122569
-0.27098769 -5.8125992 0.26957265
-0.17176598 -5.8074327 0.26856107
-0.073432505 -5.7951789 0.26733509
0.025001049 -5.7829032 0.26623401
0.12462926 -5.7884693 0.26613665
0.22114313 -5.7828636 0.26562265
0.32084453 -5.771554 0.264945
0.39935064 -5.7637191 0.2645525
0.45274305 -5.7568274 0.26425657
0.52347136 -5.7489433 0.26398528
0.61815584 -5.7398009 0.26378426
0.72112238 -5.727303 0.26357403
0.82478833 -5.7154608 0.26352781
0.92186999 -5.7046213 0.26361725
1.0199811 -5.694469 0.2638607
1.1192217 -5.6853156 0.2642737
1.2182252 -5.6722908 0.26462507
1.3186736 -5.6615453 0.26520887
1.4219182 -5.6516891 0.26598004
1.5247724 -5.6397729 0.2667743
1.6205139 -5.6286378 0.26761514
1.7006843 -5.6223416 0.26852337
3.2238843 -5.4440289 0.14514726
3.3083832 -5.4404163 0.14615443
3.4102528 -5.4251523 0.14723977
3.5056617 -5.4173541 0.14840019
3.601814 -5.4062753 0.14956269
3.7023313 -5.3980718 0.15086959
3.8034775 -5.3879647 0.15220104
3.9053223 -5.3772888 0.15357704
4.006731 -5.3628516 0.15493935
4.114152 -5.352324 0.15648925
4.2060108 -5.341794 0.15782923
4.2643375 -5.337657 0.15872669
-3.9758246 -5.4876738 0.37449202
-3.9870131 -5.3962879 0.37138852
-4.0037737 -5.3010993 0.36848348
-4.1639934 -5.2223821 0.37447181
-4.105423 -5.2359171 0.37164041
-4.0241895 -5.2292109 0.36676124
-4.047452 -4.9825144 0.35843664
-4.0567322 -4.8885751 0.35537905
-4.0789957 -4.7770572 0.35248131
-4.0635538 -4.8079925 0.3527247
-4.0830812 -4.6875734 0.34939674
-4.0697207 -4.7256994 0.350007
-4.0965118 -4.5925837 0.34672415
11.553956 -3.9932485 0.021274155
11.662288 -3.9594219 0.022147333
-4.1070714 -4.499505 0.34400648
-4.1173878 -4.3989172 0.34107348
-4.1289625 -4.2921185 0.33807486
-4.0977421 -4.1915059 0.33262908
-3.977107 -3.9898305 0.31804848
-3.9834802 -3.8900642 0.31513181
-3.9938405 -3.7891235 0.31252038
-4.0051928 -3.6945827 0.37674874
3.8224814 -3.3763821 0.26389891
-4.5818048 -3.5801151 0.34714991
-4.3525972 -3.5550108 0.33010453
-4.3008595 -3.5515528 0.32635459
-4.024477 -3.5753613 0.4061861
-4.0124407 -3.6235189 0.40743336
6.2363873 -3.1300614 0.19208543
-4.5961742 -3.5054302 0.34628811
-4.4574146 -3.5180089 0.33658019
-4.2580662 -3.5462756 0.32319972
-4.1726766 -3.5376594 0.37687501
-4.0622597 -3.5255001 0.40710652
3.5049727 -3.1516445 0.24700233
6.2888365 -3.1003687 0.19354618
-4.7658887 -3.4178331 0.35666776
-4.6888309 -3.4351802 0.35135719
-4.5991631 -3.415169 0.34427732
-4.1754036 -3.3592606 0.40964174
3.4837439 -3.0808816 0.24505506
12.450884 -2.6784756 0.043839343
-4.8107767 -3.3258092 0.35795981
-4.1683693 -3.3141835 0.40711665
3.4704015 -2.9811523 0.24308971
-4.821702 -3.2186718 0.3565101
3.4501879 -2.8556674 0.24059181
3.4634564 -2.902571 0.2417579
-4.8084097 -3.1376834 0.35384709
3.430959 -2.8051608 0.23913896
-4.8443613 -3.0183513 0.35433713
-4.8364234 -3.0307403 0.35395506
3.3211291 -2.6858826 0.23290819
3.3973782 -2.6823776 0.2362781
-4.8523908 -2.9111173 0.35306305
-4.8439994 -2.9586878 0.35323185
3.3147037 -2.5637681 0.23135945
3.4049523 -2.5676754 0.23550007
-4.8623552 -2.8278325 0.35246989
3.4065516 -2.4907713 0.23490217
3.5039494 -2.4773386 0.23928007
3.5894711 -2.4666855 0.24316138
3.6818683 -2.4557772 0.24738589
3.7406914 -2.4458871 0.2500706
-4.8703861 -2.7226539 0.35149023
-4.8823318 -2.6213715 0.35102206
-4.8922873 -2.5354807 0.35072556
-4.9069519 -2.3264208 0.4486329
-4.9040766 -2.2256904 0.44654575
-4.4881268 -2.1931205 0.40264517
-4.467402 -2.2024553 0.40069136
-4.2932148 -2.1791158 0.38227868
2.4131937 -1.8924112 0.27060884
2.439362 -1.8789868 0.27223969
-4.9344454 -2.1268797 0.44817179
2.4132242 -1.8691685 0.27030683
2.4616585 -1.8523357 0.27345014
2.6979339 -1.8520813 0.2899102
2.7682617 -1.8326142 0.29465103
2.8682086 -1.8218868 0.30159074
2.9807556 -1.8122654 0.30946946
3.0380242 -1.7780435 0.31329149
3.5810244 -1.7606151 0.240995
3.9078381 -1.7287376 0.25727242
3.9478629 -1.7144644 0.2593174
-4.9468908 -2.0283847 0.44813696
0.38790679 -1.792079 0.27056283
0.47085202 -1.7901292 0.29412681
0.55568504 -1.7868788 0.30222601
0.65021503 -1.781713 0.29918224
0.75732887 -1.7690303 0.26031557
4.3601885 -1.6267762 0.28038147
5.8567953 -1.547884 0.19468898
-4.9566345 -1.9300675 0.44802564
4.4664345 -1.5402458 0.28631657
5.8577204 -1.5259521 0.19499572
-4.9664974 -1.8265829 0.44809473
2.3832796 -1.4944286 0.26497513
2.4072428 -1.5012665 0.26672605
4.4934416 -1.4461863 0.28843209
-4.9765434 -1.7244449 0.448423
4.5844088 -1.2930207 0.29452249
5.8473454 -1.304036 0.19772899
-4.9888802 -1.6297152 0.44926706
2.3647895 -1.3083124 0.26327962
3.1914184 -1.2757255 0.32391471
3.509135 -1.2364575 0.24042489
4.621212 -1.2650862 0.2967006
-5.0063276 -1.4880502 0.45079577
-4.9982367 -1.5408398 0.45000118
3.0621464 -1.2370346 0.31458384
3.1218641 -1.2220242 0.31906402
3.2025316 -1.2146713 0.32505634
3.5192621 -1.1979927 0.24131832
4.3105049 -1.111884 0.28264472
4.3881931 -1.0958084 0.28682023
-5.0113058 -1.4191346 0.45133066
-5.0036974 -1.4577589 0.45048684
4.4652214 -1.0862685 0.29088354
4.5580835 -1.0785875 0.29573596
4.6530161 -1.0695579 0.30071533
5.8026495 -0.97094744 0.20162497
-5.0212288 -1.3295926 0.45256582
-5.0329957 -1.2307312 0.454229
-5.0364361 -1.1662375 0.45496121
-4.9429598 -1.1304939 0.44480932
-4.6023088 -0.99854618 0.40795118
-4.4348917 -1.0112374 0.38919514
-4.4129086 -1.0348665 0.4268083
15.860494 -0.15531373 0.10454545
-4.8118453 -0.91345727 0.43220624
-4.6399345 -0.96314573 0.41247797
13.724505 -0.1196779 0.095088072
-4.8207731 -0.82603508 0.43432224
13.720311 -0.05792743 0.096293129
-5.0862198 -0.6940676 0.46606553
-4.9545574 -0.71417451 0.4509877
-4.8398609 -0.72766936 0.43792835
-4.8314748 -0.75523722 0.43655249
13.707337 0.046433032 0.098315574
-5.1012363 -0.63603675 0.46879342
13.691794 0.15482938 0.10042346
-5.1113319 -0.53583032 0.47190201
13.679386 0.23534304 0.10199753
-5.1225777 -0.43495274 0.47538012
13.667677 0.34415138 0.10416634
-5.1308193 -0.33338961 0.47877449
-5.1437826 -0.2307016 0.48295379
15.804265 0.65377885 0.12061859
16.08573 0.6027531 0.12088627
-5.1628542 -0.11484718 0.48843566
-5.1543913 -0.13579413 0.48687232
15.794593 0.75206107 0.12261928
-5.1686993 -0.034178197 0.49161056
15.785598 0.84742683 0.12457529
-5.1702538 0.020514846 0.49356192
-5.118639 0.063477516 0.48930678
-5.0233173 0.063784361 0.47875679
-4.5409374 0.11362338 0.42733324
15.777926 0.94439143 0.1265837
-5.1830215 0.18998522 0.50092262
-5.1314201 0.13138175 0.49309489
-4.5467725 0.17328411 0.4302913
15.716516 1.0405109 0.12833709
15.698932 1.1346955 0.13026661
-5.2005224 0.36378849 0.5095681
15.685784 1.2292759 0.13223788
15.668616 1.3277876 0.13428846
15.74944 1.4604743 0.13754889
15.801532 1.4132106 0.13675711
-4.8245587 0.68022639 0.48302665
15.767369 1.5580308 0.13976952
15.822963 1.5173409 0.13913095
-4.8354897 0.77699333 0.4890607
2.5468125 1.1042554 0.35258931
15.747869 1.6598401 0.14192584
-4.8432045 0.87402648 0.49494088
2.5319374 1.1359296 0.3535032
6.2377062 1.3810863 0.27065814
-4.8599825 0.97119766 0.5019567
6.2682295 1.4244339 0.27282965
6.3127298 1.4693003 0.2754246
-4.8911266 1.036937 0.50885236
6.3535099 1.515728 0.277978
6.3956003 1.5643389 0.28064203
6.4410181 1.6116745 0.28336018
6.5091887 1.6799905 0.28736219
-4.7698212 1.3080404 0.51232618
-4.6722131 1.3188581 0.50311095
2.5788853 1.6228583 0.38772818
6.5585575 1.730428 0.29029936
-4.9209871 1.3368731 0.42767394
-4.7788453 1.3337915 0.51484084
-4.6711717 1.346035 0.50472355
2.5633895 1.6792889 0.39066681
2.5793986 1.637145 0.3887338
6.5773096 1.8825002 0.29582715
6.8343334 1.8665574 0.3019653
-5.0394077 1.4552369 0.44327456
-4.9749622 1.43677 0.43712872
-4.886817 1.4918852 0.43292153
2.5487835 1.784142 0.29628891
6.5825682 1.9458652 0.29809994
6.854701 1.9343226 0.30474186
-5.2210684 1.5264702 0.46158829
2.5367959 1.8820817 0.30154237
6.5686417 2.0390387 0.3009207
2.5247879 1.982415 0.30706099
6.5639591 2.1486831 0.30460167
-5.3481226 1.7931614 0.48568118
-5.33568 1.7704968 0.48348549
2.5128031 2.0854475 0.31286979
6.5453587 2.2665842 0.30828637
6.5559235 2.2471168 0.30786103
-5.3740044 1.856566 0.4911325
2.4989133 2.1817541 0.31831333
6.5381556 2.3656247 0.31165379
6.5469551 2.3431456 0.31106398
-5.3834343 1.9545696 0.49719393
-5.0928516 2.0025876 0.47718385
-4.9825754 2.004395 0.46878672
2.4885988 2.2825341 0.32428107
6.5281248 2.4500501 0.31446934
-5.3945341 2.0556569 0.50364262
-5.0771608 2.0255408 0.47728419
-4.9708781 2.0628076 0.47128648
-0.58451772 2.3000233 0.40713763
-0.54466856 2.2998815 0.4071278
2.4742551 2.3836432 0.33023638
6.5184841 2.548315 0.31784365
-5.3981867 2.1285455 0.508008
-1.9694254 2.2878926 0.44403464
-1.9106383 2.3078625 0.44354081
-1.8132632 2.3360381 0.44237837
-1.7533536 2.3516326 0.44160807
-0.67556536 2.3238456 0.41056037
-0.63243937 2.3216903 0.41013035
-0.49639118 2.3477221 0.41365331
-0.45900005 2.3783882 0.41788423
2.4620483 2.4793665 0.33602664
6.5002947 2.6400535 0.32081676
-1.7024274 2.3678176 0.44148731
-1.6301608 2.3905945 0.4414534
-0.44173509 2.4214852 0.4237299
2.4467149 2.5754938 0.34183562
6.4928331 2.744967 0.32459572
-5.3710747 2.4013484 0.5216732
2.4265018 2.6984408 0.34938443
2.4360785 2.6726456 0.34796363
5.2939758 2.8276412 0.29982579
5.370121 2.7615223 0.29884115
6.4935541 2.811614 0.32715446
-5.3919878 2.4339874 0.52519184
-5.3439312 2.4278939 0.52118862
-4.8184109 2.4902906 0.48602155
2.4191492 2.7679772 0.35385683
5.2753716 2.8768108 0.30144572
-5.4506283 2.571321 0.53781706
-5.3062391 2.541697 0.52519232
-5.2211065 2.5460949 0.5191111
-5.1311131 2.5531487 0.51287442
-5.0209885 2.5522122 0.50471175
-4.9422369 2.5448165 0.49848449
-0.36749607 2.7541623 0.38722244
2.4078102 2.8345282 0.3580389
-5.4520731 2.6099992 0.54025388
-4.9832759 2.7030566 0.51153135
-4.9566402 2.6527092 0.50638419
-0.30712467 2.9116316 0.40465188
-4.9851317 2.7934377 0.5174942
-4.9751778 2.7357397 0.51305008
-0.3123337 2.9194953 0.40551701
-4.9922695 2.8702662 0.52300602
15.597583 3.7388279 0.19017217
-4.9970694 2.9612961 0.52932626
-4.9872274 2.969178 0.52915496
1.7474356 3.2269957 0.36856863
-4.9986258 3.0642164 0.53626633
-5.0261126 3.166327 0.54501861
-4.9915128 3.1996152 0.54487348
-5.0639935 3.314559 0.55765402
-5.0432959 3.3627498 0.55952817
-5.0317125 3.443784 0.56430703
-2.6718333 3.7096283 0.45072019
-2.6351182 3.7249358 0.45043844
-2.5961547 3.7364161 0.4497633
0.81079757 4.4073262 0.45073974
0.90519786 4.4065843 0.45126787
0.99183416 4.4116912 0.45232493
1.4562521 4.4473763 0.45999494
-5.4715176 4.3014817 0.49909803
0.76989996 4.512219 0.45942482
2.973048 4.6154151 0.34787712
-5.4648952 4.3235278 0.49995425
-5.4091969 4.3316622 0.4976365
-5.3056421 4.3449163 0.49326563
-5.2005072 4.3507528 0.48846349
0.76246655 4.6143699 0.46808693
2.608134 4.7078857 0.34986043
2.653975 4.7236176 0.35113111
0.76166224 4.7125635 0.47645837
0.76041627 4.784461 0.48259354
2.6257391 4.9008083 0.36112574
2.6451447 4.8614049 0.35899326
2.5847754 4.9980507 0.3664799
2.6413085 4.997025 0.36681527
3.2063005 5.2601542 0.38646349
3.2931292 5.2734814 0.38800386
3.5737813 5.3065128 0.39258674
3.6533563 5.3193798 0.39412796
2.0862844 5.3330245 0.38381818
0.49507177 5.8032751 0.41652918
0.5553571 5.8070917 0.41632816
-4.0369234 -6.3710046 0.41480005
-3.9519129 -6.391356 0.41139993
-3.853632 -6.3829947 0.40616566
-3.7568822 -6.3728485 0.4010075
-3.651099 -6.3611455 0.39542609
-3.5460074 -6.3498745 0.3899889
-3.4449592 -6.3415031 0.38496187
-3.3451235 -6.3325276 0.38005254
-3.2529955 -6.3196239 0.37538797
-3.1851339 -6.3128157 0.37212521
-4.0673451 -6.2900915 0.41288739
-3.1349535 -6.3056006 0.36963844
-3.0583313 -6.2982202 0.36606216
-2.9877427 -6.2806773 0.36230195
-4.1357718 -6.2405071 0.41432527
-4.096694 -6.2459579 0.4125236
-2.9305406 -6.160974 0.35431129
-2.860759 -6.1169686 0.34939432
-2.7610056 -6.1053925 0.34486628
-2.6994276 -6.099021 0.34215313
-1.4340006 -5.9566841 0.42043564
-1.3634044 -5.9470863 0.41798347
-1.2858688 -5.9346552 0.41524038
-1.2391236 -5.9276686 0.41367438
-1.1702206 -5.9214869 0.41175053
-1.0706066 -5.9130373 0.40913939
-0.97117203 -5.9004822 0.40640602
-0.87222403 -5.8915858 0.40412101
-0.76610219 -5.8827853 0.40192309
-0.66824514 -5.8675566 0.39954406
-0.57034171 -5.8541427 0.39747486
-0.47195518 -5.8460231 0.39595973
-0.37263387 -5.8398938 0.39476123
-0.27451694 -5.8282585 0.39333576
-0.17605406 -5.8162723 0.39206094
-0.069740474 -5.8050642 0.39100257
0.028764963 -5.7923775 0.39003238
0.13160682 -5.7970352 0.39049312
0.2255826 -5.7939754 0.39054298
0.32541239 -5.7824669 0.39016747
0.39555728 -5.7731624 0.38991737
0.10855556 -5.7675219 0.38832018
1.7544382 -5.6149044 0.26903367
1.8153951 -5.6070194 0.2696777
1.8967338 -5.6023426 0.27083364
-3.9384041 -5.7735333 0.38432282
-3.9246705 -5.8040924 0.38488397
1.9368212 -5.5932708 0.27115029
2.0178061 -5.5859003 0.27228954
2.1130178 -5.5796485 0.27380568
2.2173128 -5.5678182 0.27536717
2.3241086 -5.5570631 0.27712265
2.4223855 -5.5474319 0.27884179
2.5216575 -5.5360599 0.28060365
2.6235304 -5.5261831 0.2825681
2.7177393 -5.5168514 0.28445435
2.810657 -5.50563 0.2863166
2.9184382 -5.495739 0.28867477
3.0148575 -5.4833884 0.29073811
3.1136119 -5.4725819 0.29299414
3.2147877 -5.4623017 0.29540485
3.3060191 -5.4514437 0.29759133
3.3995235 -5.4420629 0.29995203
-3.9484162 -5.6892033 0.38133103
3.4563224 -5.4317141 0.30126396
3.516082 -5.4282899 0.30291289
3.6161168 -5.4210424 0.30567086
3.7153294 -5.4112525 0.30838752
3.8162057 -5.4006419 0.31119388
3.9184902 -5.3901615 0.31411129
4.0246992 -5.3800316 0.31722873
4.1149502 -5.3677006 0.31982186
4.2116184 -5.3600841 0.32281172
-3.9622386 -5.5948515 0.37815815
-3.9668689 -5.538033 0.37606743
-4.0334001 -4.9944649 0.48205
-4.0400596 -4.896729 0.47689462
-4.0547824 -4.7879004 0.47176433
-4.0637484 -4.6988935 0.4674148
-4.0803204 -4.5765624 0.46186918
-4.07195 -4.6243005 0.46387357
-4.0939827 -4.4997792 0.45871198
-4.1052308 -4.3995132 0.45417255
-4.1188974 -4.2957373 0.44973832
-4.0538015 -4.1443334 0.43670282
16.857922 -3.2012703 0.055577613
16.95396 -3.263288 0.055041052
17.469715 -3.174556 0.0587743
-3.9730301 -3.9893231 0.42228818
16.873894 -3.1461608 0.056516476
-3.9782407 -3.8882771 0.41756544
-3.9879816 -3.7867227 0.41329533
-4.0036001 -3.6947787 0.4705745
-4.5633106 -3.5766313 0.4533675
-4.3437796 -3.5596414 0.43309906
-4.3016672 -3.5559456 0.42923281
-4.0207939 -3.5838985 0.50581545
-4.0116215 -3.6354127 0.50817573
-4.5873036 -3.5277264 0.45355064
-4.4293442 -3.497683 0.43808621
-4.3507266 -3.5307786 0.43247512
-4.255497 -3.547576 0.42482305
-4.1716065 -3.5396883 0.46753633
-4.0587544 -3.5273619 0.50614238
3.5160124 -3.1588862 0.3692826
-4.671772 -3.4336767 0.45759135
-4.578372 -3.4434872 0.44939345
-4.4867535 -3.3700457 0.43813416
-4.1778326 -3.3648715 0.50883424
3.4892957 -3.0849955 0.36567941
-4.7506447 -3.3268151 0.46097016
-4.6722822 -3.3587954 0.45481193
-4.1638041 -3.3214595 0.5048306
3.4764135 -2.9854159 0.36237746
-4.7545867 -3.2155015 0.45741352
-4.3198128 -3.1781468 0.51390064
3.4564464 -2.8349988 0.35758343
3.4667618 -2.8892791 0.35948321
-4.7582684 -3.1151021 0.45437691
-4.3632727 -3.1062682 0.51501524
-4.3242474 -3.1062322 0.51064408
3.4382904 -2.8017986 0.35566908
-4.7695665 -3.0218306 0.45245162
-4.3599253 -3.0282357 0.51069397
-4.3263655 -2.983145 0.50465775
3.3263023 -2.7087479 0.34634045
3.4207098 -2.6831157 0.35202408
-4.7951145 -2.9244189 0.45195645
-4.2848263 -2.9165485 0.49667546
3.3176105 -2.5662615 0.34289113
3.4244764 -2.5605314 0.34991795
-4.8556204 -2.819694 0.45490929
-4.8381748 -2.8680353 0.45453551
-4.2253323 -2.798631 0.48422527
3.4236219 -2.4992857 0.34877509
3.5042222 -2.4787555 0.35387313
3.5902512 -2.4683549 0.35954571
3.6837785 -2.4579091 0.36576223
3.7468741 -2.4496887 0.36995801
-4.8658457 -2.7231033 0.45334142
-4.2290168 -2.7006347 0.48014364
-4.8827672 -2.6245096 0.45256796
-4.2399249 -2.6035342 0.47716588
-4.8903499 -2.5443106 0.45145032
-4.2502275 -2.502104 0.47418505
-4.2695312 -2.3647082 0.47121498
-4.2612066 -2.4075046 0.47180793
-4.6013212 -2.2742169 0.50903523
-4.5661745 -2.2697656 0.50452089
-4.2795343 -2.295217 0.46996123
-4.2685676 -2.3159306 0.46933603
-4.8773298 -2.1846066 0.54127806
-4.835536 -2.2123733 0.53670233
-4.7201462 -2.2268121 0.52253997
-4.6066022 -2.2388058 0.5086441
-4.5497508 -2.2121494 0.50074309
-4.2904243 -2.1977344 0.46803614
2.4319997 -1.8916526 0.35916403
-4.8810697 -2.121702 0.54021931
-4.874464 -2.15729 0.54023403
2.4641581 -1.7866168 0.36004484
3.1040547 -1.7644503 0.31790698
3.1340444 -1.7532144 0.31998327
-4.8959589 -2.0027852 0.53950167
-4.8168135 -2.0455613 0.53025639
2.4624224 -1.7193713 0.35874766
3.1599567 -1.6856699 0.32153279
-4.9050179 -1.9276655 0.53920901
2.4024086 -1.5810895 0.35114917
2.4423025 -1.6234684 0.35545003
3.1608884 -1.5928144 0.3213065
-4.9161987 -1.8223813 0.53886098
-4.3359056 -1.7941194 0.54594755
2.4399385 -1.5269287 0.35406855
3.1856639 -1.5343461 0.32300642
3.319917 -1.4522269 0.33280778
-4.9197073 -1.7228281 0.53788477
-4.3392358 -1.704263 0.54406989
2.4343197 -1.4186482 0.35257149
3.3178971 -1.3864837 0.33280298
-4.9253178 -1.6275666 0.53750479
-4.3520575 -1.6030049 0.54369789
2.3650343 -1.3174473 0.38040805
2.4447403 -1.3117561 0.36948001
2.5475898 -1.2877518 0.362762
2.6004164 -1.2813566 0.3678346
2.737427 -1.2957664 0.38106683
2.8903 -1.300227 0.39582226
2.9021571 -1.2782402 0.39695105
3.1022623 -1.269577 0.41631299
3.2937262 -1.3182085 0.33125496
3.3094537 -1.3332503 0.33235139
4.6623583 -1.2201877 0.29930711
-4.9314384 -1.52723 0.53741145
-4.3609762 -1.5019579 0.54313844
3.2576358 -1.2095414 0.32915503
3.3353097 -1.2009144 0.334948
3.4541929 -1.1918815 0.34379828
3.5111487 -1.1787463 0.34810784
5.4091349 -1.0561223 0.33963332
-4.9399786 -1.4284706 0.53792989
-4.3700714 -1.4065704 0.54308742
4.7398977 -1.0603565 0.30528823
5.0475721 -1.0576534 0.32108504
5.4120636 -1.0269279 0.34020418
5.5259314 -0.99749511 0.34647813
5.8162794 -0.97454149 0.3617236
-4.9606528 -1.3322657 0.54036653
-4.3795214 -1.3070523 0.54343265
-5.0252056 -1.2020094 0.54901767
-4.9979672 -1.2508993 0.54530025
-4.3922691 -1.2040207 0.54467517
-5.0274992 -1.1670403 0.54941499
-4.4032984 -1.1061304 0.54609948
-5.0478067 -1.0165849 0.55294478
-4.8979998 -1.0464138 0.53250992
-4.6052179 -1.024459 0.49313217
-4.4408288 -1.0136614 0.47101629
-4.4110889 -1.0090641 0.54741126
-5.05511 -0.93512833 0.55464381
-4.4302826 -0.90316641 0.55098552
-4.4221687 -0.93961847 0.54944658
16.526766 -0.08531642 0.10909218
-5.0663404 -0.83618879 0.55727446
-4.4453688 -0.81249613 0.55421299
-5.0766172 -0.73706293 0.56007183
-4.5642929 -0.71712661 0.57439834
-4.4702549 -0.75398254 0.5588755
-5.0904455 -0.63195217 0.56374556
-5.1017628 -0.5318839 0.56728691
-5.1105404 -0.43722332 0.57064307
-5.1203213 -0.33580175 0.57457548
-5.1338968 -0.23329225 0.57933772
-5.1469975 -0.13580996 0.58416349
-5.1680126 0.0060300231 0.59189576
-5.1545897 -0.043744564 0.58831149
-5.1208811 0.053267717 0.58734298
-5.0429487 0.07205081 0.5775975
-4.9444513 0.071800351 0.56438845
-4.5358429 0.11128306 0.51140165
-5.1774015 0.18104774 0.59996694
-5.1457434 0.16345656 0.59502029
-4.5428238 0.17431295 0.51509917
-5.210187 0.39170492 0.51176405
-5.1691694 0.35497993 0.60645294
-5.2192192 0.46472162 0.51580471
-5.2302828 0.56563097 0.52138895
-5.2405834 0.66065341 0.52681071
-5.2482796 0.73650604 0.531196
2.2359486 1.212424 0.42790151
-5.2707796 1.2720642 0.56169844
-4.6678696 1.3087406 0.59953517
2.5678699 1.6199834 0.48715693
-5.3329592 1.4052873 0.57586086
-5.3153629 1.3595653 0.57136792
-4.6639585 1.3412638 0.60147572
2.5620604 1.6782577 0.47450927
-5.3346014 1.4593666 0.57924241
2.5526049 1.7835364 0.39732158
-5.3433084 1.5406852 0.58503795
-5.2750034 1.5459709 0.57839555
2.5386722 1.8801429 0.40342456
2.5252225 1.9794066 0.40991428
-5.3559875 1.7634974 0.60026902
2.5138988 2.0828235 0.41700128
-5.3678093 1.8520415 0.6071887
2.499917 2.1871755 0.42418167
-5.3844376 1.9542398 0.61559027
2.4891589 2.2879865 0.43142551
-5.4000273 2.0580928 0.62411571
2.4743934 2.3800111 0.43790805
-5.4065886 2.1504285 0.63108468
-1.9661436 2.2803948 0.51490635
-1.9051821 2.2924566 0.51310802
-1.8079998 2.3196902 0.51183045
-1.7149566 2.3475225 0.51131564
-0.57971138 2.3713648 0.48824531
-0.54291105 2.3785236 0.48951226
2.4575121 2.4808311 0.44512349
-5.4179878 2.24719 0.6389333
-1.6647325 2.3647332 0.5115515
-1.6263783 2.3766804 0.51164764
-0.50905061 2.4474778 0.50057054
2.4460111 2.5891705 0.45337382
-5.4158936 2.3613172 0.64683652
2.4250102 2.7118325 0.46250537
2.4415276 2.6694837 0.45978466
-5.4122314 2.4349082 0.65178782
-5.2757158 2.4443598 0.63953656
-5.2384739 2.4449568 0.63607293
-4.874033 2.4891644 0.60565656
-4.807395 2.4713902 0.59820378
-0.44645619 2.6611717 0.53466433
2.4135377 2.7877593 0.46834224
-5.2953949 2.5234866 0.6472584
-5.2195196 2.5247757 0.64026093
-5.1181126 2.533196 0.63147819
-5.0176239 2.5393605 0.62268823
-4.9313951 2.5647745 0.61679465
-0.4287743 2.7573411 0.54994953
-4.9766488 2.6970553 0.6312958
-4.9656439 2.6884806 0.62962884
-0.39142847 2.8178248 0.55973834
-0.35295957 2.8622124 0.52504009
-4.9813223 2.7697558 0.63750345
-4.9740477 2.7771449 0.63744777
-4.97791 2.8679016 0.64510506
1.7720017 3.1783984 0.47586823
-4.9880958 2.9808986 0.65521008
-4.9819503 2.9433215 0.65159446
1.7259903 3.207128 0.47689182
-5.0326948 3.5045207 0.56857359
-5.0453501 3.5775254 0.57449836
-4.9430885 3.6031277 0.56949282
-4.9320688 3.6416714 0.57148778
0.81716347 4.3923645 0.57449222
0.87463582 4.386456 0.57468224
1.8255689 4.4720407 0.46723312
-5.6383638 4.2817383 0.66326159
2.9765241 4.6133447 0.50143629
-5.6406031 4.3150969 0.66575152
-5.1445465 4.3277669 0.63450903
-5.0892353 4.3500338 0.6326558
-4.9868703 4.3551698 0.62664282
-4.8920131 4.3679147 0.62173647
-4.7956362 4.376637 0.61650926
-4.715682 4.3908272 0.61275667
-3.8913362 4.5511775 0.57887149
-3.8204329 4.5635562 0.57617962
-5.6638498 4.5594296 0.68457299
-3.7809663 4.5995808 0.57706672
-3.6720703 4.5915732 0.57090431
-3.6062291 4.62253 0.57016629
-3.5070157 4.6377263 0.56657296
-3.3818316 4.6400075 0.56079412
-5.6717148 4.6451435 0.69120926
-3.3611133 4.7462978 0.56866652
1.7728984 4.9668183 0.50645536
2.1722605 5.0082641 0.51564461
-5.6716843 4.7078218 0.69570345
-5.6065168 4.7108059 0.69173151
-5.5209017 4.7180266 0.68678832
-3.3713372 4.8546357 0.57817227
2.9223864 5.0670853 0.53446239
-3.3722892 4.9266768 0.58423495
0.59722626 5.1108146 0.51027864
0.63081717 5.1046076 0.50977337
2.1083395 5.1655583 0.52725816
2.1473179 5.1354737 0.52543193
2.2861574 5.1486764 0.52870351
2.3938692 5.1607542 0.53148144
2.4793346 5.1693149 0.53366083
2.5803919 5.1779265 0.53618157
2.6671119 5.1904521 0.53879702
2.7998323 5.2126393 0.54311991
2.8962195 5.1746168 0.5421536
2.9759047 5.2167573 0.54706687
-3.3825476 5.0141382 0.5920186
-3.3181272 5.0250888 0.59003788
-3.2451243 5.0309958 0.58729118
-2.9031913 5.0322766 0.57295799
0.7138418 5.2546849 0.52281809
0.85314035 5.2302237 0.52103865
2.0992413 5.2678151 0.53537148
2.9019964 5.3244209 0.55382729
2.9269218 5.2525735 0.54879129
-2.9003782 5.1372776 0.58183408
0.77576089 5.2796254 0.5250805
0.84251642 5.2849045 0.52569366
2.0869043 5.3704786 0.54350579
2.0775151 5.4572697 0.55042326
-1.8355091 5.5339828 0.58050865
-1.7462475 5.5443983 0.57902461
-1.6394712 5.5534506 0.57706368
-1.5475829 5.5647974 0.57579321
-2.2282422 5.6216702 0.59985501
-1.5321984 5.5693688 0.57582879
-1.4426455 5.5775609 0.57444841
-1.3439425 5.58881 0.57322711
-1.2454002 5.6000161 0.57211959
-2.1387467 5.6465664 0.59926313
-2.046484 5.6572838 0.59742945
-1.9459653 5.6686878 0.59551698
-0.70331812 5.7919765 0.5795601
0.51748288 5.8028827 0.57035947
-0.91621882 5.8432727 0.58753431
-0.85004348 5.8524365 0.58724111
-0.77578151 5.8384948 0.58480555
-0.64547074 5.8194079 0.58116347
-0.5499239 5.8436847 0.58201128
-0.45255172 5.8804517 0.58403969
-0.36482966 5.8966546 0.58444571
-0.25418311 5.8693023 0.58083725
-3.8326819 -6.3900375 0.55528271
-3.7454579 -6.3792372 0.5494647
-3.6413946 -6.3713026 0.54295623
-3.5473347 -6.3618832 0.53703225
-3.4454355 -6.3517947 0.53073472
-3.3452473 -6.3421845 0.52468264
-3.2433543 -6.3279967 0.51835161
-3.145479 -6.3181353 0.51264447
-3.0395329 -6.3072162 0.50658542
-4.1068912 -6.2563024 0.56348938
-4.0781136 -6.257164 0.56173396
-3.0541289 -6.3048906 0.50714684
-2.9721978 -6.2694583 0.50067121
-2.8604333 -6.1261568 0.48535049
-2.7615998 -6.1178446 0.48012272
-2.6630011 -6.1078405 0.47491905
-2.5728087 -6.09235 0.46983236
-2.5180984 -6.0793672 0.46654212
-2.4562957 -6.0689421 0.46318388
-2.3695064 -6.0551867 0.4586226
-2.2678206 -6.0460472 0.45391542
-2.1663008 -6.0331068 0.44909784
-2.0668838 -6.0217595 0.44462937
-1.9689569 -6.0138679 0.44061831
-1.8706565 -5.9989781 0.43623787
-1.7652721 -5.9840288 0.43178982
-1.6614414 -5.9746919 0.42797613
-1.5670794 -5.9671359 0.4247368
-1.4883047 -5.9623723 0.42225876
0.45059299 -5.7706857 0.39012593
0.52047038 -5.7603979 0.38996148
0.56714094 -5.7544341 0.38995701
0.62276495 -5.7492414 0.39014441
0.72624373 -5.7377954 0.390497
0.82987654 -5.7253771 0.39095801
0.92791998 -5.7166286 0.39176229
1.0263162 -5.7066836 0.3926447
1.124671 -5.6949749 0.39356139
1.2244771 -5.6833744 0.39466608
1.3249137 -5.6722231 0.39596748
1.4189229 -5.6619625 0.39733329
1.5155442 -5.654861 0.39909881
1.619169 -5.6416597 0.400783
1.7251599 -5.6297946 0.40276968
1.8243456 -5.6208949 0.40490627
1.922832 -5.6063757 0.40681556
2.0274923 -5.6001391 0.40954384
2.1090407 -5.5933552 0.41164964
-3.898993 -5.7815986 0.52054411
2.1398005 -5.5884008 0.41232228
2.2160523 -5.5801435 0.41428751
2.3214309 -5.5674863 0.41705018
2.4296536 -5.5567603 0.42015731
2.5306122 -5.5475407 0.42322746
2.6210368 -5.5368009 0.42593545
2.7151463 -5.527688 0.42897192
2.8198681 -5.5166793 0.43241543
2.9151468 -5.5050249 0.43556234
3.0160544 -5.4992023 0.43934935
3.111788 -5.4850693 0.44258142
-3.9172091 -5.6914206 0.51609015
4.3544855 -5.3363147 0.32697746
-3.9406228 -5.5813069 0.5108102
-3.926023 -5.6404953 0.51350415
-3.958951 -5.4824128 0.50596642
-3.9792962 -5.3901377 0.50173104
-4.1656861 -5.2754865 0.50776845
-4.0965672 -5.2577763 0.50188631
-4.0060563 -5.281033 0.49700481
-4.1594682 -5.2364297 0.50505114
-4.0499763 -4.7607832 0.59101266
-4.0589571 -4.7097645 0.58796549
-4.079957 -4.580729 0.58023298
-4.0657587 -4.6020007 0.58053488
-4.0832996 -4.4828215 0.5733645
-4.0723047 -4.5251307 0.57545555
-4.093359 -4.3895998 0.56754547
-4.1056304 -4.2950907 0.56194669
-4.1134372 -4.2407598 0.55884796
-4.050828 -4.1453037 0.54626185
-3.971431 -3.9917464 0.52805686
-3.9790475 -3.8933141 0.52203625
-3.9873929 -3.7901192 0.51590276
-4.0036573 -3.6945393 0.5513373
3.5641849 -3.389868 0.37868401
3.6520689 -3.3984206 0.38433367
3.7359345 -3.4014583 0.38960472
3.8254406 -3.3880398 0.39480591
-4.5619168 -3.5881739 0.56279993
-4.3391743 -3.5592444 0.53731841
-4.026413 -3.5761857 0.60520053
-4.0069523 -3.6265116 0.60694748
6.1754522 -3.1465333 0.36836714
6.2880669 -3.1266646 0.37364507
-4.5708747 -3.5182543 0.55987948
-4.3651123 -3.5049963 0.53693074
-4.2652884 -3.5517797 0.52908683
-4.1763992 -3.5431695 0.54444349
-4.0704346 -3.5338285 0.60709679
-4.5917168 -3.4579079 0.55885518
-4.5059376 -3.4314775 0.54801482
-4.404397 -3.3800263 0.53410596
-4.1781611 -3.3769481 0.60830843
3.476692 -3.0446844 0.48475641
-4.4986773 -3.357944 0.54323703
-4.391078 -3.352391 0.53113234
-4.3057275 -3.3512189 0.62242854
-4.167141 -3.327781 0.60333186
3.4731109 -2.984803 0.48232037
3.4581492 -2.8619621 0.4768374
3.463619 -2.9049315 0.47874677
3.4138176 -2.7988341 0.47095472
3.3179953 -2.713542 0.45993686
3.404793 -2.7001774 0.46707124
3.3190005 -2.5833757 0.45608008
3.4155033 -2.5656104 0.46408749
3.4206893 -2.506671 0.46294349
3.500046 -2.4863365 0.46949574
3.6056788 -2.4759188 0.47870535
3.697859 -2.4648438 0.48674276
-4.8953695 -2.4142647 0.65056694
-4.893436 -2.3240566 0.64677036
-4.8046017 -2.3179772 0.63345921
-4.9034576 -2.2274075 0.6447323
-4.8642488 -2.240685 0.6393708
-4.6879745 -2.2541909 0.6138643
-4.6461606 -2.2216783 0.60647136
-4.2861781 -2.1847873 0.60005677
2.4401081 -1.8927941 0.44710439
-4.910326 -2.1422703 0.64287192
-4.8022604 -2.0611205 0.62409925
-4.6624928 -1.9947274 0.60106391
2.4198358 -1.7436538 0.50544173
2.6798515 -1.71297 0.47010148
2.7474544 -1.6973464 0.47764361
-4.560956 -1.9445431 0.58427322
-4.4417148 -1.8822961 0.56446147
2.4487922 -1.6606762 0.44222456
2.7113116 -1.5186043 0.47043213
2.569483 -1.4179056 0.45240992
2.3682044 -1.3283638 0.50996077
2.6409602 -1.3168681 0.45997325
4.408947 -1.2121871 0.4143517
3.5117857 -1.2072628 0.45622405
4.3866968 -1.1762174 0.41303015
4.406332 -1.1469014 0.41477397
4.5669966 -1.114139 0.42705235
4.6615238 -1.0976177 0.43426415
5.2083569 -1.090763 0.47504088
5.3566675 -1.073069 0.48630056
4.688426 -1.0747758 0.43652517
-4.403698 -1.0634024 0.62706381
-4.4083419 -1.0385835 0.6278646
-4.8139787 -0.73035282 0.61397737
-4.6808891 -0.67383802 0.5936619
-4.6080418 -0.70819324 0.58150136
-4.9839835 -0.62142557 0.64293277
-5.0102682 -0.54345906 0.64871883
-4.850173 -0.53306538 0.62340838
-4.8053131 -0.51681674 0.61662453
-5.0510292 -0.42660385 0.65798569
-5.0323162 -0.4536432 0.65431398
-5.0630312 -0.37674302 0.66121566
-5.007143 -0.34091526 0.65334761
-4.8834219 -0.35336804 0.63328594
-4.8349457 -0.33991626 0.62596452
-5.0779848 -0.23416266 0.66788423
-4.9990544 -0.18390399 0.65701908
-4.5843964 -0.208837 0.67558616
-5.0793123 -0.090806246 0.67307854
-4.9863853 -0.14385808 0.65643293
-4.8943672 -0.15520456 0.64143234
-4.5841074 -0.11452943 0.6793201
-5.1058226 -0.0342381 0.67944646
-4.5940628 -0.018131196 0.68540913
-5.1052551 0.019823849 0.68150806
-5.0098124 0.022818267 0.66657776
-4.9164176 0.045646489 0.6528281
-4.8638673 0.073881984 0.64578223
-4.7605186 0.11061203 0.63120824
-4.5998855 0.042101264 0.68932873
-4.5378532 0.10453188 0.63862735
-5.1739178 0.16661006 0.69865286
-5.1369829 0.15997458 0.69255477
-4.5384712 0.16837215 0.63344032
-4.936553 0.31758785 0.66888148
-4.872448 0.28431767 0.6571812
-5.2045145 0.38885868 0.61270678
-5.0520926 0.41319054 0.6919046
-4.8924322 0.34209859 0.66331249
-5.2104511 0.46100396 0.61692828
-5.1276741 0.46348661 0.70636791
-5.0208788 0.47916585 0.69072682
-4.9258251 0.49573857 0.67701328
-4.8634825 0.51397234 0.66848266
-5.2211132 0.56162113 0.62332481
-5.0152264 0.61543041 0.6978541
-4.9105463 0.58296162 0.67985147
-4.8518848 0.52868658 0.66757387
-5.2297249 0.65597969 0.62936109
-5.0641823 0.617428 0.70547813
-4.9416313 0.64595693 0.68849117
-4.8339319 0.66278726 0.67313367
-4.7547026 0.65973836 0.66089362
-4.6313729 0.68243104 0.64371955
-5.2438784 0.75412279 0.63653433
-4.6156721 0.78316277 0.64828414
-5.2504368 0.85832912 0.64328843
-4.6169538 0.88690728 0.65595371
-5.2607174 0.95877355 0.65052944
-4.6301546 0.98505265 0.66527814
-5.2724037 1.0544903 0.65787667
-4.6411572 1.0849371 0.67467952
-5.2804556 1.1585312 0.66548103
-4.6517019 1.1867528 0.68442738
-5.2562695 1.2497039 0.66839498
-4.8727217 1.2972734 0.62385666
-4.6625795 1.2848282 0.69417
2.5932925 1.6256075 0.59030914
-5.3011723 1.3667738 0.68192327
-4.6732988 1.3862309 0.70441049
2.5531871 1.7135658 0.49362245
2.6107192 1.6373396 0.54234588
-5.3112946 1.4469829 0.68874758
-4.6857529 1.4830787 0.71472222
2.5461135 1.7760575 0.49827752
-5.3326569 1.5884309 0.70147508
-5.3260727 1.570883 0.69939321
-4.6916409 1.5506003 0.72163725
2.5364373 1.8753133 0.50595367
-5.3359613 1.6143746 0.70377219
2.5225198 1.9740663 0.51346618
-5.3481283 1.7665389 0.71659189
2.5123127 2.078151 0.52194113
-5.3494158 1.8320441 0.72175354
-5.3288774 1.8783796 0.72287524
2.4958534 2.1803954 0.52999842
-5.3121967 1.9527247 0.72674751
2.482203 2.2786295 0.53809363
-5.3155127 2.0573103 0.73554295
2.4695277 2.3721049 0.5459919
-5.3233919 2.1406262 0.7432912
2.4579775 2.4773381 0.5552659
2.4448762 2.5841112 0.56476927
2.4256477 2.6986897 0.57483578
2.4362936 2.6507456 0.57076484
-5.1116285 2.4249671 0.74339575
-4.7920132 2.458596 0.71101832
2.4182825 2.7785265 0.58238053
-5.4429379 2.525811 0.66133094
1.760376 3.0688269 0.574664
1.6945076 3.1600451 0.5816108
1.7267997 3.1128581 0.57788688
1.872757 3.1355939 0.58805841
-4.9889116 3.0006201 0.65690106
1.6543539 3.2206023 0.58655894
-4.9964104 3.071527 0.66340554
-4.9872556 3.0502186 0.66084898
-5.0092716 3.1607053 0.67193609
-4.9914012 3.1880081 0.67268306
-5.3395958 3.5834281 0.73578346
-4.9331541 3.6048391 0.70360112
-5.590065 3.8810174 0.78230411
-5.5929718 3.9091189 0.78493637
0.92011523 4.3928671 0.57605571
1.0041912 4.392694 0.57739723
1.0748987 4.4004703 0.5794307
1.4097381 4.4202781 0.58821791
1.4724174 4.4194975 0.58955544
1.8259068 4.4656162 0.60317582
1.8719001 4.4769397 0.60557801
0.77013552 4.5038667 0.58578128
-5.0940857 4.3268542 0.78118294
-4.989337 4.3441553 0.77467269
-4.8898234 4.3505645 0.76767081
-4.7966547 4.3639703 0.76190412
-4.6917458 4.3741903 0.75507039
-4.6065006 4.3942819 0.75072926
0.76598442 4.6151896 0.59766966
-4.5891438 4.4788213 0.75754541
-4.5003262 4.4920397 0.7524718
-4.3950334 4.5098476 0.7467851
-4.2955475 4.5191941 0.74081534
-4.1997857 4.5321846 0.7355783
-4.0940256 4.526052 0.72789747
-4.0103335 4.5353088 0.72331399
-3.6694455 4.5699902 0.70532423
0.76259196 4.7056475 0.60735077
-3.9783013 4.5879555 0.72651172
-3.7517729 4.6192708 0.71540022
-3.7117033 4.5796227 0.70888895
-3.5978098 4.6079102 0.70490915
-3.5054004 4.6372495 0.70249188
-3.3970463 4.6437039 0.69692916
-3.3435597 4.6667538 0.69631857
0.76070714 4.8006477 0.61755508
1.7825298 4.8389392 0.63985014
-3.9926157 4.7002158 0.7387293
-3.3463461 4.756443 0.70588094
0.75697482 4.868876 0.62486845
-3.9976029 4.7829428 0.7473945
-3.3458457 4.8430629 0.71495259
-4.0063124 4.9227571 0.76210803
-3.9362252 4.9172769 0.75717932
-3.3623984 4.930923 0.725106
-3.1268103 4.9964666 0.71958899
-4.0759592 5.0003433 0.77434665
-3.3129263 5.0160341 0.73141783
-3.2261665 5.0346117 0.72879171
-3.1198585 5.0053182 0.72018653
-3.0135522 5.0131187 0.71567845
-2.9169908 5.0250258 0.71224594
2.9540527 5.3304667 0.55535418
3.0619404 5.3415828 0.5584594
3.1541445 5.3430629 0.56055439
4.038352 5.3256183 0.58089077
3.2046077 5.363606 0.56322366
3.5285261 5.4006057 0.57344145
3.6812952 5.4180746 0.57844448
3.7741449 5.4287033 0.5815388
3.8702643 5.4393816 0.58475977
3.9616511 5.4445777 0.58749878
4.0666027 5.4628153 0.59158444
4.1314592 5.4664083 0.59357285
-1.832972 5.5324211 0.72555852
-1.7440165 5.5454693 0.72436649
-1.6373012 5.5558534 0.72250181
-1.5752457 5.5610318 0.72139329
-1.5300043 5.5692921 0.72113359
-1.4402108 5.5786371 0.71991771
-1.3414023 5.5890155 0.71872544
-1.2426982 5.596766 0.71739215
-1.1702477 5.6021757 0.71646786
-2.1981227 5.6785116 0.75389129
-2.1442478 5.6910191 0.75339526
-2.0505667 5.6971517 0.75089109
-1.9341459 5.66605 0.74364156
-1.146425 5.7427979 0.73180437
-0.65410429 5.7963037 0.72968435
-0.67975354 5.7997618 0.73040926
-4.0353398 -6.3762488 0.5666256
-3.9504111 -6.396822 0.56276232
-3.8832567 -6.3902988 0.55830187
-4.0641699 -6.3121161 0.56433469
-2.9631865 -6.2777352 0.64204055
-2.8585451 -6.1307054 0.62273431
-2.7592096 -6.1208301 0.6164338
-2.652267 -6.1110744 0.6099208
-2.5535178 -6.0966463 0.60357815
-2.436161 -6.0679283 0.59517306
-2.3678029 -6.0607576 0.5912981
-2.2656589 -6.0497518 0.58563334
-2.1644139 -6.0381832 0.58015078
-2.0650549 -6.0272293 0.57500118
-1.9663126 -6.0148211 0.56992936
-1.8683548 -6.001955 0.56503558
-1.7631342 -5.9881926 0.56000268
-1.6593584 -5.9794211 0.55572039
-1.5650027 -5.9722342 0.55210203
-1.4626226 -5.9613857 0.54809529
-1.361077 -5.9496183 0.54423767
-1.2834936 -5.9358945 0.54097557
-1.2368019 -5.9299197 0.53929806
-1.1678162 -5.9199166 0.53680438
-1.0682751 -5.9106808 0.53388166
-0.96890044 -5.9012303 0.53116536
-0.86997271 -5.8922534 0.52871382
-0.7639125 -5.8829889 0.52636862
-0.66571081 -5.873219 0.52429962
-0.5676949 -5.8606153 0.5221774
-0.4701001 -5.8444266 0.51992071
-0.37100309 -5.8370242 0.51873088
-0.27250975 -5.8286343 0.51765943
-0.17397666 -5.8173513 0.51653159
-0.067686498 -5.8061328 0.51564682
0.03131783 -5.7959924 0.51507509
0.12808108 -5.792439 0.51533234
0.22695255 -5.7924724 0.51614648
0.32683659 -5.7814622 0.51613384
0.42820477 -5.7702308 0.51634151
0.4986341 -5.7625475 0.51661545
0.54499388 -5.7562828 0.51675057
0.62399316 -5.7481909 0.5173251
0.72760069 -5.7373075 0.51824844
0.83187163 -5.7267809 0.51943481
0.92963636 -5.7173743 0.52079189
1.0270028 -5.7049274 0.52205926
1.1270828 -5.6974788 0.52403355
1.2266021 -5.6852198 0.52576107
1.3277223 -5.6755157 0.52795273
1.4313657 -5.666079 0.53044122
1.5261168 -5.6556573 0.53273308
1.621783 -5.6444626 0.53516221
1.7195182 -5.6349583 0.5379703
1.8185544 -5.6253948 0.54099554
1.9270632 -5.6118264 0.54424745
2.0300112 -5.6027174 0.54781932
2.1152833 -5.5963731 0.5510025
-3.8884151 -5.7872648 0.65976328
2.1633615 -5.5923152 0.55280679
2.2208953 -5.5862513 0.55492789
2.2875774 -5.5774741 0.55730367
3.2145903 -5.4752374 0.44643754
3.3195918 -5.4663091 0.45053336
3.4108183 -5.4541817 0.45395908
3.509177 -5.4478612 0.45807207
3.6054709 -5.4381642 0.46200866
3.6681411 -5.433032 0.46466672
-3.9076943 -5.6992073 0.65391165
3.7257316 -5.4218102 0.4668375
3.8252146 -5.4096546 0.47099423
3.9260685 -5.3976626 0.47530839
4.0198469 -5.3892217 0.47951522
4.1117296 -5.3790307 0.48361999
4.2074919 -5.3705153 0.48805502
4.350646 -5.3600612 0.49490464
-3.9329975 -5.5739951 0.64554685
-3.9213634 -5.6221495 0.64859945
-3.9462826 -5.5002999 0.64057028
-3.9647753 -5.4043269 0.63425434
-4.1588941 -5.2715015 0.63954848
-4.1053038 -5.2624044 0.63437539
-3.9869587 -5.301806 0.62780571
-4.0469389 -5.2478409 0.6284048
-4.0174789 -5.2456059 0.62581223
-4.0762258 -5.1186786 0.62071145
-4.0267515 -4.9904447 0.60658962
-4.0338407 -4.893436 0.59971887
-4.0440555 -4.8043008 0.59379405
-4.0836134 -4.4728022 0.68861258
-4.0710607 -4.5271568 0.6922667
-4.0915947 -4.3922219 0.68216139
-4.1012487 -4.2944674 0.67445266
-4.104774 -4.2350755 0.66957694
-4.0462551 -4.1443772 0.65518564
-3.9731991 -3.9980371 0.63434452
-3.9800403 -3.8985314 0.62652445
-3.9888389 -3.7956507 0.61880451
-4.0110703 -3.6660907 0.6611008
-4.0034685 -3.7031033 0.64650404
3.4764316 -3.3922427 0.49837017
3.5277689 -3.3884692 0.50237459
3.6366155 -3.4084771 0.5120697
3.7302458 -3.4085739 0.51975161
3.8292902 -3.3914332 0.52725476
-4.527441 -3.5889733 0.6673854
-4.341671 -3.5652037 0.64250523
-4.2615671 -3.5607984 0.63233066
-4.191431 -3.5557525 0.62339163
-4.0369768 -3.5733538 0.70633739
-4.0063467 -3.585207 0.70330882
-4.5696297 -3.5202084 0.66784716
-4.4541044 -3.5437639 0.65491873
-4.1531944 -3.5444772 0.61788851
-4.0434594 -3.5281065 0.70286292
3.5062172 -3.1544688 0.49130332
-4.75494 -3.4288714 0.6855486
-4.6633019 -3.4679086 0.67623174
-4.5976734 -3.4663291 0.66767198
-4.3734546 -3.4075496 0.63499796
-4.1472006 -3.361227 0.70189553
3.4870141 -3.0934656 0.4874146
-4.7982898 -3.327394 0.68471575
-4.16922 -3.3329253 0.7025156
-4.8080349 -3.2273588 0.67980993
-4.8206072 -3.1323979 0.6758278
3.3779333 -2.7659721 0.58226806
-4.8291039 -3.0283899 0.67100114
3.3267534 -2.7189276 0.57477897
3.4306757 -2.713558 0.58579975
-4.8466892 -2.9097042 0.66690952
-4.8367977 -2.9561992 0.66804731
3.3255517 -2.5875332 0.56936377
3.4253886 -2.5712438 0.57969302
12.133751 -2.2063217 0.36048216
-4.8528848 -2.8316054 0.66368574
3.4277518 -2.5109379 0.5777517
3.498935 -2.4952667 0.58508945
3.5586278 -2.4876435 0.59146523
3.7596424 -2.4560428 0.49212176
4.0891876 -2.4313843 0.52159953
12.127915 -2.1303253 0.3613514
-4.8622847 -2.7271528 0.65977412
12.111197 -2.0339041 0.36221942
-4.8756633 -2.6266575 0.65690488
12.106286 -1.9360235 0.36347201
-4.8808446 -2.5523274 0.65428686
12.093037 -1.8198326 0.36479184
-4.887619 -2.3994689 0.74984616
-4.7458377 -2.4526482 0.72891986
12.079277 -1.7416415 0.36556941
-4.888895 -2.3534153 0.74779916
-4.8041391 -2.2809565 0.73001659
12.064512 -1.6275885 0.36689198
-4.8983154 -2.2256775 0.74350917
-4.8248453 -2.2455232 0.73188323
-4.736093 -2.2398674 0.71656805
-4.279705 -2.1937597 0.724769
-4.2670107 -2.216434 0.72382581
2.4201343 -1.8903081 0.56142592
2.4376581 -1.8954461 0.57888699
12.169996 -1.5570065 0.3709476
12.403941 -1.536097 0.37783942
12.526464 -1.5017543 0.38182354
-4.9160175 -2.1274199 0.74237937
2.4310465 -1.8523269 0.62039626
3.5909126 -1.784318 0.5777902
-4.9269471 -2.0286903 0.74044436
-4.939599 -1.9316881 0.7392382
-4.9501257 -1.8348351 0.73803037
-4.961175 -1.7333016 0.73716444
-4.9716482 -1.6321449 0.73660517
2.3734396 -1.3254347 0.59430432
2.60707 -1.2748109 0.5433045
3.5565917 -1.2734941 0.56957322
4.4157457 -1.2151396 0.54427612
-4.981813 -1.5375729 0.73652303
3.5186017 -1.2095513 0.56499302
4.3638535 -1.1760198 0.53947073
4.4111748 -1.1495911 0.54429001
4.6478405 -1.1236658 0.56764334
5.5270472 -1.0670316 0.49906862
-4.9906263 -1.4374883 0.73648489
4.6947041 -1.0776658 0.57264948
5.5282555 -1.027995 0.4996646
5.8132181 -0.9772594 0.52160668
-4.9999924 -1.332144 0.73689479
-5.0157552 -1.2165933 0.73884934
-5.0064287 -1.2622972 0.73744065
-5.0209103 -1.1697619 0.73957545
-4.9749842 -1.1640904 0.73121345
-4.4511676 -1.0813444 0.71917152
-4.4019604 -1.0649295 0.70894426
-5.0451307 -1.0378696 0.74390858
-4.4032516 -1.0445694 0.70910829
-5.0424991 -0.97885561 0.74360359
-5.0145292 -0.95980573 0.73858434
-4.7509851 -0.90289003 0.69075602
-4.7580814 -0.82773834 0.69268352
-4.7717085 -0.72540843 0.69642675
-4.7856684 -0.62248701 0.70069915
-4.80301 -0.52458286 0.705944
-4.810894 -0.45853144 0.70900315
-4.7059984 -0.41021538 0.73564667
-4.7116818 -0.3241882 0.73943424
-4.7165575 -0.24313852 0.76122391
-4.7920542 0.10510004 0.72715676
-4.6260681 0.062461376 0.69506431
-4.5267916 0.10033643 0.76550812
-4.5304065 0.15928513 0.7697084
-4.9318452 0.97066957 0.80937815
-4.8764935 1.0075474 0.8029601
-4.8249164 1.050822 0.7978577
-4.6559343 1.3006346 0.79238075
-4.7095041 1.3640032 0.80730498
2.5839286 1.6642604 0.59298038
2.5527232 1.8227122 0.60510784
2.5716696 1.8053184 0.60526276
-4.6975842 1.6048679 0.72744268
2.5566273 1.8702826 0.61018652
2.5686824 1.9024868 0.61454421
-4.7054563 1.6831205 0.73582804
2.5477886 1.9518664 0.61749285
2.5707998 1.9956424 0.62411922
-4.7161579 1.7798812 0.74649709
2.5762494 2.0574794 0.63094884
-4.7402477 1.9108961 0.76251954
-4.7239232 1.8619893 0.75551069
-4.7578573 1.9644096 0.77019656
-5.3323393 2.1905408 0.74847209
-5.3362904 2.2556372 0.75439161
-4.9153032 2.2480233 0.81988502
-5.3639812 2.3948817 0.76944035
-5.3460398 2.3442395 0.76303405
-5.3726492 2.4564207 0.77576667
-5.3595419 2.4470804 0.77344936
-4.7992659 2.4547431 0.82664454
-5.3743906 2.5526657 0.78439111
-5.2778282 2.577868 0.77574521
-5.3967237 2.6865051 0.79882771
