# .PCD v0.7 - Point Cloud Data file format
VERSION 0.7
FIELDS x y z
SIZE 4 4 4
TYPE F F F
COUNT 1 1 1
WIDTH 1432
HEIGHT 1
VIEWPOINT 0 0 0 1 0 0 0
POINTS 1432
DATA ascii
1.5708829 -6.0420713 -0.55823541
1.6299261 -6.0200939 -0.55991006
1.7210025 -5.9895592 -0.56288165
1.8214091 -5.9566031 -0.56638902
1.9214786 -5.9224787 -0.56995881
2.0135946 -5.8886271 -0.57321703
2.0925393 -5.861763 -0.57628971
-3.0800757 -7.1908493 -0.57795566
-3.0792203 -7.1281929 -0.57235116
-2.5865612 -7.0864887 -0.56057614
-2.5340025 -7.0510988 -0.55669856
-2.4435663 -7.0274296 -0.55350602
-0.86376107 -6.5311899 -0.63079947
2.4099979 -5.7587605 -0.59008574
2.4828348 -5.7314558 -0.59322268
2.5833297 -5.6975765 -0.59795576
2.6765704 -5.6658459 -0.60246474
2.7715535 -5.6336479 -0.60720724
2.8684707 -5.6016893 -0.61224109
3.2864556 -5.4596758 -0.63520169
3.3434224 -5.4398785 -0.63849258
3.4408851 -5.4084306 -0.64436191
3.5366936 -5.3732834 -0.64998996
3.6264796 -5.3429613 -0.65552539
3.7193112 -5.314115 -0.66150004
5.5884209 -4.846921 -0.62645119
5.6418629 -4.8231916 -0.62956005
5.729733 -4.7933483 -0.63499939
-3.1019754 -7.0911417 -0.56950587
-3.089653 -7.1100092 -0.57093793
-0.88329434 -6.4727068 -0.62360382
3.8205462 -5.2778859 -0.667849
3.9171972 -5.2468395 -0.67422169
3.9890447 -5.2206659 -0.67885149
5.1429982 -4.8310361 -0.59393078
-3.0857658 -6.9893522 -0.56012452
-0.90957689 -6.3946562 -0.61400741
-0.84279704 -6.4203091 -0.61815685
5.2376962 -4.7987013 -0.59963262
5.3113585 -4.7790136 -0.60427737
-1.0899742 -6.2992897 -0.60024768
-0.99020451 -6.2738457 -0.59859043
-0.80089045 -6.2193193 -0.59537339
-0.72032672 -6.1871614 -0.59322882
-0.61531538 -6.1599503 -0.59242016
-0.97298741 -6.2437429 -0.59529305
-0.67960286 -6.1686249 -0.59194034
-0.60765451 -6.1453094 -0.59088242
-2.991529 -6.5165443 -0.51621699
3.018352 -3.4502215 -0.61540997
0.90951669 -3.8233809 -0.60962474
2.9313397 -3.2511256 -0.59546822
-3.7978168 -5.007607 -0.52171808
-3.7047319 -4.9761314 -0.51325232
-3.6438432 -4.9558921 -0.50779104
0.90120256 -3.7352839 -0.58834565
2.9204574 -3.2002606 -0.59179956
0.88464391 -3.6495714 -0.62024802
1.0039958 -3.5883718 -0.55479878
1.0903305 -3.5666397 -0.58399665
1.1716279 -3.5485678 -0.61024541
2.8779163 -3.1286242 -0.58348948
2.9181571 -3.0834713 -0.58623356
2.8087201 -2.7010345 -0.65682441
2.9196653 -2.6576958 -0.59488976
3.0104775 -2.6254425 -0.57981747
3.1054511 -2.592505 -0.59041876
3.1979027 -2.5624895 -0.60088104
3.252079 -2.542417 -0.60697049
3.4882827 -2.500679 -0.63502592
3.5786052 -2.4712102 -0.64546806
3.2978411 -2.5157452 -0.61187047
3.3399572 -2.5081618 -0.61686307
3.4799891 -2.3929577 -0.63127738
3.5661998 -2.3964694 -0.64210659
3.4561152 -2.3606651 -0.62754065
3.5553074 -2.3159676 -0.63890737
2.7207909 -2.315413 -0.62967986
2.7258234 -2.2100272 -0.62731242
2.7474828 -2.1027102 -0.62775606
2.7772622 -2.0193233 -0.6303038
2.7927017 -1.9865764 -0.63193649
2.6865735 -1.9596641 -0.61557883
2.4493761 -1.9075406 -0.57918912
2.5058475 -1.8712687 -0.5869897
2.5832171 -1.8413272 -0.59807765
2.7114015 -1.8321806 -0.61713237
2.7678089 -1.7916939 -0.62503171
2.5845346 -1.7150393 -0.5966199
2.6522961 -1.7281117 -0.60693628
2.3837438 -1.6805625 -0.60883331
2.4226432 -1.6860056 -0.60066456
2.3700495 -1.6272153 -0.56358343
2.3918915 -1.5724403 -0.56650537
2.3730283 -1.5190675 -0.56340575
2.2711992 -1.3618422 -0.63032663
2.3343606 -1.3398342 -0.64141089
2.4318423 -1.2952503 -0.57242042
2.5132346 -1.2699848 -0.58479375
3.1184235 -1.0605328 -0.57536054
3.2126093 -1.0336156 -0.58752596
3.3212852 -1.002808 -0.60157216
3.3811817 -0.96396911 -0.60956389
4.1249709 -0.73002094 -0.57945967
4.2440429 -0.69031662 -0.59211093
4.3727446 -0.64827937 -0.60578322
4.4531908 -0.62069499 -0.61435097
5.8729391 -0.11754203 -0.59831661
5.9845219 -0.074543238 -0.60760552
2.4257283 -0.92146575 -0.62548834
6.1683283 0.024521232 -0.62328154
6.24575 0.064271808 -0.62986875
2.3757911 -0.85483474 -0.65602148
2.414526 -0.84660828 -0.59035498
3.3039541 -0.5996545 -0.6057986
4.1174722 -0.35265803 -0.58435374
9.6322365 1.0929229 -0.649988
2.3460088 -0.7548427 -0.65375131
2.3815994 -0.75317478 -0.59485775
3.29561 -0.52134353 -0.60648179
3.343545 -0.48392022 -0.61331278
4.1122675 -0.33732295 -0.58410782
4.262928 -0.28998268 -0.60021973
4.3100595 -0.26295269 -0.60549134
4.450386 -0.2153008 -0.6205737
9.5338058 1.1529012 -0.64517426
9.598278 1.2004242 -0.64921838
10.117806 1.2609432 -0.67845273
2.3169017 -0.66882336 -0.65159541
2.3467569 -0.65265113 -0.57886684
3.2392998 -0.4067359 -0.60230106
3.3098021 -0.44951767 -0.60994345
10.571098 1.508641 -0.70599514
2.3515339 -0.59241223 -0.63099951
2.4572248 -0.51825804 -0.59157497
2.7306447 -0.4697358 -0.63317144
3.2126684 -0.34410846 -0.60068691
9.3013926 1.3539286 -0.63459182
9.4895058 1.4540584 -0.64604682
9.4402046 1.4905374 -0.64377481
6.5741258 0.91868424 -0.66949922
5.9924636 0.80889893 -0.62275809
5.7025318 1.1431453 -0.60815269
5.9045544 1.2543571 -0.62602109
0.52536368 -0.01563859 -0.59859633
1.5091652 0.30481553 -0.58129776
6.0997005 1.4619751 -0.64578569
6.1049252 1.4891582 -0.6468659
1.4825207 0.32033324 -0.57875937
2.5512295 0.68199158 -0.56609184
6.0201626 1.6007831 -0.64346147
6.0962796 1.5597978 -0.64804006
2.5364995 0.71034288 -0.56608593
2.6159687 0.79989982 -0.58012146
5.8202281 1.6016872 -0.62868255
5.912744 1.6037083 -0.63557947
5.9702153 1.6062152 -0.63990325
2.5648551 0.85163546 -0.57758886
2.5442233 0.91370463 -0.57912111
0.43677473 0.50107908 -0.5812217
2.4859223 1.0815825 -0.58356088
2.4972124 1.0591567 -0.58329737
5.6434474 1.9218357 -0.62495172
5.7053418 1.9269526 -0.62959582
1.3096153 0.81111145 -0.60376793
1.3272671 0.83915329 -0.60919106
2.4700799 1.1113579 -0.58385295
5.3802361 1.9040186 -0.60538411
5.5223103 1.9102941 -0.61582929
5.6346192 1.9397061 -0.6248548
6.2031803 2.1433508 -0.67224705
6.4823999 2.2368004 -0.69534129
6.5457926 2.2266426 -0.69966084
1.3104855 0.90548658 -0.61433685
2.3774118 1.2117314 -0.58096522
5.3514409 2.0030105 -0.6064378
2.358758 1.2780681 -0.58367413
5.310503 2.0904503 -0.60634828
5.5330701 2.2875741 -0.62867397
5.6009464 2.3501143 -0.63557279
8.8774776 3.3667448 -0.6431939
8.8127527 3.4456208 -0.64139777
9.3328676 3.5484006 -0.67033207
3.8606424 4.0246563 -0.59418124
3.8890514 4.0228062 -0.59571403
3.8457489 4.0410814 -0.5941658
3.8891811 4.3184967 -0.61087811
3.8733397 4.384058 -0.61340398
3.8758464 4.4385891 -0.61639398
0.48689473 4.1535273 -0.58590645
3.7486339 5.3304129 -0.6579926
3.7327805 5.3960762 -0.66086704
3.7624159 5.4754581 -0.66682583
1.4774784 5.220706 -0.55172533
1.5322555 5.2423162 -0.55508095
1.6220456 5.2676268 -0.55997199
1.7162591 5.2993174 -0.56548339
1.7767152 5.3332529 -0.56990963
1.8160988 5.3682375 -0.57361889
1.864616 5.4231024 -0.57893926
-2.2198818 -7.4413099 -0.44751942
-2.1288362 -7.4279099 -0.4464424
-2.0219707 -7.4228506 -0.4460265
-1.9299777 -7.3923483 -0.44394344
-1.8690141 -7.314537 -0.4385716
-2.9661651 -7.4887905 -0.45536646
-2.753006 -7.356719 -0.44444957
-2.2269516 -7.2719574 -0.43576506
-1.8371501 -7.189661 -0.42987406
-1.7855724 -7.1755524 -0.4289991
-1.7075102 -7.1492281 -0.42737627
-3.0018497 -7.3425503 -0.44585985
-2.8725946 -7.3586798 -0.44563746
-2.7954037 -7.3435965 -0.44391322
-2.6927066 -7.2333002 -0.43554091
-2.2819347 -7.1156359 -0.42508799
-2.247535 -7.1126785 -0.42476928
0.22081041 -6.5006723 -0.53487623
0.30710828 -6.4720297 -0.53535622
0.40003371 -6.4395647 -0.53589368
0.49229848 -6.4051714 -0.53640151
0.58623552 -6.3741064 -0.53744972
0.68710566 -6.3412104 -0.53880727
0.78118706 -6.3110304 -0.54029536
0.87493193 -6.2793446 -0.54181451
0.96238363 -6.2527275 -0.54362965
-3.0434756 -7.2804518 -0.44213799
-2.6670487 -7.2090149 -0.43368226
-2.6139767 -7.1678638 -0.43047497
-2.5164313 -7.1270657 -0.42702565
-2.4170685 -7.1045704 -0.42491218
-2.3221812 -7.1036196 -0.4244104
0.9699589 -6.2461948 -0.54343903
1.0625719 -6.2147522 -0.54526943
1.1568211 -6.1816616 -0.54720855
1.2525781 -6.1515121 -0.54965061
1.3486425 -6.1199675 -0.55216128
1.4437395 -6.0850306 -0.55451876
1.5253478 -6.0569382 -0.55682689
-3.0890231 -7.1617785 -0.43471524
-3.0568404 -7.1786518 -0.43545702
-0.85433131 -6.555275 -0.51260477
2.6937289 -5.6580248 -0.46917284
2.7721448 -5.6329832 -0.47238395
2.8696785 -5.6016665 -0.47645584
3.3441081 -5.4393673 -0.49720415
3.4404402 -5.4069576 -0.50171947
3.5369158 -5.3724203 -0.50623488
3.6257834 -5.3413382 -0.51050413
3.7045817 -5.3171067 -0.51449841
-3.0817347 -7.0905781 -0.42985851
-0.8818714 -6.477211 -0.50485682
3.7376866 -5.3041081 -0.51606762
3.8091617 -5.2794747 -0.51964176
3.906127 -5.2493391 -0.52470183
4.0021806 -5.2177095 -0.52971023
4.0979009 -5.182251 -0.53461534
4.197845 -5.1491637 -0.53997451
4.2879281 -5.1186056 -0.54484195
4.3813467 -5.0886507 -0.55002111
4.4730744 -5.0569477 -0.55507809
4.5719609 -5.0253124 -0.56069303
4.6666598 -4.9920716 -0.56602216
4.7677002 -4.9591208 -0.57186645
4.8688765 -4.9250822 -0.57774627
4.9597173 -4.8957391 -0.58312166
5.049561 -4.8639426 -0.58839291
-0.90859914 -6.3920078 -0.49646202
-1.7229716 -6.5020609 -0.50078779
-1.6620439 -6.481411 -0.49888965
-1.5877001 -6.4595718 -0.49696624
-1.3437281 -6.3724966 -0.48989984
-1.2797168 -6.3491678 -0.48818475
-1.187079 -6.3205681 -0.48631987
-1.0890808 -6.2871418 -0.48422542
-0.98341918 -6.2693777 -0.48389789
-0.85307407 -6.2538548 -0.48437434
-0.80028653 -6.2130003 -0.48143777
-0.70572537 -6.1837969 -0.48042732
-0.60514259 -6.156352 -0.4798944
-0.5051139 -6.126914 -0.4793683
-0.42590535 -6.1050386 -0.47923505
-0.99880701 -6.2537584 -0.4822152
-0.43344241 -6.1023035 -0.47878852
-3.0858786 -6.4196224 -0.50978994
-3.0337641 -6.4583063 -0.51199251
-3.1962652 -6.3653717 -0.50775468
-3.1414208 -6.3726845 -0.5070225
-3.2013006 -6.2770844 -0.50021899
-3.2344432 -6.1726437 -0.49207497
-3.2706461 -6.0625172 -0.48361909
-3.2569571 -6.1035576 -0.48675036
-3.2948341 -5.993166 -0.47839877
-3.3100576 -5.9258165 -0.47311819
-3.4600739 -5.1665745 -0.4154495
3.0338764 -3.4619749 -0.50702107
-3.4824743 -5.1073823 -0.41160297
-4.0219841 -5.100482 -0.43465933
-3.474134 -4.9961805 -0.47696859
1.0984195 -3.8133845 -0.51473475
1.1166352 -3.76686 -0.51200634
2.9752889 -3.2700505 -0.49388406
-4.0090461 -5.0562201 -0.43076295
-3.909935 -4.998179 -0.42174977
-3.7926297 -5.0019884 -0.41662133
-3.7110147 -4.9755778 -0.41094151
-3.620091 -4.9488039 -0.480353
-3.509757 -4.921381 -0.49691465
-3.4789701 -4.8879032 -0.49192718
0.73154914 -3.7311265 -0.46797335
1.0564181 -3.6993253 -0.49866745
2.92347 -3.1968102 -0.48618197
-3.7618003 -4.9077873 -0.40808347
0.7359941 -3.7117581 -0.48995379
0.75843573 -3.6952567 -0.46682039
0.90251362 -3.6231716 -0.54616559
0.98450434 -3.5934341 -0.51635623
1.0824505 -3.5763969 -0.4894104
1.1461147 -3.5617006 -0.49518493
2.912509 -3.1013196 -0.48164976
-3.6739321 -4.7280173 -0.48788896
2.8902307 -2.9947982 -0.47579318
-3.7028632 -4.6588459 -0.48322049
2.8155951 -2.7737436 -0.56128997
2.8123093 -2.7145829 -0.55872387
2.910666 -2.6678944 -0.51816726
3.0086956 -2.6381955 -0.47672182
3.1112914 -2.6002288 -0.48598126
3.2068372 -2.5645711 -0.49467203
3.2852688 -2.5366154 -0.50188839
3.503633 -2.5114067 -0.52330124
3.596796 -2.4749718 -0.53194052
-3.8864694 -4.3956466 -0.47163159
3.3123918 -2.5147548 -0.50412011
3.4650092 -2.3960845 -0.51704806
3.5800109 -2.3989375 -0.52875739
-3.8952909 -4.2799072 -0.46229738
3.4734564 -2.3709579 -0.51742411
3.5586867 -2.3164763 -0.52508014
2.9661164 -2.1212354 -0.56118411
2.9415474 -2.0493908 -0.556777
2.8327851 -1.9791329 -0.54191202
2.4683375 -1.9200616 -0.49512419
-4.1398044 -3.6102822 -0.42918748
2.4459591 -1.9074651 -0.49211118
2.5224252 -1.8472703 -0.50088942
-4.0782261 -3.4980304 -0.41621265
2.4854503 -1.7562504 -0.49513024
-4.1080265 -3.4111719 -0.41295534
0.83141983 -2.1029434 -0.46507353
0.87557161 -2.1343737 -0.45855728
2.3596115 -1.6372306 -0.56209642
2.4303384 -1.6673827 -0.48733768
-4.1432409 -3.3186798 -0.41008529
0.69451952 -2.0296488 -0.46581808
2.3572249 -1.5701581 -0.47744846
2.3830471 -1.5780785 -0.48077416
-4.1770101 -3.2676587 -0.40991127
2.3334503 -1.462466 -0.47410706
2.3549294 -1.4851764 -0.52339935
2.2883253 -1.3852488 -0.49566996
2.3415189 -1.3921559 -0.51677287
2.5553174 -1.3116748 -0.50240451
2.6544852 -1.2750509 -0.51511562
2.7816858 -1.2350861 -0.53142685
-4.2984099 -3.0285525 -0.40733817
2.2706842 -1.3468879 -0.54796857
2.3481431 -1.3240368 -0.5597021
2.7674136 -1.1726134 -0.53002959
2.8095856 -1.1168162 -0.53580576
2.9786916 -1.0912971 -0.55741173
3.8692575 -0.86118269 -0.55185115
-4.3231931 -2.9280524 -0.40444613
-4.3098273 -2.9050884 -0.40200621
3.9117546 -0.80299658 -0.55681068
3.9712377 -0.78180462 -0.56313491
4.052103 -0.75562513 -0.57170755
4.7262897 -0.54528409 -0.50331247
4.8511691 -0.49825788 -0.51363498
4.8717737 -0.46901929 -0.51556093
4.9772458 -0.43439138 -0.52423763
5.1353035 -0.38811576 -0.53718501
5.2760143 -0.34723043 -0.5487116
9.1541014 0.66769981 -0.61956632
-4.3195081 -2.8440175 -0.39994588
5.2843299 -0.32489312 -0.54961556
5.527585 -0.22361147 -0.56991386
5.7670484 -0.15878272 -0.58950043
9.1596537 0.71497154 -0.62028956
-4.3307791 -2.790338 -0.39847872
9.2129784 0.85337877 -0.62451029
2.5553842 -0.77458602 -0.50872988
2.5971856 -0.78315049 -0.51378763
-4.4860725 -2.3546808 -0.3969771
2.9419494 -0.37839401 -0.56636739
9.0431309 1.4424944 -0.621499
7.145606 1.0665209 -0.51338738
8.9997606 1.5284274 -0.62018555
5.4175696 0.68244267 -0.57623267
5.3889074 0.76826477 -0.57587284
5.363421 0.86559415 -0.57609469
5.3386674 0.95304179 -0.57623917
5.4226861 1.116015 -0.58647603
0.53332698 -0.018293262 -0.49044082
1.5036842 0.3007319 -0.5038594
1.4818882 0.32225227 -0.50272954
2.5556602 0.67711639 -0.46449372
2.5452538 0.7073884 -0.4649311
2.6165996 0.79245687 -0.47532535
2.5756373 0.85002661 -0.47437391
2.5627995 0.90235901 -0.47575602
2.504745 1.0635347 -0.47877014
1.3510932 0.79447508 -0.52698219
2.4059563 1.1668959 -0.47573933
2.4864602 1.10676 -0.47943881
7.4856434 2.4276507 -0.55292463
7.5061903 2.4842515 -0.5550456
2.3816328 1.2061036 -0.47581926
7.5740204 2.5906303 -0.56057632
2.3614588 1.296056 -0.47912818
8.2445087 2.8675587 -0.60073912
8.2565241 2.93698 -0.60267597
8.2943754 3.0210869 -0.60625231
6.8989849 2.9530594 -0.5332011
0.63369131 2.513751 -0.44969177
2.2419605 3.150727 -0.4594312
2.2881088 3.1559503 -0.46210861
0.45544541 3.0153177 -0.48457354
0.42722428 3.0367572 -0.48526141
2.7020292 4.0588331 -0.53365278
0.49043703 4.1608677 -0.44996929
0.45901835 4.2934361 -0.45785955
-0.64962149 4.2703304 -0.43105799
-0.66989446 4.3252773 -0.43452403
-0.68552107 4.4277906 -0.44135401
0.66789591 4.8891945 -0.50360566
0.79673827 4.9168835 -0.50930488
0.88775504 4.9481554 -0.51418775
0.99334013 4.9860544 -0.52003133
1.0870849 5.0169573 -0.52510846
1.2809721 5.1108646 -0.53774643
1.3801752 5.1111965 -0.54122138
1.4180514 5.1284332 -0.54367143
1.3448862 5.1626587 -0.5433113
-0.6774115 4.7414417 -0.46314183
-1.6561544 -7.1321821 -0.42636475
-1.5886828 -7.1099443 -0.42509967
-1.4964459 -7.0801182 -0.42348909
-1.4052507 -7.0464315 -0.42170325
-1.3074384 -7.0138025 -0.42014509
-1.2105085 -6.9827986 -0.41881198
-1.114558 -6.9491262 -0.41739792
-1.0203134 -6.9171419 -0.41620079
-0.92675209 -6.8888636 -0.41537151
-0.8417722 -6.8577747 -0.41433606
0.14796531 -6.5170517 -0.41121081
0.21349216 -6.4977942 -0.41173577
0.30686164 -6.4673042 -0.41237476
0.39983487 -6.4352636 -0.41302887
0.49294412 -6.4036331 -0.41384071
0.58625817 -6.3709288 -0.41472027
0.68666804 -6.336997 -0.41589388
0.78138363 -6.3086224 -0.41737443
0.85736883 -6.2837057 -0.41851571
-0.36013269 -6.5028906 -0.39789423
0.89826453 -6.2669687 -0.41894916
0.96935594 -6.2461538 -0.4203012
1.0635325 -6.214345 -0.42193049
1.1647547 -6.1786461 -0.42372882
1.2593597 -6.1452827 -0.42554399
1.3481663 -6.1169281 -0.42755181
1.4436201 -6.0827532 -0.42960727
1.5409843 -6.0507879 -0.43201149
1.6307336 -6.0195103 -0.43423596
1.7285808 -5.9848852 -0.4367595
1.8286783 -5.951684 -0.43960485
1.9206544 -5.9195786 -0.44224569
2.0094614 -5.8893976 -0.44494992
2.1014614 -5.8586788 -0.44788951
2.2327108 -5.8201303 -0.45256355
2.2996197 -5.7962914 -0.45479861
2.3617787 -5.7773533 -0.45709282
-0.51008481 -6.4612951 -0.39199328
-0.41355473 -6.4937763 -0.39616039
2.3282404 -5.7840872 -0.45565504
2.4019771 -5.7603111 -0.45834476
2.4841571 -5.7315893 -0.46129945
2.5847225 -5.6977577 -0.46509233
2.6528568 -5.6764793 -0.46781057
5.5734458 -4.8504858 -0.44902024
5.7260504 -4.814703 -0.45611742
-0.63779563 -6.4128332 -0.38627097
-0.56102824 -6.4461851 -0.38997748
4.0372262 -5.2075567 -0.38153586
4.1065254 -5.187396 -0.3842836
4.2037287 -5.1522999 -0.38798732
4.2918506 -5.1203461 -0.39138573
4.3874626 -5.0917692 -0.39527833
4.4809923 -5.0611277 -0.39905623
4.5770478 -5.0276251 -0.4029268
4.6744256 -4.9959364 -0.40695107
4.7760282 -4.9632277 -0.41120213
4.864078 -4.9325571 -0.41486466
4.9521718 -4.9026632 -0.41858244
5.0552359 -4.866272 -0.42293856
5.1354451 -4.8378563 -0.42635551
5.2336526 -4.8075352 -0.43067601
5.4834981 -4.8402505 -0.44418013
-0.75368339 -6.3326464 -0.37871033
-0.69920701 -6.3803682 -0.38294339
5.1693006 -4.8211212 -0.42769888
5.2840686 -4.7871246 -0.43279913
5.3182526 -4.7818117 -0.43443233
-0.82418752 -6.2530794 -0.37202296
-2.9661093 -6.597331 -0.3954224
-3.0199945 -6.5370235 -0.39214063
14.171351 -1.9744225 -0.53450257
-3.094943 -6.4475651 -0.38731396
13.265651 -2.1098189 -0.50489676
13.40411 -2.0549169 -0.5093646
-3.1675484 -6.3792295 -0.38396293
13.41874 -1.9892046 -0.50974429
14.646673 -1.6701108 -0.54979408
14.8156 -1.5831443 -0.55528075
14.971878 -1.5337434 -0.56038928
15.285963 -1.4377625 -0.57066959
15.383842 -1.3943512 -0.57386822
-3.1960998 -6.2674341 -0.37713513
15.523533 -1.3414379 -0.57844216
-3.2213173 -6.1738758 -0.37149516
-3.2511129 -6.0752001 -0.36566103
-3.2819271 -5.9852114 -0.36046425
-3.318996 -5.8776903 -0.35433999
-3.3002534 -5.9227333 -0.35682899
12.676476 -1.6006609 -0.48483506
13.209033 -1.4836075 -0.502285
-3.3474703 -5.7911549 -0.34945175
-0.38928258 -4.5808115 -0.33994636
-0.34158093 -4.5951681 -0.34283406
-3.3744259 -5.1730099 -0.31166902
0.91070211 -4.0047369 -0.43738332
3.0172338 -3.4487936 -0.39597002
0.87965429 -3.950613 -0.42984626
-3.9995847 -5.0953484 -0.32552132
-3.5119267 -5.0272322 -0.40643626
0.8313669 -3.8634443 -0.41786203
-4.0158558 -5.0717793 -0.32474393
-3.9335151 -5.0303288 -0.3197048
-3.7944937 -5.0059962 -0.31385505
-3.7060938 -4.980947 -0.30966166
-3.617497 -4.9455814 -0.38446519
-3.5173182 -4.9235172 -0.39852473
0.79441154 -3.7708633 -0.40637171
1.0159792 -3.5924108 -0.41085243
1.0838588 -3.5770712 -0.41600665
1.1513759 -3.5658486 -0.42155996
-3.6723952 -4.7370114 -0.3911024
-3.7723684 -4.6518602 -0.38955161
-1.1857615 -4.0126586 -0.33033398
-3.8026481 -4.5677996 -0.38494059
2.8162475 -2.7926464 -0.46206665
3.6315675 -2.5764675 -0.42181125
-3.8359394 -4.4715357 -0.37975639
2.8100181 -2.7136743 -0.45910814
2.9013762 -2.6746566 -0.44190064
3.008812 -2.6380243 -0.37469661
3.1085134 -2.5992656 -0.38164046
3.2046008 -2.5638113 -0.38842571
3.2541718 -2.5425525 -0.39189374
3.5051465 -2.5213108 -0.41106126
3.5947914 -2.4743729 -0.41730931
-3.8679371 -4.3768597 -0.37479144
3.2618299 -2.5238795 -0.39216578
3.4663787 -2.3898616 -0.4059985
3.5582123 -2.3878527 -0.41316783
-3.8997016 -4.2854424 -0.37021899
3.470552 -2.3691487 -0.40602612
3.5574055 -2.3160963 -0.41211069
-3.9234676 -4.2117629 -0.3665514
2.9729886 -2.1342955 -0.4624607
2.9423146 -2.0554912 -0.45814288
-4.5754666 -3.9468563 -0.38991779
2.9207377 -2.0039532 -0.4552204
2.482738 -1.9323146 -0.40948853
2.5161986 -1.8577724 -0.41203791
2.5538163 -1.8768294 -0.41608983
3.1066194 -1.71512 -0.37083012
3.1372137 -1.7049416 -0.37321377
-4.0827184 -3.5001359 -0.33278996
-3.0568891 -3.2002265 -0.31129414
0.45580447 -2.261539 -0.36819291
0.72686577 -2.1970797 -0.40500286
2.4859028 -1.7508942 -0.40787849
2.5242519 -1.7002534 -0.41141927
-4.1148782 -3.4102216 -0.33012688
0.45711231 -2.2354391 -0.36629125
0.50964475 -2.1952395 -0.37221754
0.59884334 -2.1647358 -0.40885675
0.74789083 -2.1074862 -0.38344565
0.79263937 -2.126462 -0.41703394
2.5614338 -1.6806597 -0.41511258
2.6632504 -1.6425276 -0.42536765
2.7385674 -1.5902559 -0.43287924
2.835588 -1.5691284 -0.44278866
2.8966007 -1.5896026 -0.44915378
-4.7828345 -3.4429264 -0.37839216
-4.1473379 -3.3158581 -0.32747981
0.48395944 -2.1295044 -0.38512897
0.71376026 -2.0545912 -0.39908236
2.6475601 -1.5310662 -0.42328781
2.6910334 -1.543583 -0.42780542
2.82165 -1.430822 -0.44108063
2.8454666 -1.4180819 -0.44353363
-4.8023896 -3.3856969 -0.37721425
-4.4400973 -3.3022022 -0.3473556
-4.3409271 -3.262814 -0.33844754
-4.2679806 -3.2336941 -0.33189219
-4.1777797 -3.2334929 -0.32552254
2.3257747 -1.5027915 -0.3900454
2.3794684 -1.5036732 -0.39558405
2.4793901 -1.4632332 -0.40581924
2.6461768 -1.3858469 -0.42299801
2.8141675 -1.361318 -0.44036081
-4.842308 -3.2759781 -0.37534139
-4.8265824 -3.3146448 -0.37584341
2.2731781 -1.3720673 -0.38456038
2.3250952 -1.3507578 -0.38994402
2.7921877 -1.2633765 -0.43832114
-4.8666596 -3.1989667 -0.37394714
2.7607012 -1.1673824 -0.43553492
3.8499475 -0.86354166 -0.43125939
-4.8978686 -3.1028795 -0.37246412
2.7950807 -1.1006082 -0.43950191
2.9125714 -1.0739512 -0.45177433
3.0052156 -1.0339774 -0.46161401
3.0630422 -0.99750286 -0.46786624
3.8869777 -0.80632758 -0.43462971
3.9228678 -0.78823161 -0.43761796
4.0849762 -0.75154674 -0.45075026
4.2014308 -0.71233612 -0.46029815
4.3907061 -0.66186589 -0.47570878
4.4102139 -0.64318776 -0.47742137
5.329556 -0.33849955 -0.39897564
-4.9300599 -3.0079331 -0.37133351
5.3103418 -0.29211891 -0.3982476
5.9507651 -0.081405878 -0.43550417
-4.9624929 -2.9134846 -0.37046406
-4.3455315 -2.7418408 -0.39771143
5.3777747 -0.21091628 -0.40262559
6.0057507 -0.029235482 -0.43898734
6.193687 0.029133081 -0.44990769
12.892468 1.8796256 -0.49873731
-4.9887891 -2.8292842 -0.36967832
-4.3763456 -2.6533356 -0.39690518
12.948649 1.937192 -0.5008257
13.384062 2.0843723 -0.51559532
-5.0241947 -2.7052243 -0.36858284
-4.4140506 -2.5470591 -0.35609409
-4.4015064 -2.5700097 -0.38452452
4.2881742 -0.28498948 -0.4719663
-5.0090599 -2.6628311 -0.36613953
-4.6321783 -2.5327077 -0.33256152
-4.6062078 -2.4804058 -0.32902825
-4.4430499 -2.4670622 -0.3963733
-4.6366453 -2.4137881 -0.32967773
-4.4685879 -2.3930435 -0.39642748
-4.7078519 -2.2818575 -0.33222729
-4.6700354 -2.3257899 -0.33018616
-4.7257733 -2.2153168 -0.33226714
-4.7666178 -2.1313298 -0.33397779
6.5501661 0.9107163 -0.47900262
-4.7813678 -2.0439367 -0.3336871
5.3939004 0.70658946 -0.41357711
5.5507231 0.7344377 -0.4224439
5.8308988 0.79259825 -0.43840668
6.4249654 0.94392943 -0.47264108
6.5481944 0.94777822 -0.47937962
-4.9953766 -1.9838039 -0.35042834
-4.9750695 -1.9638975 -0.34847662
-4.8664308 -1.9981389 -0.3399851
5.3630357 0.75893402 -0.41264832
-5.0071058 -1.9347154 -0.35074827
-4.9392214 -1.8652346 -0.34431469
5.3361907 0.8553381 -0.41260689
-4.9260435 -1.8095669 -0.34263265
5.3118129 0.93166685 -0.41245291
5.48492 1.0394793 -0.4233847
5.4229898 1.1154168 -0.42129147
5.7658668 1.1661913 -0.44038361
5.8388724 1.2384577 -0.44542691
5.9182253 1.2488859 -0.44982508
5.4090419 1.186301 -0.42171741
0.54266429 -0.027892828 -0.38602495
1.5131794 0.29771757 -0.40992418
5.3836398 1.2868683 -0.4220787
1.4885362 0.32883394 -0.41302219
2.5596781 0.67878246 -0.36425623
5.3544126 1.3865175 -0.4222917
5.3511844 1.4528086 -0.42331839
6.0406523 2.2055674 -0.47366437
6.0179853 2.2479501 -0.47337106
5.7200894 2.3369031 -0.46007934
6.2712464 2.5010166 -0.49160618
6.1907821 2.4865026 -0.48719981
2.3997121 2.5097096 -0.43373868
2.4377708 2.575597 -0.43927607
0.62670732 2.5439663 -0.34952193
1.7050008 2.8279912 -0.41423383
1.7365443 2.8366797 -0.41627887
0.61762822 2.5666754 -0.35060549
1.688362 2.8679707 -0.41572151
1.6980916 2.9022624 -0.41816646
2.1499496 3.055125 -0.44938856
2.1251712 3.0758779 -0.44927439
0.45568502 3.0129321 -0.37337902
0.42798448 3.0357955 -0.37393278
-0.50715011 3.9314215 -0.41019082
-0.43497384 3.9420307 -0.41228068
1.4193083 4.4867325 -0.35180393
-0.58781856 4.0775833 -0.41880333
-0.56859672 4.0232582 -0.41539639
-0.61096066 4.153574 -0.42364681
-0.63650328 4.2289925 -0.42842081
0.67077482 4.893836 -0.35017064
0.60524654 4.9375763 -0.3506248
-2.5633042 -7.6076546 -0.31321999
-2.532115 -7.5991974 -0.31281897
-2.5789971 -7.6020784 -0.31297088
-2.4919624 -7.5823069 -0.31203389
-2.1033773 -7.3875866 -0.30348244
-2.0372298 -7.4177895 -0.30508897
-1.9289455 -7.3949366 -0.3043991
-1.87323 -7.3622608 -0.30309388
-2.1443405 -7.3648949 -0.30232489
-2.9601059 -7.4116402 -0.30504987
-2.8716464 -7.3905039 -0.30379981
-2.6860731 -7.3524389 -0.30161923
-2.5540986 -7.3317299 -0.30049717
-1.8371757 -7.2014942 -0.29570389
-1.7845528 -7.1782293 -0.29485899
-1.6892816 -7.1457081 -0.29382947
-1.5877304 -7.1147079 -0.29297999
-1.4953107 -7.0826445 -0.29209384
-1.4041953 -7.0517683 -0.29132316
-1.3062242 -7.016098 -0.29045147
-1.2092798 -6.985384 -0.28988349
-1.1132632 -6.9529972 -0.28930536
-1.0190513 -6.9183092 -0.2886773
-0.92549592 -6.8889971 -0.28837231
-0.83264869 -6.8600807 -0.2881538
-0.74063456 -6.8269062 -0.28780031
-0.64172089 -6.7953215 -0.28769901
-0.55186599 -6.7618504 -0.28745708
-0.44586408 -6.7352829 -0.2878741
-2.9947779 -7.3622618 -0.30294925
-2.9012144 -7.3685246 -0.30289322
-2.7877147 -7.3219242 -0.30044496
-2.6846924 -7.3048677 -0.29944143
-2.5971322 -7.2880001 -0.29852998
-2.3583298 -7.1632328 -0.29266644
-2.3096302 -7.1322441 -0.29125684
-2.2180371 -7.1060677 -0.29013655
-2.15115 -7.1004972 -0.28998166
-0.50754964 -6.745553 -0.28737435
-0.45608133 -6.730979 -0.28751126
-0.36312836 -6.6980362 -0.2875056
0.11559725 -6.5375662 -0.289215
0.21703267 -6.5063629 -0.28999248
0.3095026 -6.4722652 -0.29053023
0.40248764 -6.4399176 -0.29124713
0.4966104 -6.4110575 -0.29223233
0.58965111 -6.3771372 -0.29305303
0.69221079 -6.3485003 -0.29444423
0.78459847 -6.3137474 -0.29538891
0.87373745 -6.283947 -0.29654697
0.95259082 -6.2628241 -0.29785892
1.0548147 -6.2305298 -0.29943761
-3.0458388 -7.2625227 -0.29865789
-2.2273259 -7.0991669 -0.28979978
0.90412819 -6.2655592 -0.29659784
0.98162591 -6.2426863 -0.29782566
1.0676607 -6.2144518 -0.29913309
1.1665925 -6.1800222 -0.30063853
1.261259 -6.1467037 -0.30215198
1.3493053 -6.1168966 -0.30368763
1.447107 -6.0868835 -0.30560851
1.5430018 -6.0522346 -0.30736157
1.6321124 -6.0198212 -0.3090612
1.731433 -5.9875116 -0.31119728
1.8302902 -5.9523277 -0.3132894
1.9249488 -5.924078 -0.31558898
2.0167542 -5.8897419 -0.31762418
2.1108246 -5.8566599 -0.31986848
2.2064724 -5.8244839 -0.32228401
2.2969279 -5.7964411 -0.32472616
-3.0565341 -7.1565256 -0.29393804
2.3451247 -5.7786503 -0.32594731
2.3942027 -5.7625656 -0.32728991
2.4845591 -5.7306471 -0.32972559
2.5869136 -5.6988707 -0.33271897
2.6795945 -5.6664858 -0.3353695
2.7744694 -5.6341362 -0.33818114
2.8706255 -5.6013746 -0.34109807
3.063015 -5.5424061 -0.34735617
3.1415658 -5.510685 -0.34973007
3.3408723 -5.4471273 -0.3565028
3.4432297 -5.4082508 -0.35988307
3.5391769 -5.3732233 -0.36315995
3.6302013 -5.3438821 -0.36643913
3.722424 -5.3145142 -0.36982316
3.8067842 -5.289536 -0.37301242
-3.0731928 -7.1184235 -0.29230824
3.8192797 -5.2819581 -0.37337756
3.910943 -5.2519484 -0.37681472
3.9953399 -5.2233286 -0.37998959
-2.9539313 -6.6884699 -0.27242175
-2.9912844 -6.6253576 -0.269802
-3.0620759 -6.5193987 -0.26551232
-3.0261202 -6.5554056 -0.26688567
-3.1110482 -6.449131 -0.26273328
-3.1600409 -6.3637609 -0.25933439
-3.1941566 -6.2657509 -0.2553128
-3.2246804 -6.1908226 -0.25230637
-3.2713141 -6.0531082 -0.24676727
-3.2524085 -6.0982304 -0.24853969
-3.2921929 -5.9925222 -0.24436505
-3.3249521 -5.8931046 -0.24044429
-3.358644 -5.8000679 -0.23685385
-3.3944716 -5.7020922 -0.23313089
-3.4188547 -5.6445913 -0.23101026
-3.3739676 -5.5326538 -0.22578628
-3.3192964 -5.3606091 -0.21794124
-0.46768832 -4.5735021 -0.26170763
-0.40932363 -4.592103 -0.27813584
-3.3441544 -5.2735062 -0.21465619
-0.52132279 -4.5299234 -0.29619706
-0.45316184 -4.5534611 -0.33540702
-3.3742137 -5.1743927 -0.21099477
-0.61787701 -4.4479704 -0.27536613
-0.57751507 -4.4746337 -0.32448846
-3.4063749 -5.0810204 -0.30692965
-0.66793156 -4.3834524 -0.28742197
-4.0023522 -5.1003594 -0.21838668
-3.443089 -4.9894176 -0.3024399
-4.0173793 -5.0454683 -0.21662256
-3.8831911 -4.9852266 -0.21183261
-3.7922564 -5.0044708 -0.21091127
-3.7096901 -4.9874229 -0.2088052
-3.606566 -4.9482045 -0.28470713
-3.4957652 -4.9183598 -0.29972789
-4.106246 -4.9531631 -0.21495624
-4.0525165 -4.9598665 -0.21413146
1.0199338 -3.6044798 -0.30700597
1.0915796 -3.5928459 -0.30510655
1.1578962 -3.5795941 -0.30577582
-4.0858092 -4.8868923 -0.21213201
-3.7536464 -4.7542496 -0.29832926
-3.6618543 -4.7447271 -0.29478538
3.7160974 -2.770565 -0.31344688
-3.9952402 -4.7317791 -0.20466958
-3.7685924 -4.6579399 -0.29347792
-1.2484182 -3.9916666 -0.32734475
-1.2192787 -4.003829 -0.32899061
3.6819286 -2.6858048 -0.31051537
-3.795814 -4.5699329 -0.28960788
-2.5303378 -4.218214 -0.3045752
-1.4854345 -3.9287837 -0.31966734
-1.4079008 -3.9557412 -0.32263663
2.8255153 -2.7765265 -0.36359853
3.6557918 -2.6117663 -0.30819654
-3.8284326 -4.472703 -0.28553805
-2.5638938 -4.1323252 -0.2680411
-1.6241473 -3.8624632 -0.31303579
-1.5468571 -3.8996625 -0.31662473
2.8183823 -2.7159653 -0.36171255
2.9181018 -2.6682234 -0.32821736
3.0093336 -2.6379426 -0.27306762
3.5006332 -2.5103126 -0.29849663
3.5999207 -2.4753463 -0.30360889
-3.8618431 -4.3799615 -0.28187194
-2.5871067 -4.0482554 -0.24812509
-2.5686364 -3.9987822 -0.28747502
-1.8063362 -3.7862432 -0.30712166
-1.7412174 -3.8176632 -0.30952919
-1.6780996 -3.8438795 -0.31153977
3.4704242 -2.3974659 -0.29564044
3.5462947 -2.3643119 -0.29952475
-3.8948183 -4.2813344 -0.27801952
-2.6201229 -3.9801273 -0.21966478
-2.5716181 -3.9353869 -0.28235918
-1.9339032 -3.7155929 -0.30215997
-1.8689048 -3.7520416 -0.30464688
-1.0316062 -3.4905021 -0.31958577
3.4681349 -2.3685226 -0.29522747
3.5596819 -2.3232174 -0.29988542
-3.9267387 -4.1845937 -0.27437037
-2.6207969 -3.8650851 -0.27843133
-2.5874009 -3.8638268 -0.27708289
-2.066577 -3.6554384 -0.29951698
-1.981688 -3.6851127 -0.30012801
-1.3413882 -3.4613547 -0.30652872
-1.21904 -3.471554 -0.30984411
-1.1093639 -3.4751122 -0.31606984
-1.053718 -3.4692447 -0.31615654
-3.9590755 -4.091186 -0.27105063
-2.1699848 -3.5830216 -0.29544711
-2.1203222 -3.5952156 -0.29489955
-2.0455813 -3.5503502 -0.28734294
-1.5064253 -3.4061444 -0.30590111
-1.4345936 -3.4360485 -0.30938008
-1.3122303 -3.4238136 -0.28718781
-1.2780833 -3.4139423 -0.29425287
3.0751867 -2.1887126 -0.27173167
9.2522354 -0.56302011 -0.37223092
-3.9910622 -4.0005889 -0.26799762
-2.213366 -3.5105681 -0.2895405
-2.1748762 -3.5471365 -0.29181513
-2.0446444 -3.5314071 -0.28524941
-1.6225901 -3.3353162 -0.29811266
-1.5647892 -3.3761611 -0.30264315
2.9747462 -2.1344988 -0.36397842
-4.0133953 -3.9035048 -0.26437163
-2.322835 -3.4008517 -0.28316215
-2.2837806 -3.4450545 -0.28584868
-1.6422987 -3.2755849 -0.2903682
-1.2732466 -3.1276236 -0.30559233
-1.1776946 -3.1008198 -0.30174825
-1.1184216 -3.0999222 -0.30240619
2.9440422 -2.0556738 -0.36065322
-4.5927043 -3.9603527 -0.29286799
-4.0366364 -3.8027546 -0.26076555
-2.3516178 -3.3533025 -0.27981618
-1.7249417 -3.1434703 -0.27477628
-1.6365503 -3.1772473 -0.27676955
-1.4010495 -3.0717807 -0.2971127
-1.321187 -3.0944991 -0.30024207
-1.2148967 -3.0962033 -0.30068135
2.9010868 -1.9593111 -0.35628918
-4.1656165 -3.6982164 -0.2619741
-4.0451431 -3.7004321 -0.25658187
-1.8853881 -3.1233857 -0.27830815
-1.8505248 -3.1341796 -0.27823189
-1.7169201 -3.11519 -0.27073714
-1.6354802 -3.0660939 -0.26159576
-1.4589726 -3.0399938 -0.29278961
2.634789 -1.9525623 -0.33514157
2.8776412 -1.8607862 -0.35357586
-4.0556178 -3.6116366 -0.25322247
-3.0610867 -3.2926059 -0.25688958
-2.0125592 -3.0259593 -0.27218699
-1.9624209 -3.0591335 -0.2737287
-1.8826494 -3.0007966 -0.26229909
-1.7414641 -2.9989848 -0.25603467
-1.654135 -2.931196 -0.27070847
-1.5917385 -2.9136119 -0.27588359
-1.4771874 -2.9031804 -0.27096426
-1.2693901 -2.8225398 -0.28873149
-1.1773397 -2.841671 -0.2928032
-1.1081564 -2.8512588 -0.29562292
2.4450564 -1.9120765 -0.31973961
2.4843478 -1.8953251 -0.32269201
2.8811598 -1.7895828 -0.35333887
2.991498 -1.7388855 -0.36180869
3.0709047 -1.7254688 -0.33465353
-4.0960932 -3.5039787 -0.25059178
-3.1135459 -3.2136168 -0.25479785
-3.054275 -3.2281837 -0.27911225
-2.9601488 -3.2022681 -0.30425924
-2.0676501 -2.986505 -0.27049822
-1.8403115 -2.9351315 -0.25181347
-1.7624685 -2.8578358 -0.27456838
-1.6859503 -2.8492608 -0.2695393
-1.5887103 -2.8473625 -0.26535141
-1.4930693 -2.8142228 -0.27205297
-1.3942711 -2.7949381 -0.2848798
-1.3228137 -2.8143973 -0.28745699
-1.1675712 -2.6826847 -0.29274699
-1.1353248 -2.6832819 -0.29340309
-0.49584186 -2.5036838 -0.30456766
-0.1978395 -2.4600711 -0.30560943
-0.17321908 -2.4342206 -0.30566728
0.50672424 -2.2438428 -0.28592569
0.74146211 -2.1839435 -0.31803021
2.9316559 -1.6328332 -0.35654208
-4.1265645 -3.4124341 -0.24836294
-3.1482091 -3.1554639 -0.25322789
-3.0627084 -3.1638565 -0.30881432
-2.1765602 -2.877768 -0.26458144
-2.1151145 -2.8949316 -0.26241016
-2.0485802 -2.8344524 -0.25084066
-1.8093923 -2.8139501 -0.26289678
-1.6978643 -2.8066769 -0.26352334
-1.6064029 -2.7243235 -0.27563989
-1.5307335 -2.7472138 -0.27994117
-1.3136473 -2.6534584 -0.28654623
-1.2228256 -2.672612 -0.29023549
-0.51226962 -2.47822 -0.29794657
-0.48213202 -2.4700823 -0.29776976
-0.35467368 -2.3855813 -0.30406362
-0.32190531 -2.3542104 -0.3040852
-0.16626465 -2.3770542 -0.29925421
0.45707893 -2.2325151 -0.31162423
0.49778879 -2.1907046 -0.30377483
0.74139977 -2.1272573 -0.30758151
0.76958597 -2.1267674 -0.31783262
2.8943992 -1.5424874 -0.35329598
-4.7681966 -3.441911 -0.28149194
-4.1542187 -3.3207726 -0.24616133
-3.1832652 -3.0628524 -0.24976876
-2.2050083 -2.8397446 -0.26222149
-2.0232768 -2.793426 -0.24428754
-1.9105723 -2.7295675 -0.26465484
-1.8360039 -2.7188184 -0.25801134
-1.717677 -2.6467614 -0.27182919
-1.6622869 -2.6817768 -0.27450213
-1.5137924 -2.5702779 -0.2753408
-1.4480234 -2.595402 -0.27776971
-1.3685893 -2.6170726 -0.27980247
-1.253818 -2.5169926 -0.28334674
-1.157328 -2.5267406 -0.28619751
-1.1042917 -2.4805329 -0.27630132
-0.55743241 -2.3611679 -0.28703257
-0.48644704 -2.3501 -0.27999634
-0.28335029 -2.3034031 -0.30266687
-0.21144372 -2.2573514 -0.27723584
2.7961955 -1.4307034 -0.34531367
2.8705473 -1.4774766 -0.35127395
-4.7929316 -3.381175 -0.28069633
-4.4846039 -3.3217053 -0.26277927
-4.3787689 -3.279561 -0.25589839
-4.2843213 -3.2494621 -0.25003055
-4.1857171 -3.2446384 -0.24488656
-3.1778526 -2.9695129 -0.24397261
-3.1610916 -2.9290822 -0.24058019
-2.6595187 -2.7828596 -0.24767894
-2.4959714 -2.7612195 -0.2336895
-2.4793456 -2.7636576 -0.23269099
-2.1360915 -2.7297087 -0.24463631
-2.072175 -2.6327548 -0.22891286
-1.9258511 -2.6142302 -0.24945405
-1.8299565 -2.5594995 -0.26557407
-1.780345 -2.5936184 -0.26728353
-1.635313 -2.4983854 -0.26840439
-1.5768908 -2.5356379 -0.27195486
-1.3782603 -2.4747424 -0.27588537
-1.276327 -2.4373097 -0.28061512
-1.1867443 -2.4112267 -0.28247696
-1.1152818 -2.4138818 -0.28442076
-0.66538894 -2.2621284 -0.28192943
-0.60468721 -2.2587428 -0.2967028
-0.50420928 -2.2513492 -0.29776996
-0.4195376 -2.2173662 -0.2943885
-0.34945291 -2.1587539 -0.29763761
-0.23404032 -2.1785519 -0.27030948
2.6088037 -1.419588 -0.33037126
2.7701311 -1.3499508 -0.3432661
2.8398685 -1.3956949 -0.34878561
-4.8235245 -3.290307 -0.27929601
-2.96 -2.7780342 -0.27147245
-2.5960007 -2.6770825 -0.23447207
-2.0554829 -2.5928216 -0.22315818
-1.9560628 -2.5487251 -0.24289477
-1.8771583 -2.5171995 -0.26179433
-1.6938903 -2.4589643 -0.26556861
-1.5639701 -2.3806849 -0.264779
-1.497092 -2.4134443 -0.26751739
-1.3967925 -2.3621502 -0.27309781
-1.3046061 -2.3641281 -0.27674839
-1.2130263 -2.3118172 -0.2779893
-1.1303557 -2.3152514 -0.27722663
-0.70234424 -2.1852336 -0.28483298
-0.63589907 -2.1611238 -0.2935136
-0.51973885 -2.1660149 -0.29260725
-0.45436633 -2.1041436 -0.29147738
-0.30959702 -2.1173668 -0.29916722
-0.2746349 -2.0724559 -0.27171648
2.2763824 -1.3895692 -0.30389285
2.3086305 -1.351261 -0.30648434
2.7009325 -1.329448 -0.3377676
2.787437 -1.2636919 -0.34479311
-4.871964 -3.1560664 -0.27767789
-4.8513174 -3.2052526 -0.27807859
-2.6547265 -2.6045284 -0.23371781
-2.6136479 -2.6342354 -0.23258317
-1.8951461 -2.4058869 -0.24238794
-1.7980582 -2.3754323 -0.26011828
-1.7527895 -2.4160924 -0.26277608
-1.6263679 -2.3371201 -0.26093435
-1.5154399 -2.2897272 -0.26362532
-1.4271555 -2.2753603 -0.268089
-1.328101 -2.2579632 -0.27278847
-1.2333168 -2.2309158 -0.27560425
-1.1440368 -2.1937308 -0.27345231
-1.0597587 -2.1400409 -0.25336221
-0.85843253 -2.0897543 -0.25389779
-0.75715804 -2.0923555 -0.2800574
-0.6509499 -2.0670116 -0.28698003
-0.55564189 -2.0566821 -0.28796887
-0.46784258 -2.0207238 -0.29016796
-0.36784595 -1.9983981 -0.29549977
-0.29876918 -1.9883595 -0.26666766
2.7564836 -1.1678054 -0.34265566
3.854063 -0.87063313 -0.31330463
-4.8884921 -3.0991721 -0.27688888
-2.6803889 -2.5577157 -0.2324678
-2.6532426 -2.5275774 -0.22806652
-2.0441539 -2.3147445 -0.23404616
-1.9194608 -2.2935226 -0.24193397
-1.8629026 -2.31885 -0.25761193
-1.7271562 -2.2573581 -0.25539914
-1.6295129 -2.2198343 -0.25808772
-1.5453088 -2.2057891 -0.25951675
-1.4549356 -2.1861424 -0.26521635
-1.3585362 -2.1597042 -0.26899117
-1.2591633 -2.1340709 -0.27209333
-1.1605477 -2.1018257 -0.2720018
-1.0628936 -2.1019258 -0.26597899
-0.97050333 -2.0669482 -0.26596153
-0.86914372 -2.0430398 -0.26753038
-0.7708565 -2.0099008 -0.28074884
-0.6903832 -1.9763159 -0.2836673
-0.591277 -1.9590963 -0.28469715
-0.48696053 -1.9314201 -0.28712258
-0.39732248 -1.8970571 -0.29031497
-0.33368242 -1.8874646 -0.26445743
2.7663269 -1.1094968 -0.34370705
2.8974457 -1.0754566 -0.35430756
3.0163274 -1.0267663 -0.36403593
3.0562015 -0.99838364 -0.36738205
3.8464441 -0.81965953 -0.31312427
4.0101733 -0.77726924 -0.32251498
4.097271 -0.75016928 -0.327537
4.2060246 -0.71962804 -0.33379221
4.2257471 -0.70159334 -0.33499745
4.4191837 -0.65014613 -0.34611529
4.4998016 -0.61444414 -0.35083604
4.8684516 -0.52327728 -0.37200132
4.881721 -0.47640711 -0.37304825
5.0618858 -0.42086434 -0.3834756
9.084651 0.65288377 -0.37000713
-4.9180288 -3.0033445 -0.27577868
-2.5032439 -2.325438 -0.23886862
-2.4813159 -2.3228552 -0.23633125
-2.3011823 -2.3395483 -0.21912855
-2.070102 -2.2655382 -0.24100797
-1.9480002 -2.2146704 -0.25200823
-1.8320287 -2.1466701 -0.24887089
-1.7821867 -2.1695926 -0.25130749
-1.678869 -2.1387069 -0.25353068
-1.5734926 -2.1133647 -0.25572589
-1.4767537 -2.0862737 -0.2625739
-1.3802661 -2.0635538 -0.26660076
-1.2823982 -2.0350945 -0.26978508
-1.1913104 -2.0059485 -0.2717607
-1.0935241 -1.9853218 -0.27491534
-0.99438834 -1.9583375 -0.27709463
-0.90352899 -1.9295118 -0.27602008
-0.80579072 -1.908323 -0.27817234
-0.70740652 -1.8801274 -0.28043899
-0.61273956 -1.8588836 -0.28108871
-0.51450634 -1.8341761 -0.28345612
-0.40422624 -1.7919787 -0.27613226
-0.36197734 -1.7997136 -0.2668319
9.0973196 0.76318383 -0.37087384
10.450402 1.1258419 -0.41629055
-4.9489727 -2.9086361 -0.27494422
-2.4986587 -2.281651 -0.23498881
-2.2889543 -2.1610887 -0.23428284
-2.0326605 -2.1781769 -0.23183669
-1.9986857 -2.1365325 -0.24624161
-1.8713865 -2.0885861 -0.24532241
-1.7775302 -2.0650883 -0.24788946
-1.694014 -2.0434618 -0.24954045
-1.5991633 -2.0137284 -0.25193301
-1.5049152 -1.9921637 -0.25952223
-1.4083765 -1.9635302 -0.26325306
-1.3106235 -1.9354358 -0.26686621
-1.216002 -1.9139162 -0.27358741
-1.1148891 -1.9040374 -0.27868593
-1.0169353 -1.878625 -0.28008044
-0.92334986 -1.8370366 -0.27841899
-0.83365494 -1.8072402 -0.27695513
-0.73695421 -1.7851843 -0.27691442
-0.63968891 -1.7608027 -0.27812806
-0.53963453 -1.7337105 -0.28088245
-0.42370611 -1.7026591 -0.27064478
-0.38755852 -1.7024727 -0.27678141
9.1161203 0.79921579 -0.37163758
10.406651 1.1869557 -0.4151465
-4.9753895 -2.8310819 -0.27444738
-2.4819803 -2.1014142 -0.22042464
-2.3137498 -2.1052256 -0.23268305
-2.1668587 -2.0494423 -0.23648883
-2.147136 -2.0497112 -0.23356995
-2.0153713 -2.0264812 -0.2363127
-1.9168894 -1.9959195 -0.23887075
-1.83805 -1.9729202 -0.24351576
-1.7233057 -1.9490077 -0.2450348
-1.6172249 -1.9194711 -0.24883685
-1.528722 -1.8938812 -0.25615913
-1.427196 -1.8633263 -0.26167563
-1.3418094 -1.8657116 -0.27106476
-1.266018 -1.8745294 -0.2791509
-0.89622295 -1.7730625 -0.2861791
-0.8360666 -1.7342401 -0.2812764
-0.76296961 -1.6877218 -0.276777
-0.66348284 -1.6636642 -0.27478886
-0.56724733 -1.6338434 -0.27725181
-0.44781905 -1.6113889 -0.26721677
10.383526 1.2490823 -0.41468191
-5.0113826 -2.7135348 -0.27368954
-4.3986926 -2.5620935 -0.23559919
-2.5130386 -2.085927 -0.22306128
-2.3319054 -2.006443 -0.2273906
-2.1848783 -1.9922493 -0.23377226
-2.1516781 -1.9554751 -0.22535701
-2.0649674 -1.935313 -0.23435815
-1.9556365 -1.9055014 -0.23406722
-1.8451515 -1.8756312 -0.23893975
-1.7429919 -1.8421184 -0.24109256
-1.6502446 -1.8280768 -0.24579
-1.5530405 -1.794112 -0.25204629
-1.475309 -1.7941856 -0.25929847
-0.75988078 -1.5980387 -0.27817091
-0.69365716 -1.5674274 -0.27124575
-0.59480113 -1.5433767 -0.27306667
-0.48430401 -1.5121318 -0.26362175
-4.6275964 -2.5210066 -0.24763642
-4.6120872 -2.4898834 -0.24609348
-2.5520618 -1.9756608 -0.22145611
-2.3290102 -1.9367051 -0.22209792
-2.0630577 -1.8400114 -0.22479294
-1.9732029 -1.7998185 -0.23078878
-1.873258 -1.784459 -0.23396443
-1.765204 -1.7522528 -0.23660424
-1.6684561 -1.7248791 -0.24239953
-1.5770276 -1.7071543 -0.24741299
-0.75565583 -1.5244735 -0.27829328
-0.71599782 -1.4767162 -0.26951966
-0.61554217 -1.4420656 -0.26970628
-0.50824583 -1.4209164 -0.26121831
9.9096956 1.3431458 -0.3998374
-4.6601162 -2.425868 -0.24754016
-4.637928 -2.4145424 -0.24605121
-2.5747743 -1.8468353 -0.21833441
-1.9931178 -1.7123625 -0.22898796
-1.8984116 -1.6815689 -0.23061582
-1.7964295 -1.6571286 -0.23314561
-1.69936 -1.6310694 -0.23756845
-1.6208329 -1.6129987 -0.23842147
-0.72699893 -1.3741266 -0.26207364
-0.64553243 -1.3514112 -0.26190424
-0.54872805 -1.3296628 -0.25779635
9.904932 1.4478085 -0.40022108
-4.6856003 -2.2976475 -0.24665459
-4.6675582 -2.3380799 -0.24632026
-2.1230607 -1.6330882 -0.22269233
-2.0272231 -1.6151425 -0.22390889
-1.9244448 -1.5873984 -0.22784156
-1.815268 -1.5589181 -0.23061131
-1.7193813 -1.5347179 -0.23393528
-1.6557854 -1.5121573 -0.23505431
-0.74411631 -1.2726364 -0.25554347
-0.66739416 -1.2525802 -0.25537074
-0.5898971 -1.2390692 -0.25315702
9.7486544 1.5234973 -0.39559931
9.8976622 1.5121131 -0.400327
-4.7123814 -2.2192984 -0.24693461
-4.6894684 -2.2557843 -0.24617234
-2.2496843 -1.5540369 -0.21959956
-2.1363568 -1.5413266 -0.22238195
-2.0304675 -1.5131675 -0.22114141
-1.9459779 -1.4980681 -0.22556493
-1.8597531 -1.4632136 -0.22691309
-1.7529435 -1.4400153 -0.2285255
-1.6715772 -1.4118173 -0.23174126
-0.85048819 -1.1466862 -0.2556617
-0.78956306 -1.1751107 -0.25333017
-0.69599032 -1.1592245 -0.25334564
-0.62150079 -1.1372234 -0.25032249
8.987628 1.4586139 -0.3708137
-4.7671289 -2.1330011 -0.24887577
-2.1349216 -1.4763467 -0.22100544
-2.0370326 -1.4338144 -0.22181579
-1.9688447 -1.3868179 -0.22267811
-1.8659437 -1.3795096 -0.22405966
-1.771274 -1.3514553 -0.22522898
-1.6774225 -1.3204404 -0.22909003
-1.6229761 -1.2755336 -0.22941016
-0.88831854 -1.0848186 -0.24888667
-0.81547737 -1.0901173 -0.24790864
-0.72247422 -1.0614618 -0.24560677
-0.64597112 -1.0389886 -0.24663475
7.1697035 1.0730557 -0.31035683
8.9832439 1.5063698 -0.37095022
-4.7786875 -2.038348 -0.2483324
-1.996394 -1.3439239 -0.22156268
-1.937175 -1.3036542 -0.22101244
-1.7905238 -1.2570941 -0.22268477
-1.6894999 -1.234567 -0.22512157
-1.6114323 -1.1966915 -0.22734138
-1.5459309 -1.1470041 -0.22814065
-1.0169449 -1.0108756 -0.24447455
-0.93785763 -1.0161525 -0.24625933
-0.85844958 -1.0077968 -0.24441367
-0.73978472 -0.9794246 -0.24407132
-0.68122411 -0.9441545 -0.24267767
8.9658928 1.5831497 -0.37084985
-5.2607374 -2.0214772 -0.27675104
-1.6025063 -1.1260689 -0.22595897
-1.5301313 -1.0842576 -0.22647642
-1.4528821 -1.038735 -0.22777069
-1.3546032 -1.0005727 -0.2300851
-1.2929881 -0.98407161 -0.23273507
-1.1105989 -0.97682416 -0.24417372
-1.0611863 -0.94681704 -0.24265258
-0.96589565 -0.92297691 -0.24165672
-0.87513101 -0.90288949 -0.23778655
-0.77508545 -0.8479864 -0.23764068
-0.71367931 -0.86401445 -0.23932679
-5.2679491 -1.998538 -0.27694571
-4.9129386 -1.9059249 -0.2548981
-4.8668075 -1.8411443 -0.25158536
-1.5149393 -1.0016708 -0.2251128
-1.4279599 -0.98318905 -0.22769971
-1.366581 -0.95461118 -0.23028114
-1.3021305 -0.94491911 -0.24024615
-1.0657918 -0.84801263 -0.2384582
-0.99179137 -0.83885765 -0.23899767
-0.89231998 -0.80314487 -0.23413226
-0.79477334 -0.77785826 -0.23592661
-0.73117381 -0.79757392 -0.23866126
-4.8747926 -1.7821438 -0.25161055
-1.0994952 -0.74362171 -0.23387967
-0.88798594 -0.73115373 -0.23245315
-0.77966738 -0.69949234 -0.23223083
-0.72397321 -0.66059226 -0.24727361
-1.401276 -0.75882483 -0.23126763
-1.1263165 -0.66437984 -0.23213002
-1.0862274 -0.63749349 -0.23049706
-0.65927285 -0.56448394 -0.27528015
-1.233707 -0.58765501 -0.23005551
-1.1179335 -0.56483757 -0.2368535
-1.0659094 -0.50156415 -0.23038226
-0.54887688 -0.38826644 -0.26434082
-0.50426298 -0.38677943 -0.28057164
-0.39261895 -0.34957755 -0.27505943
-0.19544792 -0.28941321 -0.26720771
-0.10440886 -0.25423574 -0.28489223
-0.0054124594 -0.22431684 -0.26985675
0.087741852 -0.19726813 -0.2690559
0.18192577 -0.16453993 -0.28482822
0.26274705 -0.13239396 -0.29278168
0.50109398 -0.077933073 -0.24608092
0.57281423 -0.053362727 -0.25342616
-0.56794608 -0.28895926 -0.25352466
-0.55449247 -0.29712844 -0.28000015
0.31084108 -0.11191857 -0.27603438
0.36608768 -0.095376134 -0.28270054
0.46729016 -0.060916662 -0.29529449
0.56328678 -0.032950878 -0.30697355
1.5020787 0.28606892 -0.29803169
1.5921582 0.30568147 -0.28356171
1.6886052 0.35455573 -0.29200232
-0.58894992 -0.20710063 -0.27076903
1.475684 0.34506905 -0.2886118
1.7760984 0.39132333 -0.29938686
1.876911 0.4291383 -0.30773732
1.9746982 0.46402049 -0.31578115
2.0841122 0.50448394 -0.32484132
2.1657124 0.53301251 -0.33154586
2.2679849 0.57342911 -0.34011811
2.5693221 0.66232729 -0.26406103
-0.62598926 -0.09897995 -0.2603201
1.4479271 0.45288861 -0.2794596
2.5288382 0.68995667 -0.36246142
-0.65119195 -0.01474452 -0.2614094
1.4188827 0.54322219 -0.28124955
-0.68211341 0.083599091 -0.27134874
-0.65236217 0.096839666 -0.30004877
1.3871275 0.63323975 -0.28302577
-5.5304933 -1.0735486 -0.18910326
-0.70239496 0.17219687 -0.2687259
1.3513864 0.72865701 -0.28496292
-5.5904808 -1.0483052 -0.191393
1.3197373 0.80441475 -0.28642896
1.3354734 0.84489512 -0.28927723
1.3139247 0.92606616 -0.29177275
1.2830697 1.0222912 -0.2945599
1.2469791 1.1090133 -0.29672855
1.1163515 1.39486 -0.3042725
1.184553 1.3879309 -0.30759805
0.6385175 1.3825555 -0.27927557
1.0890104 1.4970515 -0.30834574
0.60383451 1.46578 -0.28252196
0.48873544 1.5848997 -0.28446087
0.5388087 1.5508447 -0.28462613
0.43441808 1.6321275 -0.28501981
-5.4763389 0.16053092 -0.19910885
0.25775015 1.6818213 -0.28090057
0.33457816 1.6796863 -0.28382087
0.37374318 1.6680293 -0.28468698
-5.617373 0.25653052 -0.20541199
-5.5416951 0.20533645 -0.20203303
-1.2023903 1.4293656 -0.22703888
-5.6236439 0.30321944 -0.20638408
-5.5421638 0.33784723 -0.20422855
-5.4566383 0.34597313 -0.2015139
-0.98732418 1.6055698 -0.24178457
-5.6382537 0.47563279 -0.20982422
-5.5700989 0.4164207 -0.20651694
-0.99065477 1.6450801 -0.24447145
-0.96098578 1.6597552 -0.24591322
-5.6380429 0.49122477 -0.21009606
-5.5992279 0.50345325 -0.20903692
0.65714145 2.4409499 -0.24409445
0.62612331 2.5080812 -0.24598068
-5.8221946 1.0264215 -0.22656091
-5.7456303 1.0535557 -0.22474894
-5.7493052 1.1173954 -0.2262651
-5.7127624 1.2707341 -0.22863643
-5.7507586 1.277277 -0.22994027
-5.7338715 1.3387482 -0.2308735
0.45962918 3.000921 -0.26233953
-5.764997 1.412605 -0.23356864
-0.46798962 3.9182479 -0.28402188
-0.41978377 3.9322827 -0.28543648
0.49979866 4.158452 -0.31381911
0.57992125 4.1871166 -0.3169556
0.67134678 4.2193356 -0.32055831
0.73303962 4.241806 -0.32304439
-0.52908152 3.9366405 -0.28390601
