# .PCD v0.7 - Point Cloud Data file format
VERSION 0.7
FIELDS x y z
SIZE 4 4 4
TYPE F F F
COUNT 1 1 1
WIDTH 1464
HEIGHT 1
VIEWPOINT 0 0 0 1 0 0 0
POINTS 1464
DATA ascii
4.8124318 -0.43202078 -0.065971367
4.9704666 -0.38496625 -0.067187466
5.1573243 -0.32917154 -0.068626873
5.3088646 -0.23652899 -0.070249699
6.0068011 -0.0054687262 -0.075843841
13.26916 2.1678514 -0.13183388
15.322151 2.8231812 -0.14805526
-4.8302593 -3.2362347 0.007587444
-4.2310562 -3.0523171 0.082606204
5.2861686 -0.1887213 -0.070599444
5.9890494 0.033802032 -0.076135449
5.9998922 0.11292875 -0.076948293
13.25446 2.232513 -0.13238424
15.59866 2.9966812 -0.1510592
-4.867825 -3.1439464 0.0068820938
-4.2650027 -2.9586678 0.081652097
6.1938734 0.17938602 -0.078524604
15.558189 3.0688114 -0.15155676
-4.8940349 -3.0724778 0.0063219443
-4.3151255 -2.8450251 0.080816157
-4.2936268 -2.8628511 0.080585115
-4.9374437 -2.9444895 0.0053017475
-4.3294144 -2.7763865 0.064088494
-4.3229737 -2.7752292 0.050146818
9.83743 1.5746335 -0.10954509
-4.9712548 -2.8635335 0.0046871584
-4.3678064 -2.6747518 0.079166174
-4.3431387 -2.7184792 0.079271145
9.8297043 1.6401986 -0.11013786
-5.0061965 -2.7700543 0.0039576832
-4.4008532 -2.5866668 0.078552619
9.8160915 1.7430457 -0.11106046
-5.0420804 -2.6766906 0.0032338705
-4.4404693 -2.4900389 0.078039996
9.8037262 1.8409933 -0.111942
-5.0767965 -2.5828104 0.0024994537
-4.479084 -2.3923099 0.077555008
9.7947683 1.9431301 -0.11288027
-5.1136007 -2.4888349 0.0017742086
-4.5152087 -2.3038645 0.07721182
6.9037075 1.1793936 -0.091566138
6.9263697 1.2121953 -0.091990918
8.8864822 1.7990884 -0.10710565
9.7870131 2.0087571 -0.11347349
9.7840328 2.0436902 -0.1137948
-5.1517353 -2.3943939 0.0010509249
-4.5488114 -2.213531 0.076833136
-0.82795286 -1.0976928 -0.032310452
-0.75676823 -1.0336753 -0.033269763
5.8452005 0.97952092 -0.084528849
6.6521578 1.2064275 -0.09061005
6.9035215 1.2295376 -0.09204714
-5.1864429 -2.3044243 0.00035404786
-4.5844855 -2.1176603 0.076497398
5.6854954 1.0577163 -0.084508389
5.7679276 1.0545205 -0.08487612
5.8059821 1.0239009 -0.084765799
-5.2219148 -2.2076387 -0.00040464476
-4.678936 -1.9927346 0.077494256
-4.6184649 -2.0309596 0.076298453
5.2780914 1.009231 -0.082073182
5.3085418 0.97922099 -0.081931964
5.678669 1.0756081 -0.084647343
-5.2593141 -2.1103685 -0.0011586715
-4.8432469 -1.9751719 0.081856847
-4.7355189 -1.9834452 0.078955159
-5.3034682 -1.9947417 -0.0020564627
-5.284142 -2.0401342 -0.001713641
-5.15063 -1.9652286 0.090315171
-5.0366478 -1.9822146 0.087339304
6.158875 1.5066603 -0.091111049
-5.3201551 -1.9537928 -0.0023693386
-5.2782578 -1.8995621 0.048552185
-4.7354054 -1.713598 0.034184821
6.1932993 1.5964831 -0.092140682
6.4442425 1.6536354 -0.093902901
-5.3724599 -1.8041842 0.045527749
-5.3085251 -1.8420689 0.044836141
-4.7518773 -1.6548026 0.030642539
6.091753 1.6693994 -0.092350595
6.1521969 1.6545922 -0.092500456
-5.3808641 -1.7739029 -0.003804706
5.9480848 1.7140943 -0.092085689
6.0547762 1.7113851 -0.092575364
6.1029673 1.8080951 -0.093737721
-5.4425144 -1.612763 0.054701999
-5.2984619 -1.6250932 -0.0056331269
5.8647966 1.7862173 -0.09237624
5.8845606 1.8446108 -0.093032949
6.0606499 1.8421539 -0.093860492
6.102067 1.83382 -0.093980595
9.7746019 2.9421244 -0.12238351
-5.4759846 -1.5474254 -0.0055214651
-3.7982416 -0.99697739 -0.018921077
5.8964076 1.8890175 -0.093516976
6.0448422 1.9861268 -0.095167719
-5.5063868 -1.4524993 -0.0062867887
-3.8231974 -0.94671041 -0.019283537
-0.89607823 -0.069939017 0.012387808
-0.83051103 -0.015585184 0.009104941
5.8860636 2.061974 -0.095129155
5.9840875 2.0854697 -0.095828772
6.0385752 2.0494437 -0.095745929
-5.5419903 -1.3630409 -0.0069744233
-3.8533707 -0.8487128 -0.020079482
-1.783304 -0.19999659 -0.036319841
-1.7196243 -0.18553603 -0.020219527
-1.6324251 -0.16526186 -0.03046109
-1.5620826 -0.12554121 -0.038104687
-0.921803 0.050563693 -0.0077660717
-0.83168244 0.035256624 -0.01842089
-0.79342937 0.099274397 -0.037620515
1.8059267 0.91644013 -0.064398259
5.8377242 2.0750337 -0.095021009
-5.5774221 -1.2715613 -0.0076823123
-3.8586617 -0.75047928 -0.020997969
-1.812206 -0.1293565 -0.0060200356
-1.7777352 -0.15969503 -0.0015444756
-1.6576107 -0.065156937 -0.0020216107
-1.5306656 -0.049515724 -0.038987182
-1.4758706 -0.0069707632 -0.039660912
-0.93707758 0.14079666 -0.021716833
-0.90993357 0.13816464 0.0011258293
-0.82580024 0.16912878 -0.044495501
1.8203455 0.95806706 -0.020045362
1.8739198 1.0138618 0.0032420643
1.9860409 1.0293881 -0.0098652802
6.1096702 2.3378124 -0.098860905
-5.6120625 -1.1783494 -0.0084106773
-1.9378318 -0.017152667 -0.03733011
-1.9101063 -0.012420774 -0.037509598
-1.6457719 -0.0059417486 -0.0014315974
-1.4437778 0.055838585 -0.040419661
-1.4159403 0.14745736 -0.041434705
-0.87197399 0.23041856 -0.013826706
-0.84319675 0.26166523 -0.045300722
1.6713308 1.0954589 -0.065468103
1.7496461 1.1136333 0.025248803
1.8354627 1.0966848 0.02621939
5.4170408 2.1900935 -0.09409336
6.09938 2.411561 -0.099519916
6.1280704 2.3754501 -0.09931156
-5.6453419 -1.0840164 -0.009156391
-1.9738965 -0.0029860735 -0.037291933
-1.4115194 0.18652725 -0.010909277
-1.3225079 0.2204597 -0.023020074
-1.27275 0.26534927 -0.017828608
1.5552779 1.0925883 -0.064879559
1.69166 1.129341 -0.065891989
1.6977795 1.1431118 -0.066053912
1.8067631 1.1505364 -0.020204563
5.4699173 2.2975178 -0.095381327
5.5145516 2.3731923 -0.096324332
6.1146879 2.4751844 -0.10020535
-5.680841 -0.98744273 -0.0099129118
-1.521791 0.28789902 0.0010256078
-1.4860103 0.24467707 0.00012290478
5.5395336 2.4272571 -0.096964672
5.5789557 2.4919853 -0.097777285
6.3612723 2.6552076 -0.10312735
-5.7192879 -0.89477742 -0.010617621
1.5817055 1.3248452 -0.067239374
1.7077249 1.3543967 -0.068132512
1.7788211 1.3927873 -0.068845116
5.4056735 2.530273 -0.09730766
5.5208507 2.5607452 -0.098157234
5.5996933 2.5569534 -0.098501891
-5.7367344 -0.797225 -0.011470808
-5.1667657 -0.58619249 0.079577371
1.5686935 1.45746 -0.049574859
1.6281372 1.485907 -0.069011681
1.9970876 1.5475515 -0.071387477
5.371242 2.5627265 -0.097453125
-5.7785497 -0.70031393 -0.012200043
-5.1704383 -0.54814458 0.079519615
-1.7738135 0.53747571 0.0068940148
1.5247668 1.5204395 -0.02165072
1.6399602 1.5345293 0.026863888
1.7366716 1.5951141 0.028367519
1.7771236 1.5752183 0.028664954
-5.8370895 -0.60560787 -0.012827246
-5.8113098 -0.64566386 -0.012566902
1.485109 1.6210586 -0.027834449
4.2492256 2.4650955 -0.091091439
4.3599272 2.4732056 -0.091704473
5.5493188 2.8808007 -0.1013707
5.5687099 2.8575363 -0.10124085
5.7872772 2.9222145 -0.1029189
0.60802424 1.4521071 -0.063755997
1.4611677 1.6896929 -0.012346283
4.2722692 2.5566969 -0.092083149
4.2752852 2.60675 -0.092578754
5.3687987 2.8844452 -0.10053316
5.5287375 2.9513803 -0.10194951
5.5444808 2.9314804 -0.10183436
-3.4434667 0.36891043 0.014750727
-3.3633294 0.37579656 0.0019854791
0.50772727 1.5732793 -0.064435713
0.54393327 1.5338236 -0.06423153
1.5654894 1.8543192 -0.072249442
5.4908581 3.0647364 -0.10285581
5.5123281 3.0218687 -0.10254762
-3.6291618 0.36437583 -0.0086885951
-3.5630708 0.36662734 0.0052195862
-3.4885798 0.37231433 -0.021862898
-3.350513 0.45952308 0.0017193072
0.45430481 1.6157457 -0.064585604
0.55699813 1.6551241 0.018648751
1.6068534 1.9474725 -0.073344618
5.4630613 3.1329184 -0.10337671
5.466702 3.1623745 -0.10367739
-3.3604598 0.53894675 -0.015789118
-3.3585696 0.57970607 0.011040453
-3.0970981 0.61328661 -0.037785403
-3.0259771 0.65929639 -0.03857135
-2.9403605 0.72003806 -0.039568938
-2.8909035 0.75022709 -0.040098123
-1.822001 1.0626565 0.014126848
-1.2842734 1.22866 -0.052461907
0.34697831 1.6886843 -0.064767793
0.39268553 1.6644892 -0.0647562
1.576331 2.0569091 -0.074248813
-3.3546772 0.66029108 0.001321584
-2.8504863 0.78111899 -0.040590368
-2.7746594 0.83255827 -0.041451238
-1.8749776 1.1241204 0.015486713
-1.8334486 1.0927197 0.014636055
-1.2825209 1.2510384 -0.0007923916
-1.237532 1.3131632 -0.024476072
-1.1893179 1.366588 -0.054246433
-1.0551866 1.3428894 -0.021206727
1.5343996 2.1578622 -0.075016335
-6.0447931 -0.02020359 -0.017449241
-3.3579273 0.74309456 -0.0062567107
-2.7666285 0.91167295 -0.042250384
-1.9274027 1.2227167 0.017322693
-1.2098819 1.3711101 0.013403244
-1.1770588 1.4261457 -0.037828743
-1.0733461 1.4587361 -0.020781523
-1.0058607 1.5078043 -0.038640209
0.76227272 1.9767081 0.023398198
0.80996978 2.0159321 0.02412153
1.4931701 2.2461915 -0.075665921
5.3371835 3.4469576 -0.1057863
-6.0757651 0.044291139 -0.017919354
-2.8482442 1.0685827 -0.043363843
-1.9636223 1.3059899 0.018786557
-1.0841038 1.5620099 -0.020526601
-1.006011 1.5936877 -0.0089099444
0.74115956 2.1266584 0.024906516
1.4592437 2.3389621 -0.0763935
4.4269261 3.2606683 -0.099596135
5.3247952 3.5143189 -0.10637379
-6.1105661 0.12726116 -0.018548511
-2.9159541 1.1056551 0.030437227
-2.8437703 1.1365212 -0.0099236872
-2.7616529 1.170103 -0.0081292912
-2.6869054 1.2189173 0.0002525989
-1.1053748 1.6506056 -0.027670166
-1.0216572 1.6451777 -0.057734199
0.70275235 2.2114058 0.025631763
1.4233335 2.4412365 -0.077202819
4.1275206 3.2491689 -0.098038405
5.2968764 3.6085653 -0.10714458
-6.145503 0.21992815 -0.019270208
-3.0641074 1.2217487 0.034200352
-3.0022032 1.1914438 0.032799646
-2.6380129 1.2581102 0.027357802
-2.5815008 1.2798382 0.026721787
-2.545269 1.3525184 0.026984863
-1.1261678 1.753585 -0.0072273836
0.6606288 2.306097 0.026480563
1.3857578 2.5287437 -0.077862166
4.5476899 3.538619 -0.10285107
-6.1477866 0.3031956 -0.020059401
-6.0795736 0.3754102 -0.021083126
-6.017972 0.42409182 -0.021848734
-5.588366 0.51866233 -0.02483415
-3.2097826 1.2645615 0.037269212
-3.1087198 1.2554451 0.03532704
-1.1414993 1.8196465 0.019161142
0.60848522 2.3825235 -0.012784723
4.5311069 3.5541701 -0.10292038
-5.9699802 0.44641006 -0.022295196
-5.9395123 0.4993757 -0.022951487
-5.6833167 0.59578645 -0.025116388
0.61137891 2.4693165 -0.073547982
-5.9483728 0.59403765 -0.023818396
-5.8258772 0.67794549 -0.025216879
-4.5984092 0.99697292 -0.034215987
0.50168788 2.570559 -0.073990755
0.58258927 2.5640025 -0.074318796
0.64087737 2.5851884 -0.074804142
5.220994 4.0076342 -0.110613
-5.8524642 0.73348653 -0.025622141
-4.6551557 1.0548004 -0.03449744
5.208128 4.0598025 -0.11105216
-5.8908567 0.81981409 -0.026266208
-5.9272666 0.91679394 -0.027022228
-5.9572859 1.0120159 -0.027792245
0.46322513 2.9587302 -0.077535316
-5.997364 1.1052703 -0.028494732
-6.0295691 1.1794351 -0.029051816
-6.1586895 1.2783793 -0.029378591
-6.2275515 1.3475436 -0.029710433
-6.1896043 1.3933457 -0.030334029
-6.1630721 1.4758505 -0.031255178
-6.2013469 1.5893425 -0.032160878
-5.9980979 1.6018552 -0.033263557
-6.2204938 1.6624759 -0.032771163
-6.1824379 1.7107171 -0.03341873
-6.3246202 1.8663224 -0.034226898
-6.3736458 1.9419626 -0.034716859
-6.4142056 2.0357165 -0.035421818
-0.63265419 3.7907901 -0.080234654
-0.54365063 3.8213158 -0.080958225
0.33821499 4.1112757 -0.088007465
-6.4335785 2.0948172 -0.03589616
-0.69453955 3.8797989 -0.080790929
-6.5114975 2.2052574 -0.036580898
-6.4640641 2.2522254 -0.037261553
-6.3650827 2.2516127 -0.037734106
-0.72721732 3.9824262 -0.081619263
0.46594 4.3827524 -0.091233835
0.51311719 4.3883853 -0.09151601
-0.75322545 4.0735869 -0.08236964
0.46960688 4.4004378 -0.091421522
0.55543351 4.4387655 -0.092204727
0.82911158 4.5832915 -0.09491653
-5.2280231 2.7787642 -0.048296362
-0.77936256 4.1635656 -0.083108038
1.0498461 4.7622318 -0.097703166
1.3271691 4.9193292 -0.10055342
-0.82849634 4.3228011 -0.084400855
0.67967033 4.8067503 -0.096341714
0.9138931 4.906858 -0.098435938
1.2729095 5.0012445 -0.10107838
0.42694926 4.8989878 -0.096006587
0.48728585 4.8178287 -0.095518269
0.73377669 4.9222403 -0.09771315
0.79119384 4.9427652 -0.098187938
0.8836211 4.9772243 -0.098965861
0.99968493 5.0146341 -0.099886395
1.0852035 5.0645885 -0.10077984
1.1268688 5.1016912 -0.10133781
-2.5928421 -7.859354 0.19174096
-2.5236042 -7.8549705 0.19091541
-2.4314585 -7.8253269 0.18907094
-2.330399 -7.7897539 0.18697783
-2.2406554 -7.7531896 0.18498331
-2.1507511 -7.7165442 0.18301043
-2.0543666 -7.6812801 0.18105432
-1.9596455 -7.6460843 0.17914402
-1.8934247 -7.6205049 0.17779353
-2.6310477 -7.7820601 0.18963534
-1.845983 -7.6009536 0.17679605
-1.7728268 -7.5743027 0.1753878
-1.6727643 -7.5383511 0.1735079
-1.6058072 -7.4633555 0.1705988
-2.6560979 -7.6848774 0.18676433
-1.5806949 -7.3349524 0.16622585
-1.527 -7.3121991 0.16513482
-1.4336458 -7.2795486 0.16348931
-1.3467181 -7.2475076 0.1619333
-1.2920344 -7.2292018 0.1610288
-2.6900501 -7.6011896 0.18442968
-1.3321116 -7.2390561 0.16157258
-1.2492721 -7.2115808 0.16022334
-1.1510054 -7.1619701 0.15809935
-1.0705923 -7.1243811 0.15649056
-0.97456765 -7.0918465 0.15500966
-0.87964439 -7.0546727 0.15341982
-0.78652483 -7.0169249 0.15185642
-0.69404948 -6.982583 0.15044495
-0.60221738 -6.9493232 0.14910886
-0.50338203 -6.9142098 0.14773658
-0.40631974 -6.8713856 0.1461595
-0.31708091 -6.8399582 0.1450083
-0.22830057 -6.8066359 0.14383337
-0.121104 -6.7679296 0.14251459
-0.073981643 -6.7531924 0.14202449
-2.739011 -7.5017071 0.18176046
-0.16222155 -6.7767129 0.14281631
-0.030987978 -6.7322259 0.14134592
0.055865169 -6.6999707 0.14032829
0.14956462 -6.6648183 0.13925901
0.2434684 -6.6311703 0.13828278
0.33532846 -6.5922132 0.13717586
0.43406808 -6.5520725 0.13609067
0.52603912 -6.5167174 0.13518804
0.61915863 -6.4846096 0.13443491
0.71136487 -6.449698 0.13363269
0.80375803 -6.4136939 0.1328412
0.89824188 -6.384129 0.13230044
0.99050653 -6.3480577 0.1315929
1.0890101 -6.3074012 0.1308189
1.1815001 -6.2714291 0.13020408
1.306528 -6.2476606 0.13019148
1.3778316 -6.2180514 0.12973252
1.4639155 -6.1842732 0.12927032
1.53574 -6.1581893 0.12897423
-2.7743187 -7.4300375 0.17984962
1.2413577 -6.2381554 0.12952536
1.5770205 -6.1410866 0.12875348
1.6544 -6.1117253 0.1284416
1.7506777 -6.0752583 0.12809554
1.847036 -6.0375624 0.12775716
1.9376646 -6.0038218 0.12752873
2.0278902 -5.9675627 0.12726253
2.1196361 -5.932282 0.12707579
2.2135081 -5.898766 0.12699631
2.3064113 -5.8618016 0.12684971
2.4013081 -5.8266673 0.12681159
2.4965329 -5.7886562 0.12673655
2.5952239 -5.7537861 0.12682191
2.6846366 -5.7185078 0.12683374
2.7765956 -5.6845875 0.12694377
2.8592734 -5.6518669 0.12701115
-2.8019133 -7.3324957 0.17703775
2.9087491 -5.629879 0.1270017
2.9673128 -5.6065092 0.12707436
3.0559645 -5.5750675 0.12730929
3.1467819 -5.5453873 0.12764356
3.2454824 -5.5084658 0.12792119
3.3446856 -5.4700093 0.1282002
3.4364285 -5.435225 0.12850878
3.531743 -5.4010968 0.12890854
3.6256523 -5.3641772 0.12925112
3.7147465 -5.3317571 0.12966487
3.8040438 -5.2992611 0.13010475
3.9042482 -5.261404 0.1305936
3.995007 -5.2256274 0.1310274
4.0869303 -5.1897473 0.13150099
4.1844068 -5.1558223 0.13212207
4.2807436 -5.1183515 0.13267279
4.3575788 -5.0887985 0.13313621
-2.8998342 -7.2091322 0.17422479
-2.8629296 -7.2015939 0.17355612
4.3998675 -5.0709605 0.13336387
4.470006 -5.0486994 0.13391349
4.5603299 -5.0136285 0.13449776
4.6534557 -4.9789567 0.13515359
4.7492781 -4.9438314 0.13586161
4.8443336 -4.9072285 0.13654757
4.9410772 -4.868794 0.13724256
5.0263252 -4.8347635 0.13786912
5.119144 -4.8037248 0.13869286
5.2216001 -4.7639556 0.13950992
-2.8830707 -7.1515222 0.17219737
-2.9152184 -7.0303321 0.16872758
-2.9697592 -6.9555969 0.16701955
-2.9375443 -6.9915881 0.16776681
-3.001255 -6.8460531 0.16394868
-2.9862866 -6.6812677 0.15856713
-2.9655323 -6.4889679 0.15225485
-2.9874563 -6.4381742 0.1509442
-3.0495472 -6.3264208 0.14826694
-3.0200973 -6.35566 0.14878857
-3.0587754 -6.2688861 0.14659801
-3.0523458 -6.2564149 0.1461221
-3.0993471 -6.159133 0.1437431
-3.1390271 -6.067564 0.14146483
-3.1703677 -5.9809685 0.13924515
-3.2075443 -5.8793674 0.13667193
-3.2196145 -5.7930775 0.13421425
-3.1629124 -5.6472645 0.12891775
-3.1455312 -5.53654 0.12528592
-3.173985 -5.451055 0.12313182
-3.2091308 -5.3556385 0.12080628
-3.2489014 -5.2466745 0.21800119
-3.8259063 -5.2934699 0.12954634
-3.6448398 -5.227581 0.124382
-3.2920828 -5.1507101 0.21442261
-3.2706747 -5.198175 0.21618065
-3.8568153 -5.279304 0.12971047
-3.6409779 -5.2001276 0.12352694
-3.5499573 -5.1774249 0.12125168
-3.4260712 -5.1347728 0.2175492
-3.3328209 -5.100677 0.21312156
-3.5509953 -5.0659447 0.21800405
-3.4978113 -4.9359431 0.21009204
3.754128 -2.7177677 0.078239419
3.8155708 -2.6870115 0.07887245
3.7840199 -2.6045051 0.077099286
3.7015023 -2.5205023 0.074416064
2.8916736 -2.671819 0.16062412
3.0130696 -2.6372488 0.097232662
3.098382 -2.59938 0.064830594
3.5967951 -2.457449 0.07164681
3.6840072 -2.4230533 0.072737761
3.556601 -2.3293493 0.069163121
3.6456456 -2.3104811 0.070522852
-3.7814431 -4.4664388 0.19793645
3.6411405 -2.2375851 0.069481984
4.762712 -1.6419153 0.083219491
-4.3877406 -4.3379631 0.21565801
-4.4429193 -4.2210422 0.21326372
-4.4583287 -4.1717882 0.21198636
-4.4835186 -4.0662489 0.20900247
-4.4534478 -4.0594039 0.20747527
-3.9006524 -3.8675923 0.17724434
2.5062313 -1.8933672 0.1305638
2.5210052 -1.9064376 0.13136339
-4.5334282 -3.9770041 0.20778042
-3.9188662 -3.8428206 0.17700115
2.5072083 -1.8831533 0.13046092
2.5394354 -1.8709124 0.13163167
3.1594839 -1.6831708 0.054179557
3.183877 -1.6711073 0.054502808
-4.5655723 -3.8818674 0.20569381
0.43818796 -2.3197334 0.11784662
0.48095763 -2.3060706 0.1319578
0.57986081 -2.2700121 0.13377407
0.68425727 -2.2386844 0.14472219
0.7718482 -2.2106833 0.15281534
0.86186779 -2.1847575 0.16717637
5.7931013 -0.70126355 0.094268054
-4.6024475 -3.7913389 0.20408192
0.43734276 -2.308233 0.096613638
0.49880481 -2.2885594 0.099437229
0.58822405 -2.2594171 0.10911318
0.67469203 -2.2340608 0.10795573
0.78196013 -2.201606 0.11340377
0.8764807 -2.1694455 0.10912526
0.9341234 -2.1464481 0.095894195
-4.6372185 -3.7004361 0.20246798
5.7259264 -0.58734512 0.092290923
-4.6718583 -3.6040034 0.20076916
-4.7063332 -3.5081635 0.19919562
2.3225827 -1.3663034 0.11722425
-4.7431998 -3.4143701 0.19791469
3.4111972 -0.94447291 0.052548803
4.5088315 -0.55558497 0.070060559
-4.7802591 -3.3213434 0.19677922
4.4769192 -0.53581655 0.069374897
5.5796041 -0.14660549 0.087153137
-4.8325214 -3.1848788 0.19521955
-4.8126683 -3.2331114 0.19568032
-4.8544726 -3.1303973 0.19472224
-4.8337402 -3.1723287 0.19491851
-4.8754015 -3.0697112 0.19404048
-4.4306555 -2.8593369 0.16694862
-4.7877436 -2.9166584 0.18571702
-4.5538254 -2.8067522 0.17151088
-4.5071607 -2.7890453 0.16878584
-4.3337083 -2.7676964 0.15982264
-4.3088784 -2.7832119 0.15903646
-4.7103901 -2.7831979 0.17854264
-4.7169909 -2.728533 0.17751089
-4.4240961 -2.5830183 0.15960279
-4.4593735 -2.4948421 0.15930703
-4.5043063 -2.4031932 0.15953565
-4.5851564 -2.2957582 0.16139406
-4.5411539 -2.3330214 0.15992451
-4.6120462 -2.2306442 0.16150391
-4.6041741 -2.1769698 0.16011146
-5.0738606 -2.2282648 0.18486336
-4.9556451 -2.1911139 0.17820483
-4.6098742 -2.1680367 0.16023952
-5.1938171 -2.1767809 0.19007289
-5.1111159 -2.1878638 0.18605274
-4.9793572 -2.1254246 0.17829376
-4.9438868 -2.0933859 0.17595097
-5.2567053 -2.0842166 0.19177002
-5.2758012 -2.0195858 0.19175366
-4.9297476 -1.9133329 0.17247513
-5.0937471 -1.8247166 0.17968366
-4.9565134 -1.8381643 0.17281383
-4.7194843 -1.7104666 0.15902731
6.4543772 1.6702799 0.097539142
-5.3712192 -1.7907414 0.19350952
-5.2117863 -1.7627813 0.18496981
-4.7382188 -1.6592069 0.15940168
6.4071622 1.7550074 0.096720986
-4.9506364 -1.5889277 0.16958269
-4.8794169 -1.6259115 0.16630176
6.3725233 1.843129 0.096134365
-4.9754128 -1.5058922 0.17005357
6.3113952 1.9332093 0.095144019
-5.4798741 -1.5526673 0.095062874
-5.0045457 -1.4051198 0.17068565
6.2607107 2.0277534 0.094355039
-5.5170674 -1.4577286 0.095211498
-5.0363569 -1.3083116 0.17160165
-0.90351766 -0.052903891 0.078613192
-0.87954819 -0.021460176 0.10140093
6.2240295 2.1165152 0.09381859
-5.5517282 -1.3616402 0.095325224
-5.0670509 -1.2150972 0.17258951
-0.91398215 0.069655776 0.070596322
-0.86646438 0.081373572 0.09064018
-0.8168813 0.10941768 0.073651426
6.1646972 2.231771 0.092974514
6.184587 2.2092743 0.093268663
-5.5896997 -1.269771 0.095614046
-5.0957494 -1.1204066 0.17356521
-0.9206112 0.12506032 0.073862962
1.8209881 0.95909894 0.11615262
1.8887085 1.01011 0.11928556
6.1266217 2.3067093 0.092461579
-5.6245914 -1.1762819 0.095845878
-5.1251459 -1.0240768 0.17466825
1.8293887 1.0856687 0.11904181
5.8188057 2.3272724 0.087693468
6.0063353 2.3889475 0.090697445
6.1125379 2.3946314 0.092357829
-5.6581144 -1.0816449 0.096073322
-5.1572576 -0.92469174 0.17599967
1.7096213 1.1153682 0.11612082
1.7899829 1.1756624 0.11981156
5.4636521 2.2688332 0.082126074
5.7902889 2.3782597 0.087341301
-5.6953368 -0.99132407 0.096475087
-5.1882248 -0.8296631 0.17737901
5.5302377 2.4498 0.083523661
-5.7312722 -0.89876115 0.096864559
-5.2150769 -0.73990911 0.17864284
5.6146894 2.540338 0.0850076
-5.7724752 -0.79752105 0.097384013
-5.7335801 -0.79565758 0.09629605
-5.2380347 -0.68612349 0.1797809
-5.1468749 -0.58358091 0.17524904
1.7745205 1.527531 0.12749901
1.77695 1.547289 0.12804279
-5.8116302 -0.67952657 0.097801082
-5.7707233 -0.72106516 0.096896112
-5.1608701 -0.54945564 0.17599809
1.5070668 1.517516 0.12015054
1.6487459 1.535482 0.12430368
1.7419153 1.574174 0.12775186
5.8695669 2.8484397 0.089600429
-5.8382549 -0.6113863 0.098180197
1.4626869 1.6037582 0.12125478
4.3642488 2.5132985 0.066787995
4.4252148 2.4984946 0.067575678
5.5699444 2.8667417 0.085243851
5.8231292 2.9172869 0.089105226
-5.8732548 -0.5190562 0.098692276
0.55563855 1.47236 0.097707935
4.3136969 2.5762267 0.066357963
5.5174155 2.9584823 0.084778599
5.5301571 2.9662848 0.084990196
-5.8975849 -0.45620382 0.099072434
-3.4540401 0.36083877 0.10560528
-3.3624296 0.36779106 0.10203929
0.5081979 1.5422968 0.099050932
0.53902113 1.5038365 0.098386429
1.6114808 1.9121455 0.029616587
4.3219476 2.6554956 0.066821329
5.5064383 3.0622702 0.084983215
-5.9575758 -0.30884218 0.10010494
-5.8649874 -0.35445964 0.097751379
-3.6200871 0.35126853 0.11228321
-3.5696239 0.36114228 0.11036979
-3.5062222 0.35879314 0.10770068
-3.3440709 0.45382082 0.10314327
0.43865299 1.6075419 0.099963538
1.6097554 1.9827479 0.030207589
5.4766622 3.1571417 0.084911756
-5.9778109 -0.24430156 0.10041813
-3.3475294 0.56426251 0.10572765
-1.8087273 1.0616606 0.10802446
1.5709628 2.0609841 0.030533031
-6.0141611 -0.15144515 0.10108951
-3.3476043 0.65777743 0.10788069
-1.8706247 1.1340548 0.096524388
-1.8355656 1.0940467 0.10384274
-1.383505 1.2664126 0.078934588
-1.3252035 1.2568179 0.078108326
-1.2577214 1.2995917 0.07920035
1.5374879 2.1476893 0.031014428
-6.0501795 -0.055930614 0.10177401
-3.3519063 0.73349583 0.10982921
-1.9030589 1.2144395 0.11704115
-1.4195204 1.3789359 0.083400205
-1.4161936 1.4080242 0.08444006
-1.2353328 1.3667535 0.081539989
-1.134066 1.4198903 0.082962312
-1.0940483 1.4736692 0.084783234
1.4979683 2.2415204 0.031542789
-6.086894 0.041644216 0.10250086
-1.946702 1.2932609 0.087315284
-1.4711921 1.4789344 0.087564975
-1.1511115 1.5418621 0.087556027
-1.0570465 1.5484289 0.087410934
-1.0286462 1.5799264 0.088484995
1.4603659 2.3408971 0.032176584
5.3287182 3.5333729 0.08447548
-6.1219077 0.13244331 0.10322735
-2.9149706 1.1136771 0.10508844
-2.8463945 1.1249782 0.1033506
-2.7567134 1.1547805 0.10162244
-2.6684949 1.2110354 0.10088197
-2.5978813 1.2530245 0.10030652
-1.4772866 1.5365449 0.089742757
-1.1644989 1.6587487 0.091947988
1.4219257 2.4313874 0.032753944
5.3004217 3.6179991 0.08450307
-6.1560063 0.22502637 0.10395087
-2.9569526 1.1517206 0.10748798
-2.5559535 1.2811011 0.10011355
-2.520895 1.3031715 0.099936984
0.66295135 2.3112254 0.12617889
1.3842112 2.5264482 0.033415407
-6.1533456 0.30665743 0.10373843
-5.580162 0.50853908 0.08852192
-3.076844 1.278071 0.11486603
0.62443697 2.3850827 0.060667627
1.3286315 2.6646986 0.034429036
1.3512098 2.6190739 0.034117714
3.8900824 3.3900685 0.065447174
3.9182034 3.4470773 0.066156097
4.0801778 3.4450235 0.068062291
4.1360688 3.4252791 0.068608604
-6.2257881 0.41712797 0.105506
-5.6037712 0.55965674 0.089142896
-3.118525 1.3197521 0.11736891
0.65325153 2.5644097 0.029418953
1.3479596 2.7229319 0.035168692
3.9285479 3.5152617 0.06673523
4.07024 3.5059876 0.068336867
-6.2620215 0.5070399 0.10636298
-1.553188 1.9604903 0.1060674
0.50937319 2.5722113 0.028909769
0.5720135 2.5557923 0.028965965
-6.3035297 0.6115762 0.10736955
-6.2789531 0.55855858 0.10676212
-1.5924156 2.0732312 0.11060857
-6.333209 0.69521248 0.10810194
-1.6505966 2.108006 0.11251221
-1.6216229 2.0920515 0.1116093
1.4107214 3.0418735 0.038949504
1.4677044 3.0659566 0.039580025
-6.3705215 0.7927407 0.10904878
0.4824332 2.9282656 0.033107959
0.4869256 2.9404411 0.033270992
-6.4555864 1.0170354 0.1112876
-6.4772635 1.0752634 0.11187733
-6.513597 1.1705016 0.11287858
-6.5488 1.2583021 0.11386076
-6.5746784 1.3513972 0.11462937
-6.5365791 1.4019073 0.11373693
-6.000268 1.5737854 0.10081144
-3.9856777 2.1503735 0.059766956
-6.493782 1.4379979 0.11271896
-6.4078116 1.4819514 0.11064612
-6.3140941 1.5274247 0.1084098
-6.2233634 1.5823687 0.10630118
-6.0011754 1.6055638 0.10092824
-6.2193027 1.6634806 0.10641658
-6.2316537 1.7866093 0.10708032
-6.3158536 1.8623861 0.10935882
-6.3759737 1.9453784 0.11108021
-6.4181395 2.0402913 0.11241453
-0.63162243 3.796186 0.044171982
-0.54427439 3.8119383 0.044174045
0.33913779 4.1136374 0.047694474
-6.4446115 2.1043391 0.11327329
-0.6943835 3.875566 0.045414694
-6.5093489 2.2056661 0.11518895
-6.427762 2.2282104 0.11333219
-6.3360243 2.2551832 0.11127087
-6.2393179 2.2869229 0.10913352
-0.72786456 3.9672194 0.046753831
-0.75340164 4.063355 0.048135333
-5.1976924 2.7742662 0.088923253
-5.1429033 2.8155923 0.088102065
-5.0571566 2.8736105 0.086797111
-4.9629049 2.9077754 0.085174479
-4.866087 2.9505467 0.083606817
-4.7738848 2.9846444 0.08209531
-4.7078886 2.9819508 0.080799423
-2.7072341 3.5718088 0.055943251
-2.3763826 3.6853023 0.053802684
-0.77985096 4.1473384 0.049359448
-4.7260456 3.0312467 0.081574045
-0.81491381 4.2637091 0.05105675
-4.8253655 3.1870885 0.084827445
-2.5021689 3.8341856 0.057026498
0.55333185 4.7754154 0.056423888
-4.836607 3.2289772 0.085407712
-1.1853138 4.3273292 0.053489171
-1.1592351 4.3634148 0.053851955
0.42060065 4.8715391 0.057534404
0.49057639 4.8291998 0.057045989
0.62217343 4.8816719 0.057870902
0.70090115 4.9128122 0.058382653
0.79314911 4.9482765 0.058988638
0.88757265 4.9889197 0.059685238
0.9836098 5.0275822 0.06038148
1.0743603 5.0792131 0.061245576
1.1691145 5.1029291 0.061794542
1.2382532 5.1175418 0.062174119
1.8430954 5.322516 0.066890486
-0.8118397 4.6140618 0.055799112
0.4146471 4.9203339 0.058162011
1.364869 5.1882777 0.063435651
1.4426013 5.2192082 0.064074136
1.8354884 5.3890219 0.067634396
-2.4232261 -7.8180428 0.33888218
-2.3176682 -7.7750587 0.33504722
-2.2389758 -7.7462044 0.33240962
-2.1497331 -7.7132492 0.32945335
-2.053683 -7.6800065 0.32645217
-1.9587028 -7.6428819 0.32330695
-1.9032555 -7.6258793 0.32175744
-2.6858008 -7.7652516 0.33992353
-1.8545015 -7.6025343 0.31994644
-1.771847 -7.5699978 0.31730559
-1.6715962 -7.5314374 0.31421742
-1.6076624 -7.4950113 0.31161723
-1.5802763 -7.3368807 0.30251133
-1.5259125 -7.3041916 0.30023873
-1.4669336 -7.2811804 0.29849324
-1.3460724 -7.2462201 0.29569414
-1.4233313 -7.2624216 0.29712394
-1.3512141 -7.2413788 0.29545501
-1.257037 -7.2060008 0.29288957
-1.1503663 -7.1486273 0.28909728
-1.0700923 -7.1142392 0.28680262
-0.97441429 -7.0757527 0.28427765
-0.87968338 -7.0399542 0.28198496
-0.78661704 -7.004909 0.27981627
-0.69441563 -6.9696145 0.27771142
-0.60274398 -6.9370637 0.27583742
-0.51188821 -6.9016113 0.27387738
-0.41503173 -6.8606696 0.27169806
-0.34823477 -6.835238 0.27039871
-0.30424428 -6.8172503 0.26950073
-0.23046637 -6.7896614 0.26818019
-0.1342907 -6.758812 0.26681986
-0.04027164 -6.7218213 0.26519579
0.053007841 -6.6840115 0.26361176
0.14656174 -6.6494446 0.26229271
0.23916042 -6.6120696 0.26090252
0.33170378 -6.5766869 0.25970477
0.42966723 -6.5351028 0.25831026
0.52143562 -6.5001197 0.25730643
0.61369503 -6.4664969 0.25646859
0.7067802 -6.4348612 0.25582996
0.79881692 -6.3987408 0.25502908
0.89817679 -6.3617516 0.25436637
0.99149621 -6.3292618 0.25395134
1.0548898 -6.303781 0.2535398
1.3025857 -6.237751 0.25404504
1.3740021 -6.2086396 0.25378498
1.4500889 -6.1842752 0.2538974
1.1030842 -6.2813568 0.25309911
1.1737233 -6.2532396 0.25274369
1.2419616 -6.2369843 0.253003
1.4733735 -6.1719694 0.2536976
1.5555459 -6.1397653 0.25360763
1.6511565 -6.104229 0.25367802
1.7467681 -6.066978 0.25375411
1.8437194 -6.0304623 0.25397941
1.9351896 -5.9981351 0.25437576
2.024735 -5.9611077 0.25458091
2.1167908 -5.9263959 0.25502908
2.2105746 -5.8929119 0.25565156
2.3037987 -5.8565083 0.2562021
2.3983951 -5.8211508 0.25691137
2.4928832 -5.7824154 0.25754204
2.5912495 -5.7473407 0.2585153
2.6883812 -5.7084236 0.25936446
2.782516 -5.6769505 0.2605325
2.8605442 -5.6470852 0.26139015
-2.6568599 -7.2595434 0.31172371
2.8852563 -5.6322169 0.2614384
2.9683032 -5.6055341 0.26263779
3.0607033 -5.5660534 0.26361927
3.1616721 -5.53404 0.26522741
3.2489657 -5.4983187 0.26634422
3.3417048 -5.4654427 0.26779753
3.4333539 -5.4307036 0.26920089
3.5276899 -5.3958068 0.27073884
3.6211882 -5.3586922 0.27222225
3.7163868 -5.3199549 0.27375638
3.8049769 -5.2867045 0.27534258
3.8947153 -5.2524586 0.27697888
3.9966559 -5.2139878 0.27891159
4.0905442 -5.1787424 0.28075117
4.1564159 -5.1579885 0.28221321
-2.6877072 -7.1804552 0.30792156
-2.7306788 -7.0834923 0.30337742
-2.7657299 -6.9955249 0.2992152
-2.79972 -6.9105306 0.29522401
-2.8374224 -6.8150182 0.29076144
-3.0173166 -6.7933254 0.29314622
-2.9497068 -6.7703857 0.29054916
-2.8726799 -6.7430215 0.28755346
-2.9603667 -6.520278 0.27735803
-2.9923773 -6.430347 0.27323213
-3.0429988 -6.3102183 0.26794326
-3.0242772 -6.3461695 0.26944056
-3.0648594 -6.2461529 0.2650418
-3.0539508 -6.2606807 0.26556352
11.143907 -1.8752736 0.20285049
11.322717 -1.8452923 0.20582983
11.75735 -1.7049484 0.21240786
-3.0993991 -6.1587572 0.26121655
11.767766 -1.6690067 0.21224424
-3.1351061 -6.0596638 0.25684968
-3.1752138 -5.9581075 0.25250837
-3.2088776 -5.8657103 0.24854073
-3.1973076 -5.7472425 0.24212864
-3.1382356 -5.5368347 0.22979566
-3.1704502 -5.4442167 0.22588718
-3.2064862 -5.3506703 0.22208771
-3.2487001 -5.2591386 0.28962663
-3.8169827 -5.2919688 0.23720801
-3.2928395 -5.163631 0.31326374
-3.2713823 -5.2007036 0.31499526
-3.846417 -5.2309394 0.23525748
-3.7423129 -5.232265 0.23198739
-3.6148233 -5.2067561 0.22677797
-3.5435891 -5.1789637 0.22324714
-3.4479275 -5.1488743 0.27854168
-3.3394842 -5.111352 0.31153581
-4.0559502 -5.1572618 0.23877668
-3.9678535 -5.1682367 0.23631334
-3.882792 -5.1683912 0.23349673
-3.5158648 -5.0140796 0.31243014
-4.1016898 -5.081275 0.23687613
-3.9926391 -5.105988 0.23426652
-3.5043864 -4.9451814 0.30728272
3.7925568 -2.6653757 0.1968618
3.8137083 -2.7155414 0.19873241
-4.142962 -5.0077682 0.23499644
3.7602482 -2.598124 0.19422248
-4.1698394 -4.9239421 0.23220885
-3.8914652 -4.8603878 0.21953771
3.7480693 -2.5436664 0.19267717
-4.2166739 -4.8627377 0.23119485
-4.2129984 -4.8131714 0.22889319
2.9133902 -2.6898167 0.26027212
3.0036197 -2.6432409 0.1843757
3.0895896 -2.5960879 0.16695869
3.5911164 -2.4544988 0.18458939
3.6811199 -2.4072435 0.18742242
-4.2458892 -4.7238321 0.22623429
-3.9374185 -4.6488566 0.30900455
3.5362186 -2.3247671 0.18001306
3.6217184 -2.2971509 0.1830613
-4.2885718 -4.6220741 0.22349939
-4.2756124 -4.6508427 0.22422567
-3.8583636 -4.5268831 0.29740468
-3.7931271 -4.470294 0.29054615
3.6276913 -2.2412596 0.18237725
3.6922145 -2.1931975 0.18426821
3.7911906 -2.1564357 0.1877923
3.8924208 -2.1165128 0.19138381
3.9598446 -2.0950768 0.19386449
-4.315556 -4.5421906 0.22117835
4.185688 -1.9795686 0.20163217
-4.3507838 -4.4457517 0.21856508
3.9124799 -1.8824263 0.1889751
-4.3822117 -4.3693714 0.21670181
3.8867068 -1.8297046 0.18724197
10.552991 0.18135893 0.17503205
10.549509 0.21841049 0.17473924
-4.4488134 -4.2252808 0.31284705
3.8500543 -1.7412758 0.18465927
10.555631 0.28834832 0.17442438
-4.4685392 -4.1793418 0.31156409
3.8113103 -1.6459279 0.1819869
10.560512 0.4107492 0.17378926
-4.4920602 -4.0721192 0.30734619
-4.4485168 -4.0550694 0.30381522
-4.0108676 -3.8978596 0.26935476
-3.9224796 -3.872015 0.26277277
2.5116324 -1.8930254 0.21646735
2.5389624 -1.9001769 0.21835729
3.8114667 -1.5745747 0.18125606
3.9171257 -1.5239319 0.18518126
4.0130782 -1.5227902 0.18917876
-4.5387135 -3.9801879 0.30548486
2.5165844 -1.8831693 0.21662775
3.5881643 -1.4841429 0.17106211
3.8858671 -1.4216985 0.18295226
3.9362907 -1.3996582 0.1848726
10.560539 0.6193043 0.17262048
-4.5750847 -3.8877807 0.30313322
0.49740696 -2.3140635 0.20499438
0.59073043 -2.2853792 0.21722549
0.68944395 -2.2545645 0.22571367
0.78244555 -2.2256784 0.23617473
0.87043655 -2.1944897 0.22501308
0.93282139 -2.161654 0.17229137
3.6542063 -1.3923337 0.17302841
4.6883192 -1.0725719 0.21393442
10.678679 0.76726687 0.17396227
-4.611095 -3.7963595 0.3009637
4.6288943 -0.94175977 0.21075943
10.664999 0.83316243 0.17337966
-4.6477871 -3.6994276 0.29874066
4.6252203 -0.92583418 0.21053094
10.621964 0.98633087 0.17186031
-4.6842337 -3.6036787 0.29672742
2.3743329 -1.4616714 0.20224243
2.3929863 -1.4507202 0.20337245
10.602345 1.0530056 0.17119831
-4.719605 -3.5148518 0.29512039
2.3227806 -1.3620783 0.19818598
2.3430948 -1.3310523 0.19932437
10.586808 1.1044096 0.17068657
-4.7535958 -3.4191384 0.29328743
3.3907957 -0.95101124 0.15943876
4.4871411 -0.55818254 0.20365867
10.424812 1.2446755 0.16719684
10.594962 1.2293035 0.17028251
-4.7919264 -3.3198276 0.29177195
-4.7738338 -3.3634486 0.29232296
4.472403 -0.5435515 0.20303029
10.398224 1.3058776 0.16647413
-4.8241625 -3.2313232 0.29045933
10.358588 1.4035753 0.16538635
-4.8617549 -3.1392024 0.289529
10.30911 1.4984039 0.16415709
-4.8860521 -3.073374 0.28878704
10.272813 1.5757345 0.16324115
-4.6349092 -2.8359168 0.2628631
-4.5358353 -2.8105116 0.25502449
-4.4992628 -2.8188155 0.25274169
-4.3260264 -2.7875359 0.23951188
-4.3130269 -2.8005066 0.23906213
10.249324 1.6421171 0.16260067
-4.7229118 -2.7811298 0.26726148
10.245505 1.7291282 0.16224715
-4.7612467 -2.6955895 0.26727194
-4.9155636 -2.6016166 0.27554801
-4.8399525 -2.609725 0.2703307
-4.7836232 -2.6279142 0.26681498
-4.8869619 -2.5243974 0.27131912
-4.9228764 -2.4292662 0.27140012
-5.1193666 -2.3315315 0.28337839
-4.9921789 -2.3166265 0.27369106
-4.9672823 -2.3527999 0.27273241
-5.1860223 -2.289618 0.28732643
-4.7590222 -2.1350107 0.25247166
-4.7291613 -2.1137304 0.24982071
-5.2154455 -2.2405682 0.28840995
-4.6908808 -2.0605643 0.24591571
-5.2718434 -2.0670798 0.2891081
-5.298934 -2.0110824 0.29011601
-5.2808552 -2.0433362 0.28934205
-5.3166008 -1.9567649 0.29049659
-5.2777948 -1.9042928 0.28675851
-4.9754663 -1.7724283 0.26224142
-4.8806629 -1.8144195 0.25576875
-4.7349176 -1.7155102 0.2435101
-5.3581548 -1.819284 0.29146901
-5.2716026 -1.8131111 0.28492215
-4.7519031 -1.658869 0.24407101
-4.9520531 -1.5880949 0.25824064
-4.8699703 -1.6248707 0.25250021
-4.9824443 -1.5049603 0.25970465
-5.0091653 -1.4097115 0.26092404
-5.042767 -1.3183506 0.26284191
-5.0774045 -1.2189819 0.26494944
-5.1027417 -1.1245182 0.26653594
1.8663348 1.0202855 0.21088886
-5.131916 -1.033906 0.26856163
1.8488773 1.0581247 0.21140021
-5.161541 -0.93504989 0.27075452
-5.1911683 -0.83419657 0.27310261
-5.224772 -0.73696887 0.27587843
-5.2867098 -0.67490768 0.28068385
-5.1649365 -0.57822442 0.27232954
1.7763849 1.5385369 0.22666657
-5.2430763 -0.55376953 0.27819261
-5.1688714 -0.55202776 0.27279443
1.7562121 1.599244 0.22831336
-5.5804911 -0.53446138 0.19709128
-5.3583484 -0.47452557 0.18601561
-5.8484168 -0.53117049 0.21059135
-5.8374252 -0.51811898 0.21004009
-5.4304962 -0.39669335 0.18978915
0.60272932 1.5035301 0.18126258
-5.4462218 -0.29853868 0.19085184
-3.4312215 0.35991836 0.17376718
-3.3654971 0.36573637 0.17014971
0.56585097 1.5527042 0.18269676
1.615311 1.886592 0.13250461
-5.4632912 -0.21907306 0.19198751
-3.3494363 0.44817066 0.17225167
0.45681 1.6432492 0.18437827
0.52178633 1.6110553 0.1844573
1.601041 1.9615771 0.13417557
-5.636611 -0.0876683 0.20111257
-5.4250464 -0.059946895 0.19087902
-3.3681822 0.55417883 0.17730895
-3.3592978 0.6011759 0.17863509
-1.812676 1.0635799 0.20212978
1.5609614 2.0587335 0.1358847
-5.4402995 0.035161853 0.1921972
-3.34934 0.65422451 0.18018156
1.5241102 2.1521511 0.13764518
-5.9901853 -0.080727696 0.21859419
-5.4414568 0.094118118 0.19264555
-3.3603196 0.73015153 0.18381849
-1.8721385 1.2149407 0.21601191
-1.4434645 1.401693 0.22223997
-1.3577256 1.4089907 0.16815382
-1.2999451 1.4073137 0.15214381
-1.1486282 1.424064 0.15215832
-1.1250488 1.4703997 0.15484288
1.4836558 2.2448401 0.13938132
-6.048543 0.014612079 0.22187325
-6.0207076 0.099858522 0.22091946
-5.5419703 0.23455977 0.19853669
-2.7942944 1.0685726 0.22938997
-2.7371123 1.1034373 0.24324137
-1.9138353 1.3234698 0.22594658
-1.5398395 1.4333287 0.20879635
-1.4789186 1.414075 0.1827071
-1.3849279 1.440595 0.19799712
-1.3358438 1.5116547 0.23007655
1.4456969 2.3439326 0.14142981
-6.0779614 0.16715288 0.22409001
-5.7174277 0.28279006 0.20735335
-5.543541 0.292413 0.19908306
-2.8113754 1.107047 0.17450839
-2.7439442 1.1315261 0.19424736
-2.6583152 1.1852626 0.20845768
-2.5686803 1.2280155 0.20730278
-2.5035524 1.2591902 0.21381557
-1.9598916 1.4061977 0.16263446
-1.1876446 1.6606036 0.16661853
1.4095615 2.4373708 0.14342403
-5.578577 0.40154541 0.20170531
-2.969996 1.2065436 0.18617818
-2.0040369 1.4995917 0.16906586
1.3628956 2.5451274 0.14570424
1.3839432 2.4991217 0.14474022
-5.5784659 0.49376285 0.2025733
0.62144887 2.3832197 0.12792376
1.3285164 2.6223769 0.1473797
-5.64606 0.60435927 0.20687619
-1.3023659 1.9503208 0.18485186
-5.6792355 0.69278395 0.20937791
-1.294048 2.0166078 0.18877879
-1.2698531 2.0464478 0.1903981
-5.7113652 0.78370178 0.21189719
-1.2404438 2.1112256 0.19409809
-5.7470245 0.87758791 0.21465659
0.58754444 2.7822852 0.14074394
5.587244 4.3442578 0.092060573
-5.7886686 0.98537815 0.21790293
-5.7755904 0.96751869 0.21707961
0.50941098 2.9004936 0.14380565
0.56651354 2.8989534 0.14442956
5.5170383 4.3681312 0.091311663
-5.8351817 1.0993811 0.22150442
-5.7964125 1.0431451 0.21900016
-5.8551736 1.1659759 0.22330898
-5.8815708 1.2627171 0.22584239
-5.9152355 1.3491119 0.22859117
-5.9423847 1.4322442 0.23102918
5.2289624 4.8827624 0.091100849
-5.9763832 1.541037 0.23419169
-3.8690085 2.2208071 0.16684276
-3.847259 2.2372417 0.16661075
5.2086453 4.9365273 0.091239445
-6.0351682 1.6402384 0.23833013
-3.8186216 2.2664886 0.16653287
-6.2903252 1.8268658 0.25249112
-0.64014804 3.7835264 0.16918698
-0.53633112 3.807395 0.17006853
-0.47010362 3.8323407 0.17103049
0.33704126 4.1045423 0.18418795
0.4136703 4.1259222 0.18550658
0.50541711 4.1669507 0.18767363
0.58873343 4.2068768 0.1897755
-0.70115936 3.880651 0.17280114
0.6782037 4.2868457 0.19336513
0.72776103 4.324264 0.19512635
-6.325418 2.2379241 0.26096249
-6.2351446 2.2742796 0.25780085
-0.72775024 3.9619737 0.17582837
-5.1433225 2.7752891 0.22544032
-0.76052475 4.0692382 0.17983195
-5.1950874 2.7735319 0.22729138
-5.1211762 2.8261118 0.22589302
-5.0376034 2.8414474 0.2232686
-4.955277 2.8968906 0.22176331
-4.8696876 2.9434748 0.21998569
-4.7379675 2.9541564 0.21575236
-4.7006297 2.9748397 0.21504703
-2.8377898 3.525157 0.18187106
-2.7504063 3.5310903 0.18039784
-2.6702137 3.5585103 0.17987093
-2.3603153 3.6543789 0.17806661
-2.3211141 3.6888032 0.17870164
-0.78600705 4.1664329 0.18346226
0.37330151 4.5457153 0.20011541
-4.7335458 3.0429883 0.21799856
0.42906547 4.6698332 0.20489562
-4.7630301 3.1503744 0.22190744
0.35948777 4.6912341 0.20521262
-4.7819347 3.2202454 0.22444859
-4.7815323 3.3492851 0.2280049
-4.7230701 3.3737602 0.22678831
-4.3721175 3.4474063 0.21795529
-0.84456277 4.6581864 0.20175338
-0.81812668 4.6658239 0.20197147
-0.85941714 4.7349324 0.20462817
-3.8162966 4.1166754 0.22355795
-3.4649734 4.2162356 0.21860468
-3.3915143 4.2498264 0.21812868
-3.3126364 4.2837048 0.21759266
-3.223134 4.3112607 0.21667778
-3.7935877 4.2117057 0.22610649
-3.7003527 4.259501 0.22544491
-3.6171055 4.2742457 0.22399241
-3.5455666 4.2668548 0.22211042
-3.2727356 4.2997866 0.21730733
-3.190732 4.3268771 0.21655744
-3.7657914 4.2675848 0.22726747
-3.7248101 4.2683616 0.22631657
-2.4621477 4.660665 0.21571639
-2.3748202 4.6899157 0.21553493
-2.2787685 4.7263556 0.21556211
-2.1820805 4.7644324 0.21571335
-2.0932758 4.7961135 0.21579954
-2.6096764 -7.8518491 0.34349355
-2.5215142 -7.8463235 0.34186518
-2.7087369 -7.79248 0.34178683
-2.6459556 -7.8057351 0.3415176
-1.3219427 -7.2393818 0.42813131
-1.2650965 -7.2218442 0.42636254
-1.2228711 -7.2016454 0.42449939
-1.149744 -7.1637149 0.42109564
-1.0692774 -7.1257243 0.41772553
-0.9733361 -7.0886178 0.41446355
-0.87834644 -7.0531921 0.41145489
-0.78523231 -7.0151949 0.40836075
-0.69251537 -6.983572 0.40588799
-0.60078114 -6.9490509 0.40329897
-0.51021898 -6.9093242 0.40040985
-0.41290712 -6.8703308 0.39772779
-0.31616467 -6.8355861 0.39550781
-0.22673213 -6.8062449 0.39379361
-0.13543916 -6.7752085 0.39207745
-0.072692156 -6.7512255 0.39075303
-0.10274553 -6.75734 0.39095706
-0.029097795 -6.7330151 0.3897534
0.056975603 -6.6972308 0.38787326
0.15064478 -6.6619706 0.38623458
0.24382985 -6.6257372 0.38464859
0.33742964 -6.5929308 0.383459
0.43662775 -6.5540652 0.38203135
0.52728808 -6.5146074 0.3805562
0.61949015 -6.4798517 0.37959713
0.71288073 -6.4482002 0.37902096
0.80589795 -6.4137363 0.37835965
0.90424192 -6.3734622 0.37751719
0.99896419 -6.3434567 0.37749183
1.0910457 -6.3068233 0.3770501
1.1832162 -6.2701416 0.37673375
1.2810189 -6.2503943 0.37791759
1.3730019 -6.2206349 0.37834695
1.4666349 -6.1845584 0.37849444
1.5406297 -6.1571822 0.37878054
1.590561 -6.1370535 0.37890387
1.6570154 -6.1115894 0.37922156
1.7463318 -6.0788631 0.37984726
1.8428162 -6.0408015 0.38046682
1.9401401 -6.0031943 0.38127595
2.031343 -5.9682145 0.38217321
2.1237125 -5.9336371 0.38325474
2.2174234 -5.8997369 0.38454553
2.3099308 -5.8621516 0.3856672
2.4044065 -5.8264027 0.3870993
2.5018082 -5.7908039 0.38877454
2.5983129 -5.7533092 0.3904126
2.6881309 -5.7183642 0.39203769
2.7641006 -5.6920276 0.3936846
4.1952114 -5.1381445 0.28281331
4.2760429 -5.1133084 0.2846809
4.3707466 -5.0728178 0.28650805
4.4610782 -5.0411773 0.28853923
4.5513029 -5.0061755 0.29049206
4.6464715 -4.9728513 0.29271659
4.7417703 -4.9375257 0.29492125
4.8375998 -4.9014726 0.29716295
4.9320612 -4.8618913 0.29928416
5.0333204 -4.8245721 0.30176699
5.1195264 -4.7911801 0.30386338
5.1749043 -4.7724419 0.30531016
-2.7642336 -6.9913359 0.43155634
-2.7980247 -6.905827 0.42585185
-2.8381686 -6.8180399 0.42017952
-3.0131314 -6.7821717 0.42221525
-2.9529994 -6.7805552 0.42041621
-2.8760009 -6.7536883 0.41627914
-2.960506 -6.5211039 0.40101185
-2.9930937 -6.4326425 0.39530578
-3.042676 -6.3304462 0.38913593
-3.0199461 -6.3564715 0.39039236
-3.0691159 -6.2449856 0.38358247
-3.0465946 -6.2784829 0.38537675
-3.1059911 -6.1565452 0.37818566
11.89204 -1.6360983 0.21420556
11.988323 -1.5760249 0.21539122
-3.1396074 -6.069231 0.3728281
-3.1748757 -5.974596 0.36705467
-3.212925 -5.8742719 0.36103311
-3.2079639 -5.7691927 0.35321859
-3.1417828 -5.5440044 0.33455008
-3.1730285 -5.4491692 0.32885998
-3.2084341 -5.3541965 0.3233979
-3.2443771 -5.2641048 0.38490891
4.2514429 -2.9841721 0.35229826
-3.8306079 -5.2995291 0.34568027
-3.61485 -5.2178178 0.33056271
-3.5655932 -5.201508 0.3273077
-3.2935925 -5.1529503 0.41088542
-3.2698379 -5.1964712 0.41357318
6.52634 -2.1385903 0.30123079
-3.8633099 -5.2309265 0.3426328
-3.7257066 -5.2083154 0.33484405
-3.5254598 -5.1856809 0.32449678
-3.4459643 -5.1545506 0.37888432
-3.3427277 -5.1142263 0.41002616
3.8879132 -2.8472624 0.32571909
6.5695834 -2.0966005 0.30248168
-4.0497746 -5.1887598 0.34870967
-3.9707494 -5.1862249 0.34474555
-3.8889031 -5.1444111 0.33814403
-3.4941263 -4.9818954 0.4067736
3.8495827 -2.7842088 0.32161504
12.428299 -0.13742006 0.21132359
-4.1164117 -5.1110325 0.3469992
-3.4986296 -4.9365735 0.40310842
3.8115859 -2.6911454 0.31679773
-4.1539454 -5.010181 0.34252408
3.7604613 -2.5749125 0.31067252
3.7850943 -2.6169114 0.31325915
-4.161438 -4.9285436 0.33781928
3.7291589 -2.5309386 0.30763409
-4.2262931 -4.8221636 0.33466884
-4.2154846 -4.8321548 0.33471259
3.5929532 -2.4434056 0.29692897
3.6657877 -2.4207001 0.30106759
-4.2610526 -4.7204833 0.33039951
-4.240953 -4.7643809 0.33195204
3.5560021 -2.3269324 0.29200026
3.6442356 -2.3078477 0.29726887
-4.2916632 -4.6424437 0.32743761
3.6264215 -2.2330635 0.29460624
3.7172012 -2.1953952 0.29972345
3.7971978 -2.1634238 0.30428481
3.8837771 -2.1294632 0.30926031
3.9381547 -2.1049933 0.31234336
-4.3259115 -4.5427456 0.32351825
-4.3629751 -4.4477925 0.3201713
-4.3942389 -4.3672228 0.31743541
-4.4628344 -4.1663971 0.40947124
-4.4853902 -4.0682764 0.40468913
-4.090344 -3.9328594 0.3646445
-4.0679045 -3.936707 0.36317948
-3.9049149 -3.870615 0.34611884
2.513895 -1.9039943 0.30281934
2.5358043 -1.8843682 0.30438274
-4.5396938 -3.9803133 0.40329343
2.5080748 -1.8815094 0.30188817
2.550643 -1.8529335 0.30512369
2.778903 -1.7926958 0.32425046
2.8419633 -1.756011 0.32925981
2.9358449 -1.7202573 0.33703995
3.0421801 -1.6823726 0.34593156
3.0889039 -1.6347305 0.3494747
3.6112018 -1.482572 0.28289795
3.9191027 -1.3689067 0.3020128
3.9541984 -1.3449541 0.30412436
-4.5765467 -3.8881721 0.40044942
0.52897751 -2.3178718 0.2770775
0.60832357 -2.2945099 0.30151957
0.68944407 -2.2697749 0.31048971
0.77966297 -2.2410011 0.30837983
0.88080251 -2.2026172 0.27040166
4.3306961 -1.1556144 0.32748222
5.7604485 -0.70373636 0.25666961
-4.6107388 -3.7955236 0.3975645
4.4115953 -1.044965 0.33227634
5.7558131 -0.68227947 0.25639263
-4.6463513 -3.6979017 0.3947185
2.3847971 -1.526675 0.28606838
2.4096751 -1.5272033 0.28827563
4.4139957 -0.94711167 0.33214948
-4.6818066 -3.6016226 0.39216605
4.4633231 -0.77585208 0.33512053
5.6898241 -0.47015738 0.25299591
-4.7176218 -3.5130765 0.39030376
2.3200531 -1.3513354 0.27912238
3.1106009 -1.1098557 0.34822726
3.4096155 -0.9936654 0.26731446
4.4918571 -0.73949355 0.33695856
-4.7702169 -3.3803997 0.38779658
-4.7490759 -3.4294441 0.38852406
2.9759393 -1.1052573 0.33638573
3.02986 -1.0755668 0.34113494
3.1059542 -1.047963 0.3478407
3.409708 -0.95388019 0.26728052
4.1528783 -0.67000282 0.31523377
4.2239246 -0.63475519 0.31985343
-4.7924032 -3.3149757 0.386408
-4.7752972 -3.3504405 0.38669708
4.2959819 -0.60599911 0.32453057
4.3838124 -0.57502842 0.33022633
4.4733047 -0.54222763 0.33603606
5.5626006 -0.15912139 0.24736065
-4.8245831 -3.23083 0.38510463
-4.8609014 -3.138124 0.38395569
-4.8804893 -3.0765848 0.38290158
-4.7988658 -3.0186627 0.37284639
-4.5018377 -2.8059421 0.33629498
-4.3363161 -2.7764215 0.31979024
-4.3097634 -2.7928557 0.35827664
15.090723 3.1650057 0.24234197
-4.726449 -2.7759242 0.35585743
-4.5472422 -2.7810831 0.339434
13.015155 2.6603947 0.20768932
-4.7571473 -2.6935575 0.3555032
12.995521 2.7191005 0.20717362
-5.0477982 -2.6321206 0.38064644
-4.9150705 -2.6187081 0.36761355
-4.8004594 -2.6031322 0.35622668
-4.7853761 -2.6277173 0.35569331
12.956642 2.8168302 0.20622113
-5.0769954 -2.5797076 0.38163093
12.91426 2.9178181 0.2052156
-5.112062 -2.4852452 0.38190928
12.881945 2.9926114 0.20446733
-5.1484165 -2.3904147 0.38252583
12.843167 3.0949659 0.20355502
-5.1820359 -2.2941654 0.38307419
-5.220521 -2.1980004 0.38432303
14.832215 3.9338889 0.23585406
15.117407 3.9555426 0.24069723
-5.2682562 -2.0906096 0.38644797
-5.2547626 -2.1087742 0.38554868
14.798063 4.0265718 0.23508197
-5.2942882 -2.0139728 0.38737008
14.765303 4.1166029 0.23435187
-5.3096042 -1.9614108 0.3878215
-5.2704091 -1.9069278 0.38299003
-5.1780667 -1.8828298 0.37351778
-4.7229605 -1.714124 0.32623929
14.733418 4.2085152 0.23364589
-5.3647804 -1.8005188 0.39044365
-5.2999496 -1.8443751 0.38479215
-4.7436886 -1.6578127 0.32751378
14.649753 4.286047 0.23209813
14.608977 4.3727674 0.23127612
-5.4256492 -1.6365993 0.39417899
14.572397 4.4609914 0.23053548
14.530934 4.5520053 0.22972196
14.575656 4.7008295 0.23030385
14.637978 4.6682301 0.23138365
-5.1411109 -1.2362585 0.36334309
14.568391 4.799778 0.23008445
14.632443 4.774426 0.23117909
-5.1761713 -1.1452653 0.36662936
