# .PCD v0.7 - Point Cloud Data file format
VERSION 0.7
FIELDS x y z
SIZE 4 4 4
TYPE F F F
COUNT 1 1 1
WIDTH 1473
HEIGHT 1
VIEWPOINT 0 0 0 1 0 0 0
POINTS 1473
DATA ascii
2.9705703 -0.17867783 -0.36707267
1.9143587 -0.11447778 -1.0994978
2.967212 -0.17244774 -0.29204842
2.0569274 -0.13082755 -1.0992707
2.9660566 -0.16654277 -0.21795155
2.2411394 -0.15273327 -1.1089931
3.5215373 -0.22431421 -0.1409305
2.4270096 -0.17419726 -1.1106008
3.5367036 -0.21920153 -0.052950189
2.6576803 -0.20125303 -1.1179662
3.5279984 -0.21143508 0.033916473
2.9430015 -0.23509184 -1.1318649
2.9740484 -0.14430422 0.079293683
3.049206 -0.24337849 -1.0817237
19.623608 -1.9211168 1.8074584
2.9744031 -0.22687671 -0.98013443
19.632082 -1.8856468 2.2752643
19.603979 -1.8461714 2.7405808
4.6260562 -0.43102783 -1.1667038
20.147106 -1.8642831 3.30849
2.9669795 -0.20763689 -0.74410033
20.247259 -1.8362198 3.816324
2.9743736 -0.20262963 -0.66892743
20.064478 -1.779788 4.2713494
2.974107 -0.19668067 -0.59295535
19.965635 -1.7314332 4.7464023
1.4988461 -0.069066077 -1.0644065
2.9769428 -0.20061222 -0.51667571
1.6615491 -0.090587735 -1.094655
2.9770594 -0.19478655 -0.44159234
1.8102843 -0.10934186 -1.110479
2.9714622 -0.18828478 -0.36647156
1.9082078 -0.11980084 -1.0966173
2.9661229 -0.18181095 -0.29131961
2.0067408 -0.12998518 -1.0783017
2.9709237 -0.17662197 -0.21732689
2.251399 -0.16148734 -1.1127274
2.390697 -0.17669532 -1.09725
2.6322727 -0.20608342 -1.1091634
3.5267119 -0.22249636 0.034777448
2.8756366 -0.23487857 -1.1107423
2.9749336 -0.1539568 0.080178246
3.0404701 -0.25181675 -1.0788292
19.747334 -1.9943233 1.8250359
2.9771616 -0.23670274 -0.980398
19.753513 -1.9584515 2.2956417
19.717175 -1.9178393 2.7627833
2.9740987 -0.22407714 -0.82269746
2.9697986 -0.21745715 -0.74409133
20.109306 -1.8837159 3.795579
2.9713285 -0.21171093 -0.66788876
2.9789183 -0.20678294 -0.59302658
20.167532 -1.8123059 4.8019776
1.4842921 -0.071439296 -1.0566406
2.9758923 -0.20942494 -0.51599085
1.6255108 -0.090025872 -1.0765769
2.9839137 -0.20461631 -0.44160056
1.7952935 -0.1125868 -1.1033125
2.9723916 -0.19734907 -0.36591375
1.9274439 -0.12866005 -1.1049713
2.9749885 -0.19184837 -0.29103857
2.0517657 -0.14302266 -1.0967641
2.9718559 -0.18569604 -0.21667501
2.2690699 -0.17099476 -1.1193476
2.3618944 -0.17965424 -1.0866342
20.262192 -2.2207394 0.44139975
2.5618153 -0.20367709 -1.0853677
2.8765218 -0.24361211 -1.1106676
2.9798191 -0.16351748 0.081320956
3.0336857 -0.25992304 -1.0765212
19.875172 -2.0652263 1.842787
2.9876337 -0.2470797 -0.98267657
19.877081 -2.0287092 2.3160398
2.9774816 -0.23951748 -0.90106302
19.84037 -1.987771 2.7862055
20.141106 -1.982687 3.3189747
2.9726539 -0.22674876 -0.74412453
20.147425 -1.9454167 3.8087647
2.9761569 -0.22127131 -0.66814125
20.237255 -1.9164503 4.3213868
2.9759028 -0.21533421 -0.59207624
1.5151868 -0.081508577 -1.0729171
2.9806612 -0.21956423 -0.51592201
1.653199 -0.099924356 -1.0903057
2.9827664 -0.21400675 -0.44087201
1.8124982 -0.1212509 -1.1112827
2.9811456 -0.20798838 -0.36582124
1.9266881 -0.13484621 -1.1044914
2.9738421 -0.20123157 -0.29031056
2.0509651 -0.14957696 -1.0962555
2.9766622 -0.19582358 -0.21604893
2.2589581 -0.17676938 -1.1152202
20.314386 -2.3258786 -0.034346476
2.3628449 -0.187408 -1.086725
20.310366 -2.2880096 0.44774562
2.6190641 -0.22044596 -1.1041592
20.364687 -2.2573752 0.92959231
2.7183139 -0.2294243 -1.0616442
2.9865873 -0.17389515 0.0826592
3.0249057 -0.26826981 -1.0736362
20.004305 -2.1406 1.861058
2.9922493 -0.25723863 -0.98343086
19.992079 -2.1022873 2.3357837
2.9840639 -0.24992394 -0.90213162
19.966818 -2.062361 2.8105276
2.9699759 -0.24188399 -0.82089132
20.323803 -2.0642059 3.3562398
2.9773641 -0.23687366 -0.74447185
20.311779 -2.0246737 3.8470213
2.9769738 -0.23087621 -0.66772789
20.587313 -2.0155239 4.404613
2.9845843 -0.22599953 -0.59267777
20.327246 -1.948554 4.8536272
1.5111033 -0.085604727 -1.0707046
2.9834979 -0.22891968 -0.51567584
1.6454842 -0.10381854 -1.0863802
2.987586 -0.22363427 -0.44070512
1.7437634 -0.11567092 -1.0788746
2.9800396 -0.21683079 -0.36513633
1.9368204 -0.14241356 -1.108837
2.9786832 -0.21083349 -0.28986603
2.0776219 -0.1600939 -1.1071253
2.9795225 -0.20517856 -0.21543072
2.2451928 -0.18149281 -1.1097034
20.28145 -2.3797009 -0.030091122
2.4252846 -0.20421883 -1.1089618
20.330996 -2.3485789 0.45300108
2.6143389 -0.22762108 -1.1023072
20.367428 -2.3159165 0.93456095
2.934917 -0.27016091 -1.127934
2.9815128 -0.18232906 0.083045885
3.0237949 -0.27714902 -1.0729483
20.123726 -2.2120571 1.8781176
2.9853947 -0.26519558 -0.98127216
20.08951 -2.1709661 2.3531024
2.9926112 -0.26010367 -0.90368789
20.087536 -2.1335146 2.8337579
2.9746993 -0.25147024 -0.82141936
20.457661 -2.1376827 3.3848994
2.9801626 -0.24620843 -0.74450403
20.464581 -2.1000233 3.8827779
2.9797876 -0.24021405 -0.66766804
20.67907 -2.0847342 4.4309134
2.9854443 -0.23509327 -0.59225911
20.277517 -2.0016758 4.8477015
1.5069716 -0.089970767 -1.0684719
2.988205 -0.2391167 -0.51560491
1.6341801 -0.10739043 -1.080668
2.9923053 -0.23384422 -0.44049436
1.7591507 -0.1239906 -1.0860088
2.9887285 -0.22755077 -0.36503994
1.9215499 -0.14625895 -1.1019642
2.9794614 -0.22049192 -0.28921884
2.0712898 -0.16583872 -1.1043444
2.9803009 -0.21484566 -0.21473631
2.2516618 -0.18979418 -1.1120048
2.437336 -0.21392596 -1.1130574
20.303385 -2.4067965 0.45709997
2.5851297 -0.23146498 -1.0922889
20.33585 -2.3738439 0.93799847
2.9280701 -0.27845076 -1.1254814
2.98822 -0.19275904 0.084385782
3.0016339 -0.28340769 -1.0663124
20.256268 -2.2894444 1.8968894
2.9899526 -0.2753821 -0.9820267
20.229609 -2.2489634 2.3761165
2.9971988 -0.27031538 -0.90430504
20.209513 -2.209157 2.8576012
2.9832006 -0.26219738 -0.82270747
2.9828629 -0.25611025 -0.74449342
20.55422 -2.1727505 3.9066479
2.9825029 -0.25011966 -0.66756558
2.9862072 -0.24474519 -0.59179842
20.234924 -2.0589719 4.8439169
1.5168086 -0.096738219 -1.0736345
2.9909112 -0.24906728 -0.51531518
1.6670943 -0.11846331 -1.097026
2.9950182 -0.24381062 -0.44011068
1.7244072 -0.12394422 -1.0695935
2.9894722 -0.23723841 -0.36443853
1.9460632 -0.15664795 -1.1126688
2.9821904 -0.23042718 -0.28865111
2.0905223 -0.17575607 -1.1121464
2.985014 -0.2250514 -0.21410783
2.2562594 -0.19783634 -1.1135911
2.441911 -0.22251284 -1.1144711
20.364822 -2.4764895 0.46389216
2.6253462 -0.24612901 -1.1054136
20.343729 -2.4366949 0.94354576
2.9041824 -0.28404513 -1.1178038
2.9889567 -0.20248103 0.085269704
3.0232565 -0.29629773 -1.072028
20.382593 -2.3669026 1.9151187
3.0002277 -0.28647465 -0.98425442
20.357594 -2.3263621 2.3977172
2.9959707 -0.27968752 -0.90358144
20.342993 -2.2869756 2.8832405
2.9858525 -0.27211428 -0.82278889
20.521994 -2.2702072 3.4082201
2.9874794 -0.26631701 -0.74483806
20.557816 -2.2359633 3.913718
2.983232 -0.25976163 -0.66715294
20.598896 -2.2018607 4.4264135
2.9908662 -0.25496617 -0.59186637
20.321535 -2.1307385 4.8718224
1.5127265 -0.10051614 -1.0714484
2.9917684 -0.25764704 -0.51489288
1.673528 -0.12447327 -1.1001862
2.995878 -0.25240672 -0.43964094
1.7434229 -0.13225102 -1.0784585
2.9844062 -0.24499473 -0.36354777
1.9290527 -0.15940106 -1.1050597
2.9830592 -0.23900062 -0.2880899
2.0239782 -0.17065349 -1.0845011
2.9839008 -0.23336688 -0.21346687
2.2701652 -0.20658517 -1.1188027
2.9770744 -0.22670439 -0.13895047
2.431699 -0.22779638 -1.1106027
20.500315 -2.5491309 0.47239769
2.6412539 -0.25612283 -1.1104753
2.7708001 -0.27102676 -1.076544
2.9898152 -0.21109602 0.086067155
3.0240464 -0.30491513 -1.071923
20.509617 -2.4379027 1.9328427
2.9914572 -0.29355562 -0.98165268
20.484299 -2.397068 2.4185684
3.0025725 -0.28913388 -0.90472883
20.473234 -2.3578908 2.9077947
2.9924979 -0.28153491 -0.82375652
20.495138 -2.3222461 3.4090405
2.9883199 -0.27486983 -0.74455631
20.525173 -2.2874954 3.9129455
2.9860356 -0.26859787 -0.66713506
20.570223 -2.2540774 4.425921
2.9917178 -0.26354 -0.5914911
20.451332 -2.2007446 4.909627
1.5016093 -0.10331842 -1.0655479
2.9925256 -0.26678929 -0.51442844
1.6639894 -0.12803257 -1.095383
2.9986091 -0.261852 -0.4392997
1.7873981 -0.14535379 -1.099052
2.9891245 -0.25469357 -0.3632406
1.9011456 -0.16056603 -1.0926428
2.9996586 -0.25037062 -0.28811127
1.9848014 -0.17023522 -1.0681785
2.9866502 -0.24278688 -0.21284802
2.250807 -0.21026805 -1.1111623
2.9877512 -0.23719722 -0.13818203
2.4232733 -0.23378909 -1.1073729
20.631098 -2.625597 0.48111027
2.6401868 -0.26393086 -1.1098744
2.9227285 -0.30394405 -1.1229124
2.9925499 -0.22053888 0.08706072
3.0019028 -0.31044888 -1.0653464
20.653654 -2.5155485 1.9526932
2.9979157 -0.30356133 -0.98293847
20.618135 -2.4731147 2.4407299
3.0071442 -0.29887182 -0.90538579
20.60273 -2.4331572 2.9326773
2.9932294 -0.29065204 -0.82347828
20.596754 -2.3939028 3.4324253
2.9910069 -0.28427851 -0.74458706
20.589312 -2.3544888 3.9316061
2.9887385 -0.27800468 -0.66707444
20.591345 -2.3159177 4.4368405
2.9983542 -0.27354866 -0.59186345
20.572664 -2.274195 4.9458642
1.5026255 -0.10886043 -1.0660695
2.9989998 -0.27792805 -0.51452887
1.6684905 -0.13471276 -1.0975872
3.0031281 -0.272717 -0.43904322
1.7901189 -0.15210143 -1.1002617
2.9936574 -0.26553017 -0.36284721
1.9201149 -0.1705173 -1.1009178
2.9923258 -0.25952834 -0.28710899
2.0130625 -0.18202257 -1.079733
2.991195 -0.25361663 -0.21217512
2.2589631 -0.21940377 -1.1141386
2.9883356 -0.24747282 -0.13739903
2.379389 -0.23467076 -1.091386
2.5789835 -0.2627039 -1.0892351
2.9572635 -0.31952006 -1.1331857
2.999052 -0.23165062 0.088448271
3.0043218 -0.32098466 -1.0656552
20.784546 -2.5997634 1.9719598
2.996531 -0.31347615 -0.98217672
20.75264 -2.5575054 2.463752
3.0076797 -0.30913216 -0.90506625
20.742699 -2.5180144 2.9599259
2.9976516 -0.30148625 -0.82391614
20.73424 -2.4782159 3.4628396
2.993511 -0.29480779 -0.744533
20.737888 -2.439975 3.9677413
2.9932115 -0.28883231 -0.66723728
20.733377 -2.4003718 4.4753642
3.0008824 -0.2841118 -0.59162301
20.713915 -2.3582773 4.9879327
1.5002172 -0.11318585 -1.0647904
3.0016644 -0.28740177 -0.51428044
1.6730611 -0.14078408 -1.099839
3.0057995 -0.28220558 -0.43870097
1.7947022 -0.15850973 -1.102362
3.0002885 -0.27558374 -0.36266148
1.9048389 -0.17375043 -1.0940959
2.995013 -0.26899284 -0.28658211
2.0322654 -0.19161591 -1.0875634
2.9938846 -0.26308039 -0.21155524
2.2616842 -0.22678831 -1.1150434
2.993006 -0.25721484 -0.13667114
2.4025335 -0.24589962 -1.099522
2.7333994 -0.2967205 -1.1404003
2.9919863 -0.24554956 0.013624921
2.9088268 -0.3202911 -1.1180354
2.9977753 -0.24059707 0.08913444
3.0087659 -0.33075237 -1.0665832
20.924055 -2.6785412 1.9915216
2.9971871 -0.3226006 -0.98199075
20.889835 -2.6356742 2.4865148
3.0102663 -0.3186065 -0.90527707
20.881428 -2.596154 2.986378
3.0021958 -0.311248 -0.82443732
20.872452 -2.5560539 3.492748
2.9980836 -0.30456102 -0.74491704
20.87356 -2.5172863 4.0006857
2.9939029 -0.29797691 -0.66686749
20.883881 -2.4793503 4.5151024
2.9996166 -0.29298177 -0.59094268
20.863594 -2.4368591 5.0313959
1.5029876 -0.11877063 -1.0662575
3.0042195 -0.29744777 -0.51398915
1.668738 -0.14556593 -1.0976614
3.0083618 -0.29226792 -0.43831593
1.7777853 -0.16136196 -1.0943681
2.9989119 -0.28503376 -0.36193788
1.891311 -0.17758572 -1.0880502
3.0074718 -0.28051406 -0.28639632
2.0422606 -0.20007086 -1.0915881
2.9944861 -0.27282417 -0.2108621
2.2514346 -0.23233461 -1.1109408
2.997565 -0.26754215 -0.13589959
2.4255731 -0.25770727 -1.1076146
2.7115517 -0.30172718 -1.1328907
3.0024681 -0.25671875 0.015002415
2.9037297 -0.32873076 -1.1161821
3.0023148 -0.25093338 0.090326533
3.0492082 -0.34719026 -1.0776235
21.064707 -2.7620993 2.0116227
3.0130389 -0.33483303 -0.98567873
21.039967 -2.7202263 2.5113451
3.0088956 -0.32801688 -0.90455651
21.021288 -2.6790628 3.0134606
3.0027616 -0.32095999 -0.824117
21.017653 -2.6394413 3.5243511
3.0025458 -0.31489497 -0.74525779
21.020071 -2.600632 4.0362744
2.9944859 -0.30768001 -0.66645598
21.019987 -2.5611496 4.5521746
3.0041206 -0.30332559 -0.59100717
20.995096 -2.5177987 5.0709233
1.4952359 -0.12266898 -1.0621703
3.0086238 -0.30838066 -0.5138703
1.613175 -0.14099765 -1.0699341
3.0108085 -0.30290663 -0.43788803
1.698338 -0.15281743 -1.0570093
3.0033414 -0.29595336 -0.36154205
1.906592 -0.18701506 -1.0947245
3.0000517 -0.28964385 -0.28540015
1.9756118 -0.19504341 -1.0639411
3.000906 -0.28403077 -0.21021718
2.1914256 -0.22930709 -1.0876355
3.0000286 -0.27816233 -0.13510054
2.4522135 -0.27076679 -1.1169965
3.0053213 -0.27316764 -0.059275135
2.7045972 -0.30973899 -1.1303349
3.0049231 -0.26735985 0.015989944
2.9305944 -0.34325039 -1.1241257
3.0008159 -0.26100656 0.091096476
3.0534101 -0.3582319 -1.0784564
21.208414 -2.8508184 2.03247
3.0172925 -0.34576917 -0.98638415
21.173487 -2.8072238 2.5345407
3.0131834 -0.33894581 -0.90512711
21.15831 -2.7662954 3.040592
3.0032144 -0.33123243 -0.82375515
21.144392 -2.7250521 3.5532424
3.0030065 -0.32517529 -0.74484926
21.155975 -2.6873088 4.0702844
3.0008092 -0.31889397 -0.66692466
21.155212 -2.6475363 4.5895882
3.0104656 -0.31457001 -0.59128946
21.141129 -2.605324 5.1145992
1.4963205 -0.1273444 -1.0627607
3.0073578 -0.31672531 -0.51323354
1.541906 -0.13215792 -1.0343826
3.0134761 -0.31189364 -0.4375875
1.7689735 -0.17116696 -1.0901637
3.0060191 -0.30492371 -0.36115003
1.91479 -0.19410577 -1.0982915
3.0027349 -0.29860789 -0.28491488
2.000273 -0.20534199 -1.0740557
3.0035908 -0.29299903 -0.20963857
2.1960106 -0.23646423 -1.0892957
3.0046914 -0.28743121 -0.13441223
2.4456105 -0.2765888 -1.1144763
3.0119553 -0.28274566 -0.058381908
2.6753943 -0.31221408 -1.1204296
3.0075998 -0.27634239 0.016849622
2.8577211 -0.33868116 -1.1015407
3.0054607 -0.27026904 0.092204109
3.0559335 -0.36729246 -1.0788831
21.361374 -2.9303362 2.0533285
3.0064754 -0.35243434 -0.98330683
21.318213 -2.8852341 2.5581753
3.0176895 -0.34824258 -0.90582353
21.308464 -2.8448145 3.0686877
3.0038884 -0.3398543 -0.82352036
21.290083 -2.8026776 3.5843894
3.00563 -0.33412755 -0.74492061
21.293259 -2.763581 4.1034918
3.0053988 -0.3281666 -0.66721141
21.299564 -2.7245569 4.6279216
3.0111573 -0.32323021 -0.59091401
21.28661 -2.6822314 5.1569986
1.4886373 -0.13060704 -1.0587233
3.0118699 -0.3265878 -0.51319867
1.5111933 -0.13110515 -1.0190674
3.0199664 -0.32209355 -0.4375807
1.7699255 -0.17689312 -1.0905913
3.0125263 -0.31510037 -0.36095935
1.9012755 -0.19750267 -1.0922816
3.0053058 -0.30814517 -0.28438699
2.0193758 -0.2151252 -1.0818745
3.0041881 -0.30223089 -0.20898804
2.0276804 -0.21203184 -1.0242319
2.9973819 -0.2954444 -0.13378282
2.4648933 -0.28759032 -1.1212494
3.0164986 -0.29261842 -0.057507843
2.724674 -0.32926685 -1.1366187
3.0121386 -0.28620079 0.017862186
2.8658452 -0.34877968 -1.1037886
3.0099916 -0.28011885 0.093355522
3.0697324 -0.37894768 -1.0824664
21.503624 -3.0130014 2.073518
3.0165722 -0.36328149 -0.98556262
21.460117 -2.9675148 2.5819023
3.0201612 -0.3577866 -0.90603358
21.446003 -2.9262257 3.0953596
3.0083165 -0.34969771 -0.82404
21.44467 -2.886261 3.6175799
3.006202 -0.34332013 -0.74459749
21.449121 -2.8471158 4.1408978
3.0040278 -0.3370384 -0.66653544
21.431446 -2.8045361 4.6640091
3.0156512 -0.33310175 -0.59101802
21.431229 -2.7637181 5.1997414
1.4896072 -0.13585132 -1.0592716
3.0162632 -0.33703834 -0.51312035
1.5668131 -0.14717871 -1.0468229
3.022403 -0.33224416 -0.43719369
1.7886347 -0.18643498 -1.099367
3.0149727 -0.32523298 -0.36048099
1.9129277 -0.20604309 -1.0973828
3.0077598 -0.31826007 -0.28381628
2.0602293 -0.22955847 -1.0986825
3.0105937 -0.31297773 -0.20838185
2.179194 -0.24724743 -1.0825914
3.0018167 -0.30585438 -0.13300978
2.4562531 -0.29398215 -1.1179956
3.0169716 -0.30246562 -0.0567182
2.7401555 -0.34090525 -1.1415625
3.0145845 -0.29634631 0.018808275
2.9963028 -0.38177389 -1.1435196
3.0124319 -0.29025978 0.094394192
3.0853004 -0.39159119 -1.0865345
21.643 -3.1000144 2.0938499
3.0227268 -0.37406403 -0.98679721
21.610922 -3.0559006 2.6072195
3.0167542 -0.36688852 -0.90487266
21.596338 -3.0142746 3.124439
3.006834 -0.35911399 -0.82332373
21.592484 -2.9737134 3.6500993
3.0085988 -0.3534106 -0.74458432
21.592403 -2.933708 4.1763372
3.0044923 -0.34679502 -0.6661247
21.591427 -2.89323 4.7069149
3.0141604 -0.34256941 -0.59029788
21.574932 -2.84988 5.2428303
1.4923486 -0.14116573 -1.0607623
3.0207138 -0.34695917 -0.51308334
1.5766096 -0.15411699 -1.0517292
3.0229332 -0.34152144 -0.43668169
1.7966725 -0.19363227 -1.1031393
3.0155089 -0.33449602 -0.35992372
1.9065963 -0.21077111 -1.0945592
3.0142167 -0.32848352 -0.28343713
2.0756137 -0.23891509 -1.1049783
3.0131071 -0.3225621 -0.20775957
2.2148869 -0.2607941 -1.0962698
3.0122313 -0.31668925 -0.13222429
2.3642721 -0.28410348 -1.0848453
3.0135577 -0.31112814 -0.056101099
2.7295163 -0.34723514 -1.1378436
3.0170894 -0.30594748 0.019711792
2.9930096 -0.39021468 -1.1422752
3.0109911 -0.29924238 0.095076278
3.0686798 -0.39785641 -1.081588
21.768898 -3.1819172 2.1125224
3.0060334 -0.38017869 -0.98222381
21.74239 -3.1383781 2.6298115
3.0191703 -0.37645185 -0.90508342
21.746954 -3.0993986 3.1532886
3.0150635 -0.36968344 -0.82463658
21.744478 -3.0588017 3.6830695
3.009115 -0.36262238 -0.74426186
21.741798 -3.018183 4.2127032
3.0069642 -0.35634106 -0.66606236
21.740084 -2.9773662 4.7470007
3.0185952 -0.35248268 -0.59040105
21.730457 -2.9347191 5.2885523
1.5019366 -0.14850351 -1.0658885
3.0210302 -0.3573494 -0.5125345
1.5898041 -0.16243613 -1.0583425
3.0252161 -0.35226315 -0.43625236
1.7760762 -0.19584414 -1.0934711
3.0197699 -0.3455531 -0.35952374
1.9127373 -0.21868831 -1.0972449
3.0165138 -0.3392067 -0.28282279
2.063554 -0.24378729 -1.0999384
3.0154068 -0.33328557 -0.20705216
2.0888171 -0.24398929 -1.0475427
3.0125582 -0.32708907 -0.13144211
2.4185483 -0.30270743 -1.1041892
3.0178275 -0.32218027 -0.055141099
2.7018874 -0.35131639 -1.1284682
3.0213513 -0.31700969 0.020812169
2.9518719 -0.39265293 -1.1294202
3.017216 -0.310597 0.09647207
3.1181984 -0.41751534 -1.0951852
3.0215774 -0.39328599 -0.98585242
3.0175366 -0.38644475 -0.9043259
3.0115013 -0.37932587 -0.82348257
3.0113597 -0.37329865 -0.74420685
21.881836 -3.1101162 4.2481656
3.0111709 -0.36736125 -0.66622072
21.900665 -3.0721312 4.790761
3.0208621 -0.36320043 -0.59015918
21.890144 -3.0290744 5.3363581
1.4958985 -0.15235218 -1.0627562
3.0194492 -0.36683977 -0.51181632
1.5801383 -0.16581935 -1.0535593
3.0255949 -0.36211824 -0.43569911
1.714591 -0.18925872 -1.0646055
3.0201535 -0.35539901 -0.35892472
1.9261099 -0.22773203 -1.1031318
3.0149302 -0.34871298 -0.28210348
2.058821 -0.24965081 -1.0979379
3.0157943 -0.34313184 -0.20635977
2.2308493 -0.27889845 -1.1022516
3.0168908 -0.33759356 -0.13066565
2.3950586 -0.30600542 -1.0956385
3.026099 -0.33335239 -0.054091834
2.7191451 -0.36339343 -1.1340297
3.0256708 -0.32753742 0.021870717
2.9390512 -0.39970165 -1.1252669
3.021528 -0.32111049 0.097668961
3.1942527 -0.44192421 -1.1162465
3.7312169 -0.53600597 -1.1666028
3.0313094 -0.39872146 -0.90714419
3.019572 -0.39051902 -0.82475072
3.0136633 -0.38343525 -0.74419385
3.013489 -0.37750316 -0.66611582
3.0231874 -0.37337601 -0.58995956
1.4707819 -0.15184936 -1.0495363
3.0277228 -0.37752432 -0.51220256
1.6004245 -0.17508867 -1.0637237
3.0319259 -0.3724677 -0.43568677
1.6300691 -0.1772294 -1.024925
3.020602 -0.36469549 -0.35836846
1.9197267 -0.23245001 -1.1003114
3.0153823 -0.35800111 -0.281501
2.0632224 -0.25694281 -1.099722
3.0201876 -0.35310626 -0.20576422
2.2609019 -0.29180616 -1.1137753
3.0212846 -0.34757 -0.12993029
2.4049542 -0.31532973 -1.0990844
3.0285139 -0.3430208 -0.053279832
2.7420425 -0.37617105 -1.1414819
3.0202031 -0.33589292 0.022327185
2.9187846 -0.40468568 -1.1188579
3.0318031 -0.33206671 0.099299654
3.2608349 -0.46436828 -1.1346641
3.7255685 -0.54611194 -1.1648124
3.0238459 -0.40049094 -0.82526624
3.010036 -0.38604337 -0.6651395
3.0236249 -0.38266116 -0.58954334
1.4943155 -0.16160843 -1.0620576
3.0261788 -0.38647807 -0.5115273
1.6435372 -0.18930483 -1.0852849
3.03234 -0.38179588 -0.4351756
1.6469921 -0.18595827 -1.0329022
3.0249541 -0.37470013 -0.35805178
1.9402999 -0.24272138 -1.1093923
3.017776 -0.36764365 -0.280972
2.0766826 -0.26612335 -1.105256
3.0245507 -0.36310941 -0.20516759
2.259738 -0.29855597 -1.1132661
3.0217066 -0.35689282 -0.12923321
2.3926225 -0.32025206 -1.0945632
3.0210497 -0.35101908 -0.052799217
2.7294581 -0.38202924 -1.1371553
3.0284956 -0.34655899 0.023568556
2.9642897 -0.42251712 -1.1325933
3.0302448 -0.34110516 0.099981293
3.2156618 -0.46540672 -1.1217368
3.5808332 -0.5293408 -1.1275688
3.9920766 -0.60083789 -1.1274586
5.0544991 -0.78440392 -1.1120121
3.0279357 -0.39266998 -0.58964384
1.5229704 -0.17291865 -1.0773032
3.0245111 -0.39598519 -0.51081151
1.6355683 -0.19314772 -1.0813745
3.0326281 -0.39169037 -0.43462294
1.7562679 -0.21472216 -1.0842738
3.0291772 -0.38529277 -0.35769191
1.9410051 -0.24932301 -1.1097165
3.0180748 -0.37750894 -0.28032833
2.0646284 -0.27048516 -1.1002582
3.0268152 -0.37335151 -0.20450158
2.2749736 -0.30911952 -1.119087
3.02988 -0.36817032 -0.12841417
2.4467597 -0.33912408 -1.1138908
3.0252819 -0.36159968 -0.051879898
2.6999958 -0.38493425 -1.1272256
3.0228791 -0.35546184 0.02406396
2.9833305 -0.43589407 -1.138221
3.024631 -0.35003066 0.10038544
3.1458101 -0.46190995 -1.1018904
3.7140737 -0.56691802 -1.1611911
4.0033278 -0.61572295 -1.1296158
4.5994043 -0.72255701 -1.1477689
9.0792971 -1.5501735 -1.6124434
9.945343 -1.6952004 -1.5033085
1.5169253 -0.17647821 -1.0741951
3.048326 -0.40970534 -0.5128811
1.6346736 -0.19816288 -1.0809976
3.0329862 -0.40103167 -0.43411309
1.7535367 -0.21969035 -1.083037
3.0315027 -0.39499295 -0.35725456
1.9453477 -0.25633135 -1.1116533
3.0223761 -0.38754046 -0.27987146
2.0617068 -0.27630833 -1.0990423
3.0252118 -0.3823396 -0.20382604
2.2682679 -0.31476057 -1.1164578
3.0263054 -0.37682366 -0.12775782
2.4510069 -0.34753674 -1.1153331
3.0295808 -0.37164837 -0.051001795
2.6780784 -0.38870645 -1.1198213
3.0311067 -0.36619204 0.025307849
3.0348077 -0.3610965 0.10202096
3.2424846 -0.49087071 -1.1287584
3.6836042 -0.57202262 -1.153107
3.9725468 -0.621656 -1.1221466
4.8395109 -0.78313905 -1.1964908
6.0353117 -1.0050151 -1.2876256
9.0708389 -1.5750751 -1.6099099
1.5177034 -0.18213546 -1.0747176
1.6476965 -0.20689785 -1.0875837
1.7559981 -0.22647521 -1.0842547
1.9244043 -0.25866899 -1.1024452
3.0343018 -0.40018171 -0.27961588
2.0568154 -0.28250313 -1.0970212
3.0332127 -0.39425391 -0.20319444
2.2742088 -0.32392734 -1.1187102
3.0284042 -0.38765901 -0.12695669
2.4532154 -0.35649842 -1.1160438
3.0277412 -0.38178724 -0.05024112
2.6708779 -0.39644027 -1.1172992
3.0371265 -0.37775117 0.026525214
2.9856122 -0.4556517 -1.1385466
3.0368876 -0.3719672 0.10310458
3.1781917 -0.48880386 -1.1104829
3.7080479 -0.589441 -1.1589864
3.9988959 -0.64034671 -1.1277667
6.0530539 -1.0285649 -1.2900037
9.0733719 -1.6054058 -1.608958
1.5237182 -0.18868113 -1.0780144
11.6512 -2.1007121 -1.4372109
1.6677637 -0.21696642 -1.0976912
18.038486 -3.3085482 -1.6896801
1.7265506 -0.22587353 -1.0704863
1.8497063 -0.24872619 -1.0695248
2.0066676 -0.27845144 -1.0763162
2.2728779 -0.33113623 -1.1181703
3.0423703 -0.40013701 -0.12606908
2.446249 -0.36305684 -1.1134782
3.0397365 -0.39388359 -0.049047887
2.6730533 -0.40560609 -1.1179072
3.0373178 -0.38771617 0.027359068
3.0195272 -0.4724074 -1.1487489
3.039036 -0.38229042 0.10414581
3.3085732 -0.52606404 -1.1467838
3.6869271 -0.5969786 -1.1532894
4.0750208 -0.66858739 -1.1448442
4.4418097 -0.73454642 -1.1138933
6.13658 -1.0642612 -1.3042841
9.0916195 -1.6372354 -1.6105454
9.8103809 -1.7613313 -1.4809635
1.5176932 -0.19190452 -1.0749332
11.867905 -2.1752789 -1.4588106
1.6510816 -0.21818054 -1.0894547
17.998301 -3.3498263 -1.6835206
1.7238505 -0.23041642 -1.0692834
37.846359 -7.1547561 -2.4399583
1.889964 -0.26313624 -1.0873315
29.591137 -5.5057511 -1.2358081
2.0237203 -0.28810123 -1.0833752
2.2479119 -0.33232027 -1.1085278
2.4062278 -0.36151284 -1.0990741
2.6437609 -0.40704596 -1.1080916
3.0396547 -0.3969205 0.028222501
3.0029747 -0.47753394 -1.1435418
3.0492101 -0.39293349 0.10574616
3.1501935 -0.50224966 -1.1022171
3.6850448 -0.60701883 -1.1525388
4.1111717 -0.68751425 -1.1527904
4.5183315 -0.76264024 -1.1291221
5.774437 -1.0080285 -1.2384212
9.1064911 -1.6651974 -1.6117637
10.085667 -1.8429573 -1.5158832
1.502835 -0.19396928 -1.0672059
1.6272101 -0.21864271 -1.0776547
18.063747 -3.421674 -1.6856477
1.7067658 -0.23271012 -1.0613428
37.674862 -7.2441745 -2.4222147
1.8600634 -0.26311928 -1.0741968
30.228689 -5.7264228 -1.2523495
2.0568132 -0.30262357 -1.0970731
37.104408 -7.0000477 -0.61804432
2.2519565 -0.34108317 -1.1100782
37.0639 -6.9267063 0.26116043
2.4194462 -0.37278938 -1.1037632
2.6346498 -0.41422284 -1.1049675
2.9860997 -0.4842211 -1.1382195
3.2161357 -0.52709019 -1.1204637
3.7131336 -0.62547195 -1.1593719
4.0589643 -0.69049621 -1.1403997
4.540503 -0.7824651 -1.1331366
5.6397061 -0.9996255 -1.2134356
9.1106672 -1.6961005 -1.6111114
10.120402 -1.8832061 -1.5188606
1.4985869 -0.19722444 -1.0650702
12.184552 -2.3088331 -1.4891233
1.601836 -0.21732292 -1.065083
1.6899339 -0.23360938 -1.053507
41.142635 -8.0299702 -2.6228406
1.835822 -0.26275456 -1.0635515
30.220282 -5.8014827 -1.2470527
2.0394804 -0.30436188 -1.0899421
33.316547 -6.3534503 -0.56581587
2.2398577 -0.34451747 -1.1054136
37.050297 -7.018146 0.26796263
2.3961132 -0.37418443 -1.0953637
2.4883802 -0.38923991 -1.0563557
2.9677646 -0.48822176 -1.1324958
3.1994588 -0.53206527 -1.1156265
3.724596 -0.63774037 -1.1620494
4.0817966 -0.70602459 -1.145326
4.709105 -0.82976133 -1.1672211
5.6311922 -1.0125318 -1.211344
9.1450443 -1.7265959 -1.6154548
10.206916 -1.9268525 -1.528993
1.4768047 -0.19751531 -1.0536901
12.541304 -2.4224179 -1.525223
1.6287657 -0.22944683 -1.0786604
19.938562 -3.9095278 -1.8355379
1.6817076 -0.23777598 -1.0497444
41.123188 -8.160162 -2.6135924
1.8882989 -0.28141719 -1.0867902
30.178112 -5.8917937 -1.2391498
2.0182314 -0.30671841 -1.08121
33.186134 -6.4364176 -0.55671948
2.2055171 -0.34460092 -1.0921813
37.039181 -7.1370606 0.27677423
2.422168 -0.38840836 -1.1046743
2.6464703 -0.4331038 -1.1087383
2.9358976 -0.49141777 -1.1226131
3.265238 -0.55743408 -1.1338364
3.6140873 -0.62646323 -1.1336445
3.9971445 -0.70167392 -1.1255294
4.7847557 -0.86176509 -1.1821637
5.9475598 -1.0982447 -1.2674764
9.1877213 -1.7657886 -1.6208074
10.216095 -1.9624708 -1.5286213
1.4636756 -0.19975322 -1.0468985
1.6171445 -0.23256528 -1.0729995
18.247381 -3.624249 -1.691695
1.7106432 -0.25066844 -1.0634598
36.591404 -7.3627405 -2.3375642
1.9049076 -0.29203293 -1.0942106
29.011471 -5.7527542 -1.1916432
2.0367486 -0.31816494 -1.0889163
33.200592 -6.5479112 -0.54938048
2.2186327 -0.35537654 -1.0972592
41.331902 -8.1180601 0.33724457
2.3340349 -0.37679821 -1.07305
2.6502829 -0.4431591 -1.1099328
2.9152591 -0.49693203 -1.1161761
3.1086545 -0.53388518 -1.0898131
3.6306853 -0.6424548 -1.1375871
3.9583175 -0.70678824 -1.1162606
4.703074 -0.86023587 -1.1649563
5.92834 -1.114038 -1.2632918
9.1722288 -1.7929139 -1.6171404
10.242627 -2.0018406 -1.5305377
1.4628711 -0.20372635 -1.046604
12.519355 -2.491298 -1.5191602
1.6110175 -0.23564568 -1.0700567
1.7574859 -0.26663578 -1.0855783
36.794224 -7.4979811 -2.3439758
1.8412963 -0.28227586 -1.0662061
29.803631 -5.9901237 -1.2146869
2.0230167 -0.32056403 -1.083294
33.311508 -6.6551795 -0.54481715
2.2101631 -0.35948598 -1.0940158
41.46627 -8.2505484 0.34662491
2.395359 -0.39729166 -1.0950301
2.6377645 -0.44747025 -1.1057316
2.932435 -0.50866002 -1.1213338
3.214345 -0.56594014 -1.1192511
3.5833411 -0.64156801 -1.1253422
4.05158 -0.73785299 -1.1373482
4.5167418 -0.83181912 -1.1265113
5.944593 -1.1330249 -1.265649
9.2063036 -1.8238964 -1.621456
10.247211 -2.0291851 -1.5299342
1.4842722 -0.21435907 -1.0581201
12.151422 -2.4536028 -1.4779065
1.602882 -0.2395063 -1.066152
18.273314 -3.736428 -1.6879914
1.7615533 -0.27394044 -1.0876268
37.04792 -7.6720347 -2.3517435
1.8793229 -0.29798537 -1.0831
33.624653 -6.8887167 -1.3417165
2.0486908 -0.33385032 -1.0939767
2.1029263 -0.34202629 -1.0527006
41.519798 -8.3974943 0.35727197
2.4378419 -0.41561246 -1.1102605
37.138222 -7.428731 1.192337
2.6526489 -0.46010619 -1.1106186
2.9397852 -0.52049649 -1.1234711
3.2479191 -0.58465296 -1.1284701
3.624485 -0.66312891 -1.1355433
4.1060114 -0.76383859 -1.1494576
4.5022454 -0.84391326 -1.1230822
5.9021935 -1.1436419 -1.2573354
9.2234802 -1.8582056 -1.6228845
10.263799 -2.0667381 -1.5305703
1.481588 -0.21852568 -1.056866
1.6036025 -0.24486259 -1.066661
1.7286278 -0.27152288 -1.0722727
1.8602749 -0.29934514 -1.0747926
33.6129 -6.9842744 -1.3350523
2.0131233 -0.33176869 -1.0793549
29.918411 -6.1465797 -0.49327379
2.0123549 -0.32706565 -1.017813
41.609142 -8.5372677 0.36727899
2.3701766 -0.40721434 -1.0860035
37.057835 -7.5205288 1.1978743
2.612103 -0.45882231 -1.0971301
2.9846632 -0.53998202 -1.1370966
3.1538081 -0.5728997 -1.1019949
3.624181 -0.67409736 -1.1352459
4.0407186 -0.76146245 -1.1341994
4.3521876 -0.82373792 -1.0920553
5.5737305 -1.0879796 -1.1978457
9.2354288 -1.8880918 -1.6236515
10.228699 -2.0892982 -1.5246359
1.4599189 -0.21790069 -1.0455569
1.5973228 -0.24848187 -1.0636802
20.061016 -4.2348151 -1.8293042
1.7257468 -0.27635962 -1.071053
36.918713 -7.85991 -2.3314843
1.8715788 -0.30805075 -1.0798951
33.634098 -7.0869756 -1.3295476
1.9811844 -0.33037376 -1.0662385
29.675808 -6.1822238 -0.4846701
2.0820706 -0.35026366 -1.0447475
83.193314 -17.470411 0.91084009
2.4072537 -0.42349786 -1.0993135
37.092632 -7.6361904 1.2076057
2.6308408 -0.4713825 -1.1033183
2.9324296 -0.53688139 -1.1210568
3.2740023 -0.61064643 -1.1354798
3.542516 -0.66623735 -1.1142889
4.0439544 -0.77446622 -1.1346436
4.5484381 -0.8816269 -1.1317004
5.5338473 -1.0956721 -1.1901292
9.2685108 -1.9228184 -1.6277003
10.222602 -2.1181433 -1.522509
1.4485435 -0.22007787 -1.0397193
12.645691 -2.673815 -1.5249667
1.5909692 -0.25237644 -1.0606797
20.161106 -4.3195276 -1.8341831
1.7474916 -0.28770414 -1.0814347
33.311092 -7.1799226 -2.1145911
1.8595828 -0.31141698 -1.074724
33.831417 -7.2345676 -1.3297071
1.9708115 -0.3345049 -1.0620468
29.609985 -6.2602806 -0.47767895
2.1807082 -0.38136268 -1.0828524
79.97702 -17.036768 0.88759357
2.3909397 -0.42754477 -1.0934882
37.076794 -7.7482028 1.2160168
2.6235166 -0.47831303 -1.1008681
2.9360614 -0.54736876 -1.1220924
3.2868478 -0.6243605 -1.1389338
3.5193751 -0.67231536 -1.1082016
4.048893 -0.78867131 -1.135468
4.6047039 -0.90923613 -1.142756
5.9949913 -1.2189841 -1.2720997
9.2991896 -1.958951 -1.6313183
10.212165 -2.1479051 -1.5197495
1.4767284 -0.23269993 -1.0548766
12.666087 -2.7204282 -1.5251098
1.5827965 -0.25609523 -1.0567883
20.355402 -4.4298697 -1.8465738
1.730314 -0.28966621 -1.0735257
1.8278946 -0.31013137 -1.0608698
28.966648 -6.2672124 -1.1567361
1.9477431 -0.33580214 -1.0526214
36.228584 -7.8140736 -0.53975123
2.1809282 -0.38915771 -1.0830141
30.299028 -6.4564519 0.24492769
2.3708563 -0.4310413 -1.0863227
36.996689 -7.8531265 1.2225606
2.5124979 -0.46045923 -1.0640277
2.8929513 -0.54716194 -1.1088544
3.2901289 -0.63650644 -1.139715
3.5168667 -0.68384248 -1.1073548
4.0764256 -0.80902594 -1.141453
4.4696641 -0.89328545 -1.1148009
5.8199968 -1.1985381 -1.2401229
9.3235989 -1.9955893 -1.633912
10.152893 -2.1683555 -1.5105698
1.4929996 -0.24148107 -1.0636935
1.5765606 -0.2593089 -1.0538391
20.330013 -4.4801612 -1.8415449
1.739799 -0.29732734 -1.0781399
46.947105 -10.465993 -2.8927648
1.8837649 -0.32983911 -1.0856787
29.041569 -6.3636999 -1.1542804
2.0491266 -0.36720431 -1.094632
32.976982 -7.1893773 -0.49985188
2.1777606 -0.39482456 -1.0818641
30.041298 -6.4829102 0.24751334
2.3565643 -0.43447155 -1.0812355
33.789124 -7.2516637 1.110476
2.6070747 -0.49112111 -1.0954015
2.8837419 -0.5533154 -1.1059937
3.2937694 -0.64687639 -1.1406277
3.5487299 -0.70161825 -1.1152779
4.0436034 -0.81282634 -1.1336949
4.2932811 -0.86421007 -1.0785249
5.8031316 -1.210968 -1.2365785
9.3374157 -2.0247548 -1.6350758
10.152769 -2.1965444 -1.5093554
1.4626511 -0.23867068 -1.0478168
12.754897 -2.8160141 -1.5309453
1.556249 -0.25945258 -1.0438799
20.339809 -4.5459933 -1.8390224
1.6821661 -0.28833288 -1.0511941
33.268497 -7.4750686 -2.0945406
1.8841904 -0.33635819 -1.086022
33.273228 -7.4173903 -1.2914262
2.0530593 -0.3751303 -1.0963839
28.799931 -6.3489442 -0.45118409
2.2197938 -0.41279465 -1.0981709
29.808609 -6.5246367 0.2511341
2.3457367 -0.43962687 -1.0774043
33.606655 -7.3166642 1.1118146
2.6274095 -0.50484473 -1.1021552
2.7849376 -0.53837591 -1.075768
3.1284087 -0.61704963 -1.0942881
3.3915739 -0.67489511 -1.075206
3.9933822 -0.81378692 -1.1219394
4.4200611 -0.90852302 -1.1039776
5.935288 -1.2610009 -1.2596153
9.3407812 -2.0550351 -1.6345104
10.161419 -2.2305994 -1.509136
1.4392685 -0.23724407 -1.0356233
12.826165 -2.8705962 -1.536701
1.5603837 -0.26563221 -1.0461414
20.488043 -4.6406069 -1.8479933
1.688042 -0.29532802 -1.0541331
29.205568 -6.6291399 -1.8550386
1.8686613 -0.33835655 -1.0793133
28.838333 -6.4929247 -1.1364788
2.0624471 -0.38408834 -1.1003931
28.695892 -6.4099107 -0.44445437
2.2074015 -0.41664052 -1.0934846
29.534218 -6.5501146 0.25366861
2.4027417 -0.46151054 -1.0979071
33.374756 -7.3633628 1.1107173
2.6164188 -0.51028436 -1.0985253
47.451267 -10.45184 2.7767713
2.8351626 -0.55962479 -1.0910777
3.1394455 -0.62946928 -1.0972842
3.5382819 -0.72151858 -1.1122847
4.0874844 -0.84902066 -1.143199
5.891221 -1.2682455 -1.2511901
9.3444242 -2.0837002 -1.6340661
10.180023 -2.2652202 -1.5103
1.4330218 -0.24060619 -1.0325402
12.828978 -2.911685 -1.5351291
1.5887815 -0.27865627 -1.0605644
20.62344 -4.7369261 -1.8556995
1.6955794 -0.30314916 -1.0578752
1.8957342 -0.35186696 -1.091452
28.686306 -6.5476542 -1.125813
2.0627317 -0.3911432 -1.1006557
28.674355 -6.4947772 -0.43821174
2.0897212 -0.3935582 -1.0481837
29.488707 -6.6321669 0.2597205
2.4101472 -0.4714551 -1.1006347
33.283752 -7.4471207 1.1153637
2.6569626 -0.52934104 -1.1120026
2.8498571 -0.57273334 -1.095541
3.1727715 -0.64818257 -1.1065139
3.6073685 -0.75033647 -1.1296543
4.1016574 -0.86580783 -1.14618
4.5283785 -0.96293443 -1.1253201
5.9139175 -1.2926624 -1.2546718
9.3860483 -2.1233706 -1.639425
10.223179 -2.3077943 -1.5145812
1.4370713 -0.24674839 -1.0349306
1.6014793 -0.28761345 -1.0671463
1.7364948 -0.31999028 -1.0773479
29.367535 -6.8505578 -1.8539722
1.8463315 -0.34517598 -1.0697935
26.209681 -6.0513053 -1.0380868
2.0234964 -0.38776225 -1.0845809
29.055565 -6.6742902 -0.43576151
2.167912 -0.42115504 -1.0784734
29.244314 -6.6676893 0.26288396
2.3754632 -0.4704982 -1.0882744
29.167875 -6.5986614 0.96555215
2.6568649 -0.53815824 -1.1120068
2.8979394 -0.59451252 -1.1102122
3.1686049 -0.6575712 -1.1052727
3.5577013 -0.74958408 -1.1169002
4.0134964 -0.85702592 -1.1257946
5.7490478 -1.2708671 -1.2246857
9.4006271 -2.1567066 -1.6406282
10.100374 -2.3102374 -1.4973602
1.429087 -0.24960145 -1.0309401
12.878659 -3.0048945 -1.5366614
1.586349 -0.28903779 -1.0598092
1.6965134 -0.31511664 -1.0587294
29.265455 -6.9179978 -1.8429881
1.7419217 -0.32336283 -1.0238106
29.217876 -6.8550935 -1.132272
2.0183816 -0.39327586 -1.0826259
29.393169 -6.8459206 -0.43276304
2.2115622 -0.44007546 -1.0954485
28.916292 -6.6820464 0.26471025
2.4102352 -0.48763943 -1.1008384
29.336117 -6.7298503 0.97915536
2.6235781 -0.53830773 -1.1010091
2.9069428 -0.606457 -1.1129564
3.218626 -0.68091494 -1.1191857
3.6341343 -0.78080434 -1.1361474
3.9651616 -0.85783309 -1.1145242
4.497149 -0.98441964 -1.1182739
5.9953623 -1.351032 -1.2680898
9.4208536 -2.1915784 -1.6427133
10.116352 -2.3462198 -1.4981529
1.4365329 -0.25671756 -1.0351524
12.686008 -2.9978278 -1.514619
1.586846 -0.29470217 -1.0603025
21.364149 -5.1139317 -1.9057374
1.7109988 -0.32496709 -1.0657758
29.236948 -7.0029058 -1.8362494
1.7991382 -0.34497768 -1.0493052
26.011477 -6.1678815 -1.0214896
2.0060813 -0.39682168 -1.0777062
29.012615 -6.8465233 -0.42320389
2.1845448 -0.44029588 -1.0851572
29.014357 -6.7965031 0.27271503
2.390157 -0.49038297 -1.0937351
29.3619 -6.828321 0.98730689
2.6013567 -0.54118961 -1.0936917
29.636805 -6.8421249 1.7093599
2.8880775 -0.61114675 -1.1071984
3.2816222 -0.70796502 -1.1367333
3.627692 -0.79105073 -1.1343796
4.0170932 -0.88413602 -1.1261618
4.7068038 -1.0525575 -1.1605611
5.5497255 -1.2573397 -1.1880908
9.4352045 -2.225131 -1.6439086
10.224619 -2.405405 -1.5108947
1.4561548 -0.26641855 -1.0457979
12.740217 -3.0445366 -1.5188318
1.5355 -0.28491616 -1.0347935
21.548851 -5.2153645 -1.9178821
1.7134019 -0.33051348 -1.0670986
29.28364 -7.0901732 -1.8347042
1.8884391 -0.37465954 -1.0889765
25.221479 -6.0413866 -0.99159211
2.0227201 -0.40700525 -1.0847387
29.038177 -6.9279962 -0.41843373
2.203058 -0.45141321 -1.092425
29.142925 -6.9029198 0.2800594
2.3558049 -0.48776519 -1.0814979
29.367788 -6.9059739 0.99343544
2.6420474 -0.55923253 -1.1072466
29.623079 -6.9158449 1.7148759
2.8807178 -0.61710352 -1.1049612
3.2814605 -0.71684313 -1.1366476
3.6498895 -0.80666786 -1.1399069
4.0014005 -0.89087635 -1.1224043
4.8065495 -1.0908685 -1.1805553
5.7239232 -1.316704 -1.2187299
9.4621592 -2.2567203 -1.6472284
10.364746 -2.4675667 -1.5279664
1.4719661 -0.27666792 -1.0545131
1.5098516 -0.28368199 -1.0222268
20.995811 -5.1517119 -1.869571
1.7171404 -0.33820355 -1.0691293
41.546402 -10.268319 -2.5223954
1.8725983 -0.37749696 -1.0822117
25.282419 -6.1454921 -0.98817509
2.0012543 -0.40879011 -1.0760635
28.872818 -6.9894447 -0.4102456
2.2282515 -0.46668297 -1.1023283
26.448832 -6.3440833 0.24622397
2.3628812 -0.49858218 -1.0841675
29.522469 -7.0473185 1.0075283
2.6287451 -0.56551999 -1.1029156
29.40876 -6.9685397 1.7099983
2.844908 -0.6182031 -1.0940483
3.1648734 -0.69785339 -1.1040251
3.5867186 -0.80334026 -1.12376
4.0244732 -0.91159266 -1.1274443
4.5405126 -1.0387964 -1.126142
5.8717813 -1.3757446 -1.244511
9.4582253 -2.2894151 -1.6455244
10.323563 -2.4939034 -1.5212379
1.4811741 -0.28390056 -1.0596644
1.5434139 -0.29795718 -1.0392753
20.763838 -5.1510425 -1.8480414
1.7036552 -0.33964115 -1.0629907
41.443981 -10.357711 -2.5103068
1.8606521 -0.37982488 -1.0771245
25.413292 -6.2489138 -0.98814267
1.9980625 -0.41394436 -1.0749147
29.362356 -7.1923079 -0.40903562
2.2248969 -0.47242457 -1.1011804
26.286026 -6.377439 0.2489839
2.3940449 -0.51420867 -1.0954642
29.299479 -7.0746722 1.0050724
2.6287746 -0.57330823 -1.1029997
29.249964 -7.0117345 1.7067282
2.900353 -0.64163452 -1.1110132
3.3118703 -0.74674857 -1.1450757
3.6218221 -0.82316834 -1.13257
3.9821265 -0.91197246 -1.1176119
4.5849066 -1.0635893 -1.1348908
6.071876 -1.4449725 -1.2796996
9.4922218 -2.3249094 -1.6498876
10.186146 -2.4873853 -1.5024142
1.469689 -0.28578949 -1.0538555
1.5542619 -0.30651587 -1.0449859
20.83329 -5.2347059 -1.8504145
1.6795038 -0.33864856 -1.0518551
29.443462 -7.408216 -1.8285244
1.8149 -0.3732298 -1.0571039
28.710611 -7.1698747 -1.0890718
2.0357919 -0.43145168 -1.0907435
25.110085 -6.2084451 -0.36820906
2.2140987 -0.47695875 -1.0971853
26.025888 -6.3952475 0.25084287
2.4176383 -0.52887207 -1.1040705
29.147659 -7.1295094 1.0061917
2.5844738 -0.56988925 -1.0883888
29.31719 -7.1210666 1.7186862
2.6131771 -0.57245868 -1.0233296
3.2217305 -0.73313719 -1.1198691
3.6283896 -0.83689362 -1.1341412
3.9469874 -0.91559798 -1.1094147
4.7179017 -1.1141 -1.1615967
5.9243751 -1.4254501 -1.2529444
9.4716883 -2.3498335 -1.6457846
10.186163 -2.5199192 -1.5012058
1.4666766 -0.2904129 -1.0525777
1.539052 -0.30786711 -1.0376583
22.286552 -5.6849833 -1.9634516
1.6762835 -0.34392393 -1.0506138
29.315567 -7.4735775 -1.8160262
1.7461187 -0.36009604 -1.0268974
28.319893 -7.165206 -1.0708573
2.034039 -0.43834299 -1.0902481
25.068649 -6.2821217 -0.36235052
2.2176151 -0.48594183 -1.0987403
26.138727 -6.5114102 0.25887746
2.3992074 -0.53234208 -1.0976102
29.161083 -7.2307801 1.0142756
2.569443 -0.57490355 -1.0835071
2.8401847 -0.64486617 -1.0927298
3.3549297 -0.78124398 -1.157079
3.5916469 -0.83951277 -1.1247389
4.0341773 -0.95310003 -1.1291234
4.5946612 -1.0970776 -1.1362739
5.8852715 -1.4352713 -1.245481
9.4735966 -2.3824542 -1.6450875
10.3928 -2.6092246 -1.5265489
1.4485009 -0.28960577 -1.0431823
1.5223475 -0.30773568 -1.0295343
22.259953 -5.7403345 -1.9583356
1.6855366 -0.3518036 -1.0552201
29.431023 -7.5858469 -1.8180768
1.8296658 -0.38973588 -1.0641155
28.850115 -7.3828292 -1.0829506
2.0147083 -0.43893063 -1.0824392
25.117525 -6.3650289 -0.35813743
2.1943882 -0.48596156 -1.0899364
25.665958 -6.4628778 0.25645536
2.3629389 -0.52920175 -1.0847248
29.102634 -7.2975292 1.0182176
2.556607 -0.57892889 -1.0793433
2.8455567 -0.65477812 -1.094425
57.032902 -14.247416 4.8857751
3.3525693 -0.79041606 -1.1564208
3.5498066 -0.83841628 -1.1140692
3.908942 -0.93036681 -1.1004195
4.8091998 -1.1689894 -1.179564
5.9268723 -1.4634223 -1.2524693
9.5340071 -2.4255483 -1.6535292
10.397233 -2.6397755 -1.526058
1.425144 -0.28745264 -1.0310478
13.684937 -3.5375509 -1.6069031
1.5522175 -0.32169718 -1.0448003
26.431686 -6.9226518 -2.2882087
1.6946784 -0.36005843 -1.0598001
29.427006 -7.6726532 -1.8131576
1.8370508 -0.39788342 -1.0676301
25.44277 -6.5695033 -0.97038525
2.0220499 -0.44759846 -1.0857012
25.045046 -6.4211969 -0.35268646
2.1530564 -0.48106164 -1.0741507
25.668516 -6.5403972 0.26195925
2.373827 -0.53989375 -1.0887889
25.964588 -6.5723801 0.89790374
2.5381472 -0.58179659 -1.073326
55.178993 -14.039395 3.4073083
2.6643131 -0.61237103 -1.0391148
3.258934 -0.77453071 -1.1302675
3.5433755 -0.84770077 -1.1123805
3.9568079 -0.95582789 -1.1111947
9.5365496 -2.4550521 -1.6530629
10.401098 -2.6722062 -1.5254358
1.4460725 -0.29888099 -1.0425185
13.526335 -3.5381269 -1.5886207
1.5560569 -0.32834017 -1.0470361
26.389868 -6.9953165 -2.2809169
1.7071962 -0.36973399 -1.0660028
28.813858 -7.6012669 -1.7741234
1.8425499 -0.4059006 -1.0703351
25.438303 -6.6492715 -0.96546143
1.9543849 -0.4346388 -1.057896
25.073742 -6.5085697 -0.34771258
2.1728468 -0.49423498 -1.0820098
25.640646 -6.6148224 0.26729792
2.3845592 -0.55109274 -1.0928173
21.598373 -5.5111666 0.72647458
2.6147599 -0.61251038 -1.0988948
55.58976 -14.321564 3.4484034
2.8225896 -0.66675729 -1.0875528
58.499702 -14.978257 5.0471225
3.2655585 -0.78729099 -1.1321397
3.5143156 -0.85124928 -1.1049631
3.927273 -0.96060199 -1.1043215
4.4803524 -1.1076941 -1.1123453
5.6784034 -1.4318681 -1.2074463
9.5519104 -2.4899507 -1.6545205
10.419693 -2.7107058 -1.5266507
1.4175364 -0.29530835 -1.0276513
13.542436 -3.5859015 -1.588527
1.5667725 -0.33710587 -1.0527352
23.141596 -6.1900382 -2.0186362
1.7022305 -0.37422144 -1.0639591
28.802637 -7.6899061 -1.7686632
1.8339134 -0.40972614 -1.0667841
25.487619 -6.74368 -0.96222979
1.9402438 -0.43719858 -1.0522783
24.978521 -6.5629668 -0.34184772
2.0091612 -0.45329738 -1.0189301
25.68405 -6.7082219 0.27382046
2.3825507 -0.55862987 -1.0922796
21.623678 -5.5869408 0.73281854
2.6345208 -0.62713099 -1.1055988
2.8773739 -0.69215173 -1.1043833
49.828857 -12.894835 4.2919378
3.2368715 -0.7899403 -1.124155
50.940353 -13.097154 5.6338639
3.5375726 -0.86960536 -1.1108159
3.9015014 -0.96628135 -1.0983185
4.4823618 -1.1230185 -1.1125151
5.8692999 -1.5040033 -1.2409382
9.5233173 -2.5127318 -1.6492727
10.512751 -2.77002 -1.5374346
1.3856232 -0.29052171 -1.010981
13.552622 -3.632199 -1.5878339
1.560219 -0.34064579 -1.0497729
26.417103 -7.1709557 -2.275254
1.7181727 -0.38506258 -1.0718035
28.825804 -7.7880845 -1.7651291
1.8094121 -0.40870392 -1.0562047
25.530817 -6.8368568 -0.95880419
1.9848431 -0.4573493 -1.0710292
24.956543 -6.6367917 -0.33653885
2.1206264 -0.49356002 -1.0622586
24.800451 -6.5516768 0.26456779
2.3714559 -0.5634706 -1.0884861
25.495476 -6.6951737 0.89768273
2.6213231 -0.63217044 -1.1013666
21.795969 -5.6648297 1.2736434
2.7681296 -0.66984189 -1.0710965
51.418377 -13.474855 4.4479942
3.2601271 -0.80755037 -1.1306953
50.880196 -13.243865 5.6424894
3.5551558 -0.8864854 -1.1152407
3.8025024 -0.95076698 -1.0756363
4.6051245 -1.172879 -1.1371728
5.7886376 -1.5002739 -1.2262012
9.5060959 -2.5385914 -1.6457844
10.423988 -2.7789938 -1.5248985
1.3928752 -0.29777718 -1.0151901
13.261914 -3.5938416 -1.5560049
1.5398816 -0.33987969 -1.0398901
25.260824 -6.9314413 -2.1797497
1.6765894 -0.37829471 -1.0524681
1.781408 -0.40646774 -1.0440735
20.633512 -5.5636435 -0.80324835
1.9973358 -0.46803427 -1.0764802
21.426588 -5.7461152 -0.30756205
2.0810773 -0.48893833 -1.04719
24.799574 -6.6308603 0.27015489
2.3694091 -0.57097071 -1.087953
25.528728 -6.7858815 0.9053269
2.5715909 -0.62625355 -1.085005
2.8743377 -0.7106728 -1.1036669
51.280384 -13.602112 4.4502549
3.2443931 -0.81385177 -1.1263506
50.798481 -13.384739 5.6486721
3.5857298 -0.90729719 -1.122968
3.9212496 -0.99793941 -1.1025952
4.7408452 -1.2272847 -1.1644559
5.8520613 -1.5374322 -1.2370596
9.5439882 -2.5801213 -1.6507325
10.457481 -2.8221333 -1.5280617
1.4153999 -0.30990404 -1.0275587
13.668229 -3.7523499 -1.5963398
1.5453705 -0.34708565 -1.042992
25.266993 -7.013998 -2.1765578
1.6611606 -0.3794136 -1.0454966
25.291515 -6.9772134 -1.5615169
1.7886134 -0.41494906 -1.0475682
20.670448 -5.6401873 -0.80053777
1.9795762 -0.46951854 -1.0693886
21.462908 -5.8249846 -0.30338436
2.2012334 -0.53280354 -1.0939302
20.380768 -5.4889445 0.19849293
2.3619111 -0.57681775 -1.0854692
22.017914 -5.903348 0.76522058
2.5675323 -0.63379413 -1.0838246
21.511822 -5.7272911 1.2665633
2.8681805 -0.71855396 -1.1019055
51.419014 -13.803775 4.4773254
3.2156892 -0.81621188 -1.1183909
50.192383 -13.383972 5.5949574
3.5789435 -0.91727525 -1.1212372
3.9966505 -1.0331457 -1.1196804
4.8197651 -1.2659841 -1.1802288
5.6464534 -1.496938 -1.2001911
9.5760174 -2.6202459 -1.6547968
10.425938 -2.8468874 -1.5229086
1.4397283 -0.32214695 -1.0408645
13.725123 -3.8076158 -1.6007049
1.5785137 -0.36242598 -1.0599704
1.684178 -0.39183015 -1.0566776
29.868217 -8.350194 -1.8084518
1.7713675 -0.41511828 -1.0401835
25.343534 -7.0196047 -0.93942517
1.9851171 -0.4773187 -1.071941
21.283489 -5.8354664 -0.29834372
2.2138519 -0.54339296 -1.0990448
20.396597 -5.5512457 0.20284043
2.3546453 -0.58175153 -1.0830513
22.057564 -5.9768715 0.77167028
2.457953 -0.60821658 -1.047562
21.168882 -5.6938353 1.2490004
2.8604603 -0.72479975 -1.0996599
49.726818 -13.485325 4.3378134
3.3020463 -0.85169524 -1.1425915
50.216923 -13.532683 5.611331
3.6171913 -0.93926316 -1.1309294
3.9711435 -1.0373282 -1.1137899
4.6767874 -1.2378886 -1.1510788
5.7803507 -1.5525529 -1.2236164
9.625947 -2.6621778 -1.6616979
10.464008 -2.8876967 -1.5268112
1.4264266 -0.32335949 -1.0341654
13.649827 -3.8326221 -1.591134
1.5632273 -0.36350048 -1.0526692
1.632149 -0.38163584 -1.0324183
73.361809 -20.966066 -4.1774416
1.8012704 -0.43115473 -1.053794
25.695829 -7.206583 -0.94512457
1.972571 -0.48071855 -1.0670443
21.428053 -5.9491286 -0.29460174
2.2296622 -0.55641288 -1.1054542
25.4394 -7.0460057 0.29808623
2.3560333 -0.59075719 -1.0837936
21.545368 -5.9082608 0.75583053
2.5558431 -0.64723122 -1.0802929
21.149969 -5.760859 1.2537379
2.8339229 -0.72697645 -1.0916928
49.298611 -13.535498 4.314177
3.269407 -0.85355622 -1.1335566
49.779369 -13.582775 5.5774279
3.5654747 -0.9364925 -1.1178325
3.9506481 -1.0452132 -1.1090375
4.8644285 -1.3102515 -1.1888785
5.6673536 -1.5391939 -1.2031986
9.6249218 -2.6949582 -1.660697
10.475602 -2.9270163 -1.5271446
1.4455119 -0.33440256 -1.0447227
13.858466 -3.9355569 -1.611057
1.5326687 -0.35890836 -1.0376406
1.6168282 -0.38219702 -1.0254883
21.208683 -6.024313 -1.3273032
1.8330535 -0.44724321 -1.0682209
24.321314 -6.8871536 -0.89932507
1.9283215 -0.47321695 -1.0489489
2.2241817 -0.56195009 -1.1035978
25.194071 -7.0530849 0.29903978
2.3648651 -0.60115564 -1.0871962
21.468491 -5.9519095 0.75757647
2.5573235 -0.65593255 -1.0809695
21.328911 -5.87568 1.2709689
2.811363 -0.7290951 -1.0849332
49.725361 -13.804384 4.3661904
3.2759187 -0.86593622 -1.1354651
48.810852 -13.463485 5.4803891
3.5178919 -0.93326622 -1.1057919
3.9511225 -1.0577908 -1.1090823
4.638598 -1.2574136 -1.1429688
5.7326198 -1.5763228 -1.2144431
9.6456242 -2.7305744 -1.6631176
10.606136 -2.997663 -1.5428112
1.4356631 -0.33639622 -1.0398592
13.880876 -3.9871182 -1.6116799
1.520926 -0.36058658 -1.0321043
1.650004 -0.39869797 -1.0415509
1.8190728 -0.44920975 -1.0623496
21.164919 -6.0432429 -0.80048865
1.9655064 -0.49185771 -1.0647072
21.177382 -6.0105724 -0.28462881
2.1845911 -0.5570938 -1.0885503
25.036015 -7.0887542 0.30182189
2.3699234 -0.61091119 -1.0892665
25.362507 -7.1393609 0.92893678
2.5349922 -0.65770805 -1.0737484
