# .PCD v0.7 - Point Cloud Data file format
VERSION 0.7
FIELDS x y z
SIZE 4 4 4
TYPE F F F
COUNT 1 1 1
WIDTH 1479
HEIGHT 1
VIEWPOINT 0 0 0 1 0 0 0
POINTS 1479
DATA ascii
18.124149 -14.330712 -2.8744109
0.24412775 1.1794449 -0.99872673
22.263113 -17.888376 -2.7428226
0.31604874 1.1179467 -0.99087644
22.645128 -18.177435 -2.0509293
0.40491211 1.0415277 -0.98867732
0.49056232 0.96831703 -0.97885716
6.8389926 -4.4589911 -0.26665506
0.71204281 0.77436543 -1.0336862
6.4707217 -4.1279249 -0.027287684
0.84642315 0.65868008 -1.0324963
6.5861292 -4.2135658 0.21085185
1.0445997 0.48692966 -1.0505314
6.6594825 -4.2628546 0.45121399
1.16145 0.38782763 -1.0236838
6.8028378 -4.3717575 0.70342004
1.4592379 0.1293807 -1.0571489
6.4618349 -4.0665293 0.90213501
1.6871947 -0.066426277 -1.0475861
7.2130527 -4.6930475 1.2579792
2.1389647 -0.45819378 -1.0928339
19.654516 -15.254954 3.9399137
2.6341686 -0.88642073 -1.121582
3.2588115 -1.4260995 -1.1495357
21.523434 -16.76202 5.717875
4.2562108 -2.2891519 -1.2169923
46.589283 -37.893768 13.669706
4.9949956 -2.9232399 -1.1772994
6.9866495 -4.4268446 2.4890633
0.15353644 1.2510482 -0.99167031
18.079725 -14.397326 -2.8720179
0.25914168 1.1583949 -1.0108337
22.078438 -17.855217 -2.7248733
0.30684841 1.1184005 -0.9872607
0.42266262 1.0172004 -1.0011728
0.54965019 0.90641797 -1.0132936
0.70298612 0.77245903 -1.0312246
6.439651 -4.1424694 -0.026030682
0.83274734 0.66015041 -1.0281365
6.5532217 -4.22719 0.21174034
1.0402375 0.4789753 -1.0507689
6.6490512 -4.2963076 0.45338401
1.2325541 0.31204057 -1.0545814
20.520191 -16.224693 2.1186936
1.4681846 0.10731626 -1.0625747
6.4398289 -4.088954 0.90330362
1.7827021 -0.16644621 -1.0818751
7.1905107 -4.7191334 1.2594866
2.0732646 -0.41792488 -1.0748973
20.527195 -16.11488 4.1254206
2.5932379 -0.87084961 -1.1125168
3.2352295 -1.4293063 -1.1459192
21.729431 -17.060877 5.7910438
4.3901877 -2.4363387 -1.2468222
6.5668654 -4.1290064 2.1166916
4.9830084 -2.9462082 -1.176985
6.9409781 -4.4321671 2.4829049
0.1465888 1.2511656 -0.98869956
18.042366 -14.458486 -2.8702364
0.25985324 1.1510077 -1.0132622
21.905655 -17.817047 -2.707953
0.30883658 1.109624 -0.99039578
0.43123055 1.0019022 -1.0081085
23.407291 -19.047834 -1.3505968
0.54705083 0.90060544 -1.0137843
6.6326413 -4.3612213 -0.26065031
0.74168313 0.72866786 -1.0529922
6.4455295 -4.1844816 -0.024556361
0.77482319 0.70269287 -1.002445
6.5407243 -4.2537537 0.21322325
1.0506364 0.45908177 -1.0572872
6.6363139 -4.3231344 0.4550682
1.228356 0.30429459 -1.0547875
19.534721 -15.47705 2.0257635
1.4605535 0.10147548 -1.0616285
6.4215498 -4.1099806 0.90451729
1.7540349 -0.155092 -1.0740665
7.1764183 -4.7474461 1.261815
2.1384597 -0.49152565 -1.0966239
20.08337 -15.838452 4.0520844
2.4919839 -0.79915094 -1.0867649
7.7783184 -5.2344322 1.9159549
3.2719221 -1.4831076 -1.1565355
46.107056 -38.059597 12.124705
4.2555084 -2.3442762 -1.2207083
5.0173912 -3.0063875 -1.1846497
0.13460803 1.2563238 -0.98204958
17.951126 -14.466186 -2.8604746
0.27001345 1.1353605 -1.0218751
21.739721 -17.776749 -2.6916499
0.30027521 1.1108593 -0.98682564
23.256243 -19.071939 -2.1037486
0.42232847 1.0028632 -1.0046893
23.354431 -19.114382 -1.3470644
0.56799245 0.87391198 -1.0271173
6.5834355 -4.3537035 -0.25886205
0.69871211 0.75902271 -1.0328006
6.5456619 -4.3069563 -0.022122793
0.84888268 0.62702525 -1.0395575
6.5277944 -4.2776575 0.214564
0.97660005 0.51585209 -1.0264125
1.1732591 0.34305501 -1.0341632
19.410891 -15.464204 2.0209179
1.4274853 0.11927772 -1.0510842
7.3882675 -4.9842987 1.038299
1.6984378 -0.11852336 -1.0569925
2.1834269 -0.54674196 -1.1121391
20.772505 -16.531908 4.2004933
2.5335317 -0.8528595 -1.0997967
7.7445755 -5.2460852 1.9142288
3.2163916 -1.4539139 -1.1449283
21.946016 -17.463444 5.8823724
4.1960392 -2.3162234 -1.2100637
4.8862486 -2.9184096 -1.1630645
0.16532445 1.2214171 -1.0058416
17.85269 -14.478782 -2.850143
0.23872685 1.1568578 -1.0031331
21.561253 -17.738306 -2.674264
0.25920701 1.1411067 -0.96308053
0.41974318 0.99714422 -1.0052284
0.56641185 0.86650372 -1.0283427
6.5904498 -4.4002457 -0.25808427
0.69267511 0.75498557 -1.0317844
0.83407247 0.63016319 -1.0345545
6.5064521 -4.2989111 0.21580049
1.0261172 0.45993733 -1.0503681
6.6210737 -4.3859568 0.45919904
1.2170461 0.29139376 -1.0540441
1.3837503 0.14541388 -1.0367582
1.6724585 -0.10989666 -1.0501562
6.8308721 -4.5274954 1.2137063
2.1415672 -0.52643299 -1.1013641
20.672245 -16.559074 4.1956773
2.4745183 -0.81907272 -1.0856169
7.6619978 -5.2206306 1.9021021
3.1509371 -1.4180562 -1.1311339
21.814749 -17.470118 5.8677554
4.2279844 -2.3726733 -1.2186886
4.9387908 -2.9967864 -1.1740689
6.5395689 -4.2037926 2.3755376
0.15312111 1.2263602 -0.99917972
17.736498 -14.46911 -2.8370225
0.20645452 1.1799734 -0.98353297
21.400036 -17.707027 -2.6586738
0.30390608 1.0930219 -0.99308062
0.41197205 0.99666095 -1.0025953
6.6391954 -4.4955664 -0.4988561
0.58825207 0.8380785 -1.0424026
6.5610552 -4.4123592 -0.25664803
0.684147 0.75380564 -1.0293661
6.5863433 -4.4210978 -0.01869043
0.85855412 0.59808636 -1.0482588
6.4952049 -4.3267212 0.2173388
1.0195004 0.45532203 -1.0494058
6.5735993 -4.3823709 0.4583433
1.1844631 0.3094492 -1.0426769
1.4432887 0.078919172 -1.0609384
1.6828998 -0.13321757 -1.0555828
6.8754611 -4.6058884 1.2256905
2.1827903 -0.57990146 -1.1159425
20.51136 -16.526026 4.1779289
2.6810884 -1.0233197 -1.1440482
7.32125 -4.9663792 1.830156
3.3043475 -1.5774045 -1.1699648
21.735989 -17.514765 5.8656354
4.2589998 -2.4271019 -1.227048
6.5111599 -4.2310553 2.1272304
5.0479593 -3.1247699 -1.195037
6.5866871 -4.2824354 2.3982625
0.12870347 1.2416154 -0.98418039
17.620667 -14.476657 -2.8246617
0.16846716 1.2074904 -0.96038109
21.227306 -17.685318 -2.6422939
0.29181862 1.0958188 -0.98778081
0.38736475 1.0103904 -0.9903577
6.6358118 -4.5384607 -0.49836662
0.58739352 0.82875323 -1.0443448
5.9003396 -3.8673337 -0.24279687
0.70366251 0.7251215 -1.0418189
6.5607562 -4.4438438 -0.017265342
0.82368326 0.6184516 -1.0338812
6.3817782 -4.2707672 0.21486956
0.97689354 0.48176408 -1.0328124
6.5659461 -4.4210186 0.46090671
1.0916592 0.38081408 -1.0069529
6.6667576 -4.496707 0.70981449
1.4258791 0.079645872 -1.0567188
1.6432227 -0.11363268 -1.0443016
6.7240338 -4.519351 1.2057618
2.1299024 -0.55133653 -1.1020093
22.581873 -18.478104 4.6067247
2.4915576 -0.87369418 -1.0943304
7.2831001 -4.9825811 1.8286866
3.1455679 -1.4597068 -1.1338813
41.970318 -35.404945 11.197968
4.2168989 -2.4209063 -1.2205114
6.5401154 -4.3013296 2.1438177
4.988709 -3.1078417 -1.1865686
6.4864855 -4.240222 2.3743961
0.13989317 1.2248566 -0.99413234
17.503389 -14.464578 -2.8113961
0.22693467 1.1463027 -1.0015754
21.074205 -17.659147 -2.6276438
0.26448393 1.1142691 -0.97245955
0.37830782 1.0112723 -0.9869349
6.4917922 -4.4476414 -0.49082372
0.5832094 0.82407832 -1.0440764
0.68273759 0.73537815 -1.0330079
6.574419 -4.4945517 -0.015652798
0.81475818 0.61696076 -1.0315746
6.2990785 -4.2342796 0.21329731
1.0150317 0.43603945 -1.0517815
6.9012661 -4.7590094 0.48848292
1.1594433 0.30728412 -1.0366771
6.5938025 -4.4705915 0.70540529
1.4238645 0.068725586 -1.0579182
1.6392676 -0.1238668 -1.0448421
6.5635314 -4.4160118 1.1833006
2.005352 -0.45364714 -1.0655713
20.117037 -16.412403 4.1302209
2.485528 -0.88630843 -1.0945545
7.2739592 -5.0164299 1.8327633
7.0028191 -4.7618771 2.0277071
4.2197647 -2.4503009 -1.2230355
6.5371256 -4.336874 2.1498024
5.0572577 -3.2007267 -1.2004517
6.4427037 -4.2396374 2.3674836
0.15100253 1.2080275 -1.0040805
17.401009 -14.465369 -2.800303
0.2105515 1.1549364 -0.99255913
20.908144 -17.62022 -2.611527
0.26505291 1.1067613 -0.97475892
0.38265491 0.99965155 -0.99147832
6.5216665 -4.5130348 -0.4920831
0.56412148 0.83332992 -1.0355231
5.8802395 -3.9196646 -0.24084929
0.70837522 0.70238638 -1.0483474
6.4393458 -4.4114437 -0.015823476
0.80583823 0.61550546 -1.0292706
0.94567168 0.48965633 -1.0228174
6.7682967 -4.679883 0.4813287
1.1285182 0.32443547 -1.0259119
6.4987836 -4.4241629 0.69861603
1.4133149 0.065648317 -1.0559161
6.2848969 -4.2190552 0.90887558
1.5796741 -0.082818985 -1.0263363
6.5576053 -4.4492903 1.1867751
2.0722136 -0.53094339 -1.0881271
6.6109047 -4.4829588 1.4388481
2.5949397 -1.0049801 -1.126614
7.3235912 -5.1026707 1.8505169
3.0242844 -1.3914695 -1.1082407
7.1644144 -4.9460115 2.0770597
4.199173 -2.4584076 -1.2206571
6.5091429 -4.3504505 2.1484284
4.8133883 -3.00928 -1.1588546
6.4295406 -4.265871 2.3706064
0.11310458 1.2375451 -0.97898674
1.5329806 -0.023383856 -0.49122205
0.21900618 1.1401983 -1.0002745
1.5353626 -0.020754576 -0.40748933
0.25766933 1.1067197 -0.972027
0.37225878 1.0018334 -0.98726237
6.2143111 -4.2718439 -0.47631773
0.55589676 0.83252501 -1.0329998
5.843411 -3.921612 -0.2393693
0.71065867 0.69098055 -1.0516101
6.5225539 -4.5251465 -0.013370328
0.80518711 0.60635722 -1.0309671
6.2470937 -4.2620382 0.21500772
0.99056113 0.43729365 -1.0448891
6.7291842 -4.6844091 0.4811388
1.135533 0.30650926 -1.0307589
6.3937211 -4.3679123 0.69069594
1.3124002 0.14659214 -1.0197837
6.2277989 -4.2050524 0.90475082
1.5146347 -0.036184549 -1.0058963
6.6932826 -4.6098671 1.2142581
1.6061896 -0.11585379 -0.94584894
6.5634351 -4.4794006 1.434456
1.5028182 -0.015218258 -0.82695669
6.362289 -4.2854633 1.632874
1.5053674 -0.012613773 -0.74101281
1.510646 -0.012597322 -0.65699482
6.6750603 -4.5366497 2.2046585
1.5100666 -0.0072281361 -0.57235825
6.4540257 -4.3256264 2.3861718
0.13939226 1.2057976 -0.99998504
0.22328007 1.1288908 -1.0053334
0.28168643 1.0764686 -0.98940194
0.38030314 0.98614502 -0.99417794
0.52856755 0.84928799 -1.0199226
5.8498135 -3.9650805 -0.23867133
0.64458752 0.74337745 -1.0193696
6.4562311 -4.5059042 -0.012650751
0.84815109 0.55551922 -1.0539609
6.1445365 -4.2084093 0.21260527
0.93783653 0.47537112 -1.0233926
6.7346864 -4.7317581 0.4844701
1.1504978 0.28028774 -1.039047
6.4030547 -4.416893 0.6951195
1.3904198 0.060502291 -1.0513626
6.1549368 -4.1786947 0.89863908
1.4948534 -0.031984806 -1.0010643
6.8091903 -4.756671 1.2388607
1.4961387 -0.028154373 -0.9135108
6.5060244 -4.4690094 1.4283481
1.4900826 -0.017561197 -0.82492769
6.3172383 -4.2851915 1.6283189
1.4940349 -0.01628828 -0.73951834
6.9446087 -4.8349457 2.03283
1.4978245 -0.014936924 -0.65533072
6.6409621 -4.5480013 2.2020776
1.5059613 -0.017628908 -0.57243699
0.16315007 1.1765631 -1.0191436
1.4929515 -0.014141321 -0.48652121
0.23419964 1.1115683 -1.0148034
0.29525816 1.0563411 -1.000078
0.38717794 0.97192097 -1.0003095
6.4480023 -4.5642605 -0.48763755
0.49891472 0.86902845 -1.005365
5.8497672 -4.0006647 -0.23789957
0.69308293 0.68836677 -1.0467626
0.79662716 0.59418488 -1.0310113
6.0833068 -4.1894388 0.21186322
0.9547807 0.44884324 -1.0330167
6.6011982 -4.6498575 0.4771181
1.1322383 0.28586292 -1.0334935
6.3235092 -4.3827209 0.68983817
1.3953315 0.043031931 -1.0552309
6.0952153 -4.1614265 0.89406896
1.4783572 -0.029896975 -0.99723911
6.6479969 -4.6506433 1.2160658
1.4809955 -0.027364492 -0.91044354
6.4558158 -4.4623375 1.4233338
1.4749013 -0.016726494 -0.8221333
6.2997351 -4.3072224 1.6298445
1.480234 -0.016782999 -0.73734993
6.9531546 -4.8837137 2.0418785
1.4796356 -0.011387825 -0.65247369
6.6052008 -4.5552549 2.1985433
1.4891528 -0.015430212 -0.57020551
6.3276901 -4.291214 2.3599093
0.15589702 1.1765469 -1.0161674
1.4844369 -0.020450354 -0.48587081
0.23187947 1.1063988 -1.0154591
1.4910833 -0.021893501 -0.4035143
0.26527846 1.0773925 -0.98308712
0.37519658 0.97516048 -0.99528676
6.999197 -5.1163645 -0.51518118
0.50127745 0.85791957 -1.0088586
5.7779822 -3.9723365 -0.2357361
0.70716703 0.66501939 -1.0563906
6.112226 -4.2684546 -0.01408162
0.79284847 0.58729863 -1.0313584
6.0549035 -4.2025728 0.21268269
0.93404043 0.45718801 -1.0258354
6.4199696 -4.5253439 0.46621934
1.1122788 0.29245472 -1.0273464
6.2856293 -4.3885345 0.68919432
1.368946 0.054218531 -1.0473545
6.0432992 -4.1531878 0.89078116
1.4586569 -0.025519609 -0.99241829
6.6956797 -4.7365274 1.229165
1.4640425 -0.025618792 -0.9069128
1.4607598 -0.017614126 -0.8197149
6.2722292 -4.3225451 1.6293826
1.4660364 -0.017667055 -0.73515987
1.4639589 -0.010903835 -0.65020704
6.5754514 -4.5702658 2.1972451
1.4734107 -0.014959574 -0.56821251
6.3116884 -4.3171873 2.3626063
0.13336718 1.1913993 -1.0021389
1.4788107 -0.029449224 -0.48564833
0.2308321 1.0999835 -1.016995
1.4868954 -0.032278776 -0.40341082
0.23804235 1.0960859 -0.96778136
6.5432205 -4.7499266 -0.73744166
0.36721015 0.9746393 -0.99265355
6.6085944 -4.7968836 -0.4952592
0.48355126 0.86604953 -1.0010681
5.7327833 -3.9681561 -0.23408625
0.69683945 0.66487789 -1.0532514
6.1085811 -4.3047581 -0.012655638
0.81902301 0.55173111 -1.0463462
5.988369 -4.1802683 0.2117826
0.97660911 0.40524256 -1.0472362
6.2630076 -4.4215097 0.45705584
1.0771273 0.31367922 -1.0148587
6.307847 -4.449625 0.69503587
1.3803657 0.029671907 -1.053861
6.0207639 -4.1716576 0.89157736
1.4544822 -0.035733223 -0.99296302
6.6027026 -4.6938276 1.2181793
1.4598681 -0.035863638 -0.90736604
6.4611087 -4.549881 1.4353901
1.4566079 -0.027863264 -0.82007778
6.2229052 -4.3178005 1.6237661
1.4647478 -0.030645847 -0.73613155
6.8409977 -4.8692417 2.0263295
1.4627002 -0.023894787 -0.65099585
6.5543375 -4.5930529 2.1985438
1.4735929 -0.02935195 -0.56907505
6.3214459 -4.3666477 2.3739333
0.12256229 1.1954246 -0.99641848
1.482253 -0.046174288 -0.48672763
0.22997344 1.0937934 -1.0185438
1.4714767 -0.031284571 -0.40200284
0.26064944 1.0670743 -0.98431849
6.5321422 -4.7793856 -0.73695219
0.37396717 0.96035922 -0.99878269
6.5346546 -4.7677593 -0.49132225
0.46080697 0.87969327 -0.99029076
5.7135987 -3.985811 -0.23297665
0.70566094 0.64691567 -1.060056
6.4480057 -4.6592264 -0.0067737922
0.81406605 0.5464114 -1.0460434
5.882226 -4.1182508 0.20894268
0.96301544 0.40738511 -1.0431826
6.217567 -4.4175529 0.45620057
1.1530811 0.22946954 -1.0485427
6.4668641 -4.6357594 0.71557075
1.314037 0.080082178 -1.0305856
6.0766821 -4.2604752 0.90317404
1.4562958 -0.050858021 -0.99548125
6.4617581 -4.6035156 1.1985445
1.4588951 -0.048352003 -0.9087289
6.3949285 -4.5280657 1.4270794
1.4570953 -0.041717052 -0.82165617
6.1806593 -4.3168964 1.619436
1.4609636 -0.040483475 -0.73642719
6.8232131 -4.8940821 2.0283699
1.4689809 -0.043249369 -0.65333402
6.5574212 -4.6355619 2.2067113
1.474131 -0.043319464 -0.56996238
6.700243 -4.7518559 2.5085154
0.13693392 1.1744206 -1.0091053
1.4750987 -0.053807735 -0.4862937
0.22502375 1.0911387 -1.0174423
1.455664 -0.030668259 -0.40057388
0.29458106 1.0262678 -1.0083691
0.37121618 0.95474088 -0.99933094
6.4291606 -4.7108021 -0.48579571
0.44586957 0.88543355 -0.98401546
5.7121882 -4.0224085 -0.23215261
0.69933617 0.64290202 -1.0590453
6.543694 -4.7910919 -0.0039372668
0.79116392 0.55782819 -1.0370779
5.8555651 -4.132081 0.20978591
0.99287546 0.36696696 -1.0589771
1.1565109 0.21352768 -1.0522009
6.4516859 -4.6636152 0.71748066
1.3087577 0.071630478 -1.0307132
6.1775422 -4.3943224 0.92143691
1.4534303 -0.062424898 -0.99651319
6.4392958 -4.6245804 1.1995672
1.4602727 -0.063995838 -0.91094971
6.3480062 -4.5260725 1.4229881
1.4585248 -0.057390928 -0.82360488
6.1430702 -4.3224277 1.6165406
1.4638501 -0.057559013 -0.73844999
6.7882099 -4.905611 2.0262039
1.4618691 -0.050836802 -0.65290266
6.5949311 -4.7125807 2.2258227
1.4785029 -0.061854362 -0.57159948
6.7042327 -4.7987032 2.5184746
0.12486076 1.1797278 -1.0024668
1.4784211 -0.070577621 -0.48737147
0.23053014 1.0786505 -1.0233862
1.4402982 -0.029535294 -0.39917484
0.27927732 1.0338613 -1.0006171
0.38835227 0.9301163 -1.0118139
6.513845 -4.8307571 -0.48985806
0.43520582 0.88762939 -0.98001468
5.6986756 -4.0454884 -0.23115602
0.65714705 0.67448342 -1.0389282
0.82677686 0.51312053 -1.0567242
5.8402138 -4.1541948 0.21101883
0.9628557 0.38500857 -1.0474777
6.2493544 -4.526597 0.46411774
1.1602408 0.19794178 -1.0558798
6.4391108 -4.6914873 0.71947145
1.342652 0.026081085 -1.0457538
6.7796574 -4.9968882 1.0106279
1.4565235 -0.078939199 -0.99951655
6.4875717 -4.7093153 1.2125949
1.4634088 -0.080574274 -0.91363615
6.4151506 -4.6278362 1.4420315
1.4631344 -0.075363398 -0.82637
6.1542797 -4.3708534 1.6249095
6.8435802 -4.9984436 2.0480955
1.4665798 -0.068892241 -0.65493357
6.7993145 -4.9425697 2.2953129
1.4789144 -0.075873852 -0.57248485
0.092654467 1.2051002 -0.98110533
1.4845401 -0.090139151 -0.48887116
0.23725569 1.064858 -1.0302069
1.4249569 -0.028336048 -0.39777994
0.28470612 1.0211087 -1.006258
6.4710484 -4.8442049 -0.73327172
0.38575268 0.92470622 -1.0123746
6.1538301 -4.5278215 -0.47157064
0.47744167 0.83790326 -1.0060701
5.6894302 -4.0726824 -0.23024097
0.6632154 0.65913773 -1.0443174
6.3193583 -4.658679 -0.0040716752
0.83115292 0.49854541 -1.0610737
0.93838918 0.39788675 -1.0384687
6.1182575 -4.4414024 0.45656958
1.1611577 0.18499136 -1.0584047
14.827456 -12.653065 1.6452767
1.3196419 0.0354352 -1.0389916
1.4261314 -0.063065767 -0.99084699
6.5079679 -4.768549 1.2208515
1.98075 -0.59524322 -1.0782406
6.3462467 -4.6027861 1.4330908
6.2371511 -4.4867563 1.6504879
6.7584095 -4.9459972 2.2904739
0.11445224 1.1765096 -0.99931049
16.457851 -14.548598 -2.7029791
0.22968614 1.0647281 -1.0273488
1.4006075 -0.019214392 -0.39537203
0.28726733 1.0106351 -1.0102102
0.36463308 0.93712878 -1.0018021
6.1016507 -4.5188274 -0.46876195
0.50201595 0.80459177 -1.0223318
0.65027571 0.66182816 -1.0397757
5.7778826 -4.1832581 -0.010133587
0.8109417 0.5074147 -1.0534436
5.8226056 -4.2133255 0.2142137
0.98150122 0.34391761 -1.0604526
6.1051106 -4.4696579 0.45834687
1.1342877 0.19843864 -1.0493896
14.727567 -12.648046 1.6418819
1.3059503 0.035045147 -1.0359312
19.217838 -16.876637 2.7957397
1.4509612 -0.10168123 -1.0016052
6.522491 -4.8251953 1.2284352
1.9581145 -0.59071517 -1.0733163
6.3453197 -4.6438808 1.4385163
2.3122778 -0.9291141 -1.068441
6.1934571 -4.4869032 1.6462116
6.7086887 -4.9581203 2.0257308
3.804224 -2.3608506 -1.1574087
6.7873917 -5.0174351 2.3074663
4.6107893 -3.1312044 -1.1408062
6.6183872 -4.844099 2.5145605
0.090773344 1.1928593 -0.98437726
16.342445 -14.5425 -2.6905775
0.21428847 1.0720322 -1.0192105
1.3959609 -0.029816389 -0.39525953
0.28055298 1.0088832 -1.0082932
7.209259 -5.6465492 -0.79546511
0.33555532 0.95718896 -0.9864583
6.1375599 -4.5968819 -0.47037563
0.5077424 0.78914273 -1.0280564
5.8213468 -4.2790594 -0.23097959
0.53882432 0.76178801 -0.98285133
5.722621 -4.1715317 -0.0094082579
0.78243995 0.52402449 -1.0418164
5.8306437 -4.2626953 0.21678606
0.96851242 0.34411025 -1.0569861
6.1771774 -4.5820208 0.46700904
1.1057824 0.21298838 -1.0397857
1.2698892 0.055941343 -1.0243548
19.294895 -17.072182 2.81916
1.4114884 -0.078375578 -0.98998046
6.5728173 -4.9188967 1.2426661
1.9001962 -0.55246568 -1.0573514
6.2039266 -4.5541697 1.4150673
2.2754297 -0.91371942 -1.0603267
6.1743426 -4.5125227 1.6481967
2.8545089 -1.4725657 -1.0886545
6.6993971 -4.9961414 2.0310202
3.80935 -2.3954842 -1.1607935
6.6784825 -4.9617872 2.2827353
4.6391702 -3.1932948 -1.1480448
6.5541472 -4.8297462 2.5019834
0.10404515 1.1733724 -0.99615991
16.235983 -14.526813 -2.6787217
0.18946683 1.090292 -1.004091
1.3825363 -0.02937746 -0.39406678
0.27324903 1.0091612 -1.0055822
7.1726074 -5.6529074 -0.79293561
0.36048806 0.92487645 -1.0037111
6.1279507 -4.624114 -0.46974096
0.49715805 0.79152 -1.0240669
5.778059 -4.2720823 -0.22949782
0.61285627 0.67958343 -1.0243535
5.7126245 -4.1962948 -0.0082980916
0.74429238 0.55240571 -1.0249416
5.8477035 -4.314106 0.21942836
0.94443667 0.35749459 -1.048007
6.1027355 -4.5470219 0.46364412
1.1111315 0.19646525 -1.044065
1.2899884 0.024011612 -1.0340925
20.773817 -18.593449 3.0424488
1.4466041 -0.12580156 -1.0041803
7.0306644 -5.3958502 1.3279549
1.9274064 -0.59450293 -1.0679231
6.1869121 -4.5746527 1.4164459
2.2949119 -0.94999766 -1.0677334
6.1616669 -4.5370083 1.6506517
2.8937678 -1.5311379 -1.100296
6.6484284 -4.9868193 2.0235863
3.7857184 -2.3972013 -1.1576437
6.6305122 -4.9552832 2.2751713
4.6247468 -3.2082441 -1.1472002
6.5122461 -4.8284426 2.4954166
0.12201035 1.1485399 -1.011605
16.119717 -14.506709 -2.6656704
0.16958439 1.1033403 -0.99247748
1.3658653 -0.026525021 -0.39252383
0.26061118 1.0143958 -0.99951601
18.829231 -17.091387 -1.7606107
0.34621823 0.93125486 -0.99713421
5.9253211 -4.4655666 -0.4594194
0.48763657 0.7923528 -1.0208154
5.7623553 -4.2940149 -0.22846839
0.6346699 0.64834213 -1.0382315
5.8032169 -4.3211975 -0.0056328699
0.6473217 0.6393832 -0.97885621
6.8748183 -5.3480759 0.26988116
0.96584952 0.32495093 -1.0600764
6.2410593 -4.7198801 0.47732207
1.0305642 0.26470566 -1.0120832
1.2849249 0.016022682 -1.0342492
19.889992 -17.858927 2.9267354
1.448012 -0.14106846 -1.0066942
1.9331163 -0.61663437 -1.071852
6.1443677 -4.5730677 1.4128113
2.3847585 -1.0572939 -1.0952418
6.126358 -4.5422859 1.6480011
2.941885 -1.600322 -1.114329
6.5990939 -4.9813366 2.0169954
3.7838249 -2.4218667 -1.159304
6.7718625 -5.1319447 2.3265295
4.6036639 -3.2185848 -1.1452738
6.4677176 -4.8269529 2.4884324
0.073746324 1.1906109 -0.97830462
16.006435 -14.494657 -2.653326
0.13823223 1.1278092 -0.97295886
1.3530706 -0.028222084 -0.39145488
0.27200532 0.99485779 -1.0093193
18.686386 -17.066261 -1.7502004
0.34851444 0.92046618 -1.0008613
0.46352124 0.80745101 -1.009298
5.7611284 -4.3325014 -0.22765186
0.62046826 0.65253592 -1.0329943
5.9320083 -4.4870243 -0.002274476
0.7486763 0.52715397 -1.0316466
19.89839 -18.103521 0.89090949
0.93039668 0.34851694 -1.0461102
6.4100881 -4.9269142 0.49374732
1.0717884 0.21096087 -1.0318533
1.2685245 0.018541098 -1.0301402
5.8845897 -4.3893986 0.90725458
1.4489211 -0.15680575 -1.009182
1.7834285 -0.485111 -1.0264612
6.1006579 -4.5725622 1.4092361
2.260736 -0.95419836 -1.0622971
2.9833646 -1.6649654 -1.1269107
6.4948521 -4.9252777 1.9956146
4.0281758 -2.6922843 -1.214247
6.8714886 -5.2729883 2.365798
4.5999327 -3.2479699 -1.146639
6.3911495 -4.7970314 2.4709129
0.087716937 1.1693522 -0.99097902
15.88351 -14.472259 -2.6395431
0.12586784 1.133168 -0.96661192
1.3374575 -0.027056456 -0.39006117
0.25279057 1.0064039 -0.99906594
18.543884 -17.040443 -1.7398337
0.34176052 0.9188261 -0.99903512
6.0853014 -4.7050228 -0.46713701
0.43820584 0.82400072 -0.99703825
0.51568866 0.74874437 -0.97898793
5.6335602 -4.2343664 -0.0052892491
0.74598682 0.51902688 -1.0326668
20.135555 -18.458281 0.90865576
0.90312397 0.36416578 -1.0358694
6.3483377 -4.9100142 0.49179164
1.0978845 0.17191982 -1.0452874
6.1622257 -4.7143574 0.71321458
1.2902218 -0.0171628 -1.040881
5.8386588 -4.3850794 0.90468693
1.4415485 -0.16431761 -1.0087593
5.7652721 -4.3008108 1.118559
1.9886748 -0.70769548 -1.0941577
6.0924616 -4.6063194 1.4131318
2.285665 -0.99877453 -1.0716013
2.843329 -1.548991 -1.0941664
6.4628725 -4.938261 1.9941453
3.8943014 -2.588794 -1.1876589
6.7303982 -5.1826897 2.3304672
4.5960836 -3.2773769 -1.1480039
6.3316007 -4.7828875 2.4591525
0.1114645 1.1377947 -1.0110003
15.765061 -14.453521 -2.626426
0.16864169 1.0818579 -0.9988668
1.3218695 -0.025823355 -0.38867185
0.24505866 1.0063303 -0.99633628
18.480932 -17.092838 -1.7361012
0.34782934 0.90406954 -1.0051404
5.9083223 -4.5713444 -0.45812622
0.43503153 0.81814682 -0.99753362
0.49527729 0.76002312 -0.97024071
5.5598655 -4.2008419 -0.0049939975
0.7406193 0.51359034 -1.0323613
15.245051 -13.752885 0.67988569
0.86661768 0.38944435 -1.0213054
6.3265619 -4.9320707 0.49303135
1.1062852 0.15043807 -1.0512431
5.8525124 -4.4520569 0.68173254
1.2656459 -0.0063736439 -1.0335957
1.4396101 -0.17732739 -1.0102769
5.7409248 -4.3170013 1.1189421
1.9247235 -0.66139364 -1.0760614
2.2882447 -1.0212786 -1.0745882
2.8387909 -1.5676038 -1.0952539
6.5207691 -5.0387411 2.0177121
3.2416577 -1.9639103 -1.0485648
6.6067057 -5.1079626 2.3003323
4.5093746 -3.2240469 -1.1342279
6.3209419 -4.8157845 2.464251
0.11655676 1.1252797 -1.0172319
15.64268 -14.429976 -2.612715
0.19115901 1.0509764 -1.0170751
1.3063127 -0.02451539 -0.38728726
0.24997747 0.9932344 -1.00196
18.467266 -17.194427 -1.7364992
0.35638452 0.88663125 -1.0128287
6.1564307 -4.8604403 -0.47042099
0.43830061 0.80565357 -1.0017779
6.2648525 -4.9551773 -0.23397312
0.52325571 0.72182202 -0.98763794
5.5417204 -4.2219486 -0.0038664564
0.73128355 0.51222301 -1.0300685
15.082179 -13.687121 0.67703772
0.94199812 0.30072093 -1.0587136
6.3742051 -5.0229397 0.49990013
1.0636224 0.1808784 -1.0353723
5.8802381 -4.5203218 0.68837148
1.2316955 0.014174461 -1.0226101
1.4240102 -0.17651367 -1.0069498
5.7137256 -4.3303118 1.1188108
1.9090191 -0.66336226 -1.073364
6.4406676 -5.0331259 1.498578
2.154294 -0.90573192 -1.0385661
5.9903159 -4.5765915 1.6400026
2.7856879 -1.5372286 -1.0841594
6.3736672 -4.9391499 1.9841338
6.5895638 -5.1363001 2.3033643
4.5880055 -3.3362734 -1.1507334
0.10704887 1.1283274 -1.0124503
15.526258 -14.405808 -2.5996203
0.18634427 1.0486994 -1.0159979
1.2911993 -0.022722244 -0.38593039
0.24120235 0.99473393 -0.99841088
18.452332 -17.288477 -1.7367344
0.34343112 0.89184856 -1.0070548
6.1108799 -4.8551321 -0.46801832
0.46368885 0.77073133 -1.0187757
6.2147179 -4.945941 -0.23231515
0.55782413 0.67700887 -1.0085726
5.5232449 -4.2404451 -0.002829574
0.72226989 0.51120877 -1.0277961
7.1577368 -5.8609676 0.29575375
0.94297516 0.28824377 -1.0614882
6.4354038 -5.1255398 0.50775063
1.0763522 0.15567327 -1.0430732
1.2481452 -0.015747309 -1.0312492
5.7689013 -4.4355679 0.90661561
1.4333025 -0.20015883 -1.0123689
5.7045927 -4.3591042 1.1216555
1.9198037 -0.69121623 -1.0790441
6.3957486 -5.03053 1.4946572
2.2332239 -1.0042808 -1.0632628
5.9467125 -4.5728607 1.6352277
2.7555666 -1.5283689 -1.0786842
6.3262749 -4.9338684 1.9778606
3.8111277 -2.5911887 -1.1764723
6.583396 -5.1728516 2.3093777
4.667027 -3.4480159 -1.1672671
38.862106 -36.860985 13.823361
0.09245491 1.1363567 -1.0039862
15.412795 -14.389653 -2.5872364
0.1701299 1.0579183 -1.0070199
1.2798976 -0.025534868 -0.38504454
0.23598313 0.99210274 -0.99735534
18.413973 -17.366096 -1.7351408
0.33662295 0.89025295 -1.0052325
0.43850458 0.78751993 -1.0065308
6.2760653 -5.0513563 -0.23252019
0.53993964 0.68560565 -1.0012393
0.7444036 0.47733188 -1.0414068
7.1233206 -5.8754835 0.29663777
0.94354355 0.27539253 -1.064242
6.6470032 -5.3825722 0.52816498
1.0619112 0.15751696 -1.0392711
6.1781797 -4.8989048 0.72943234
1.2465695 -0.028200388 -1.032979
7.0639744 -5.7706003 1.1024865
1.4366273 -0.21875143 -1.0158235
1.8659097 -0.6540134 -1.0640607
2.2123876 -1.0028875 -1.059564
5.9131351 -4.5812693 1.6332804
2.8405743 -1.638272 -1.1023829
6.3152719 -4.9669571 1.9822308
3.8450198 -2.6550848 -1.1862268
4.5790372 -3.3928678 -1.1532615
38.711159 -36.94825 13.818898
0.08178854 1.1407957 -0.99829268
15.296885 -14.364446 -2.5742068
0.13810253 1.0843832 -0.98666531
1.2620384 -0.020773411 -0.38336924
0.20843506 1.0134169 -0.98129284
18.403934 -17.465919 -1.7358471
0.32753217 0.89158964 -1.0018414
5.7804418 -4.6029844 -0.45125499
0.43291664 0.78459847 -1.0055435
6.2946358 -5.1117601 -0.23203823
0.53923154 0.67700779 -1.0031028
5.9740577 -4.7735596 0.0071635917
0.74185252 0.46949732 -1.0424454
14.264864 -13.1385 0.65125185
0.89166331 0.31770492 -1.0422971
1.0664912 0.14048648 -1.0435252
1.1770142 0.030494213 -1.0077484
14.750511 -13.541306 2.249402
1.3674368 -0.16164279 -0.99317193
6.34445 -5.0795822 1.2473071
1.8671013 -0.67205071 -1.0666717
6.2028289 -4.9239216 1.464914
2.3670621 -1.1808641 -1.1062534
5.8975229 -4.6050329 1.6354154
2.825398 -1.6449783 -1.100729
6.2846165 -4.9779797 1.9806434
3.7069139 -2.5414212 -1.1583096
38.477489 -37.015312 12.417621
4.5506206 -3.3958738 -1.1500779
38.5588 -37.019844 13.811109
0.069934845 1.1465774 -0.99168396
15.185403 -14.343001 -2.5618367
0.14326262 1.0718082 -0.99260759
1.2539655 -0.025921583 -0.38283917
0.21350169 1.0005548 -0.98693079
18.389307 -17.561558 -1.7362019
0.32225132 0.88896847 -1.0008289
0.38515222 0.82604611 -0.97984648
6.3087254 -5.1680412 -0.23147801
0.57592726 0.62911177 -1.0254285
5.9526405 -4.791832 0.0082406774
0.74709237 0.45347321 -1.0474566
14.430281 -13.393562 0.66400456
0.84002662 0.36028862 -1.0203679
1.0736462 0.12064791 -1.0489243
1.1839582 0.010267496 -1.0126843
6.5408239 -5.3339338 1.0338582
1.4304579 -0.24119782 -1.01794
6.2102218 -4.9862423 1.2278296
1.8384167 -0.65921545 -1.0596341
6.1626072 -4.9246664 1.4618421
2.1747041 -1.001508 -1.0530338
5.8832216 -4.6301622 1.637894
2.8773379 -1.720978 -1.1160924
6.2567291 -4.9916697 1.9798332
3.1400213 -1.9841926 -1.0363828
38.316868 -37.077553 12.40847
4.4987321 -3.3745806 -1.1425582
38.394005 -37.078564 13.798934
0.084436893 1.1234847 -1.0052481
15.065646 -14.323815 -2.5487669
0.16269028 1.0430348 -1.0090367
1.2381097 -0.024702072 -0.38145232
0.21679592 0.98852205 -0.99170744
0.30512297 0.89790082 -0.99266458
0.38934004 0.8119837 -0.98482871
6.4203982 -5.3301697 -0.2324467
0.59504008 0.59807205 -1.0385398
5.8923483 -4.7752781 0.0088491514
0.74770403 0.44087148 -1.0504446
14.401529 -13.463634 0.66776335
0.86399412 0.32253432 -1.0342335
1.0746483 0.10554624 -1.0519859
5.8039427 -4.6462927 0.69690585
1.1593603 0.021279812 -1.0054148
6.5205092 -5.362155 1.0358216
1.3714119 -0.1958015 -0.99912947
6.2034793 -5.0261412 1.232169
1.9060036 -0.74869084 -1.084105
6.1531906 -4.9615412 1.4661232
2.1398072 -0.98626947 -1.0453914
37.954334 -37.11171 9.6828241
2.7526712 -1.6169984 -1.0869474
6.2275801 -5.0092115 1.9795514
38.149048 -37.159843 12.402234
4.4615636 -3.3720925 -1.1380092
38.223331 -37.158661 13.790383
0.096603155 1.1030991 -1.016983
14.953174 -14.305558 -2.5365148
0.15764594 1.0406376 -1.0079541
1.2254678 -0.025872946 -0.3804177
0.2140553 0.9833225 -0.99232566
0.29710329 0.89778709 -0.99005985
5.6640744 -4.6077662 -0.44515464
0.42166376 0.76840377 -1.0062879
0.60145688 0.58082056 -1.0446086
5.8836122 -4.808877 0.010210402
0.74081516 0.43680549 -1.0494802
6.4087787 -5.3360634 0.27094212
0.77701879 0.40245819 -0.99563867
5.830893 -4.7287664 0.47267434
1.0285286 0.14087439 -1.0344387
5.755074 -4.6382036 0.69479144
1.1777443 -0.011959791 -1.0150841
1.3358353 -0.17355156 -0.98857647
6.3019562 -5.1710949 1.2555817
1.8309323 -0.68832254 -1.0621464
6.0452237 -4.8955402 1.4486467
2.4603777 -1.3419466 -1.1406759
37.814537 -37.206432 9.684062
2.7804661 -1.6696427 -1.0963709
6.2175965 -5.0435352 1.9842983
3.7237396 -2.6466539 -1.1691879
6.6613479 -5.4794006 2.3769932
4.437819 -3.3813484 -1.1358204
6.4486041 -5.2491217 2.5718288
0.080106378 1.1143346 -1.0067189
14.849449 -14.284112 -2.5250204
0.15182471 1.04001 -1.0060214
1.2081577 -0.020427704 -0.37878242
0.2191993 0.97059774 -0.99797207
1.554248 -0.3765552 -0.32969892
0.2933526 0.89416039 -0.98985821
5.6444454 -4.6239672 -0.44410434
0.44291043 0.73735416 -1.0210323
6.1955204 -5.1833115 -0.22712305
0.59304857 0.58049953 -1.0422479
5.8689275 -4.8314228 0.011294611
0.69324124 0.47743726 -1.0273882
6.4315748 -5.4002123 0.27420959
0.69246697 0.48211133 -0.9577235
1.0070363 0.15207577 -1.0272571
5.8240061 -4.7462378 0.70604712
1.1729435 -0.019285202 -1.015283
15.390885 -14.572709 2.3843064
1.4026426 -0.25742888 -1.0147902
6.4784727 -5.3922291 1.2929333
1.8566095 -0.73135519 -1.0726694
5.9982691 -4.8859386 1.4436585
37.669308 -37.267418 9.6796465
2.814826 -1.7268355 -1.1072458
6.1881719 -5.0528955 1.9826123
3.6930189 -2.6406047 -1.1645795
37.81942 -37.272945 12.381093
4.4297552 -3.4029415 -1.1362926
0.059848785 1.1293656 -0.99369609
14.734835 -14.256354 -2.5121498
0.14578247 1.0391874 -1.004078
1.1959754 -0.021080971 -0.37777755
0.21663725 0.96561182 -0.99860287
1.5382911 -0.37528014 -0.32859412
0.27934599 0.90107453 -0.98331469
5.6428947 -4.6615105 -0.44395992
0.443519 0.72764683 -1.0237873
6.1716404 -5.2007294 -0.22595015
0.57796466 0.58676469 -1.0363489
5.8515196 -4.853714 0.012419678
0.68549764 0.47522712 -1.0257897
6.5635452 -5.5811081 0.28319415
0.84455657 0.30902815 -1.0320941
6.1495256 -5.1371126 0.50488162
1.0455159 0.098695993 -1.046402
6.0212617 -4.9907293 0.7327199
1.2033626 -0.064963341 -1.0297178
15.564279 -14.847476 2.4203954
1.390103 -0.25871849 -1.0124731
6.3750596 -5.3293133 1.2790231
1.8654805 -0.75802064 -1.0779035
5.9501271 -4.8773766 1.4387267
2.0635171 -0.96184039 -1.0297734
37.516964 -37.334686 9.6755724
2.7277117 -1.6575782 -1.0872464
3.717267 -2.6940949 -1.1722564
6.3820629 -5.2797651 2.3034325
4.423346 -3.4283726 -1.1372222
0.037278175 1.1471206 -0.97884524
14.624613 -14.232408 -2.4999356
0.14217901 1.0357412 -1.0038869
1.185181 -0.023129702 -0.37693781
0.2214483 0.95260596 -1.0042341
1.5251144 -0.37683177 -0.32772475
0.29279375 0.87835574 -0.99417633
5.7073193 -4.7686081 -0.44711885
0.38867652 0.77784967 -0.9936375
5.8593869 -4.915473 -0.22008947
0.53366792 0.62468004 -1.0142487
5.8354292 -4.8774042 0.013564594
0.67775702 0.47304749 -1.0241934
0.84151411 0.30085397 -1.0330287
6.0441551 -5.0693626 0.49886468
1.0314583 0.10115981 -1.0426376
5.7672501 -4.7675276 0.706227
1.1677176 -0.040333033 -1.0177513
15.279992 -14.648749 2.3870935
1.5128413 -0.40451217 -1.0593854
6.4055486 -5.4044533 1.289903
1.8475364 -0.75628042 -1.074385
5.9419107 -4.9098577 1.4425343
2.0973034 -1.0163641 -1.041833
5.7613659 -4.7096882 1.6385478
2.908287 -1.8719118 -1.1358098
37.428097 -37.393837 11.008822
3.0780153 -2.0441816 -1.0330467
37.530529 -37.425636 12.372952
4.3501029 -3.3831346 -1.1256856
6.2206469 -5.1425924 2.5166526
0.039540887 1.1370118 -0.98323351
14.512983 -14.217774 -2.4880733
0.15023887 1.0185945 -1.0124235
1.1694533 -0.021579027 -0.37557209
0.21589267 0.94983232 -1.0031732
1.5274285 -0.3966713 -0.32819176
0.26463854 0.89974117 -0.97891194
5.7315941 -4.8393002 -0.44827142
0.376266 0.78140604 -0.98889494
5.8282166 -4.9285507 -0.21874943
0.47251892 0.6801734 -0.98297393
6.0314174 -5.1298208 0.018611111
0.65656579 0.48415291 -1.0159571
14.365567 -13.886373 0.68989974
0.7744385 0.36045814 -1.0037183
6.0095835 -5.0801907 0.49916711
0.9879986 0.13387489 -1.0262479
5.7349648 -4.7789688 0.70627522
1.1694618 -0.057306528 -1.0210528
1.4487499 -0.35296965 -1.0386741
6.3300209 -5.3749943 1.2817312
1.8085901 -0.7340672 -1.0642564
5.9200172 -4.9334002 1.444061
2.1764641 -1.122407 -1.067534
5.7441487 -4.736928 1.6411344
2.7067566 -1.6829998 -1.086689
37.277672 -37.490856 11.00883
37.358131 -37.500694 12.365184
4.2493763 -3.3119295 -1.1092373
6.1802444 -5.1488752 2.5121126
0.054879546 1.1123852 -0.99770391
14.402969 -14.204038 -2.4764533
0.15095592 1.009377 -1.0157079
1.1537596 -0.019951344 -0.37421128
0.21278059 0.94439113 -1.0037795
1.5228187 -0.40926719 -0.32808205
0.24528956 0.91178429 -0.96919066
5.7267604 -4.8796148 -0.44797823
0.41018319 0.73434639 -1.0118097
5.7778521 -4.9211082 -0.21711078
0.43952751 0.70565283 -0.96721137
5.8678579 -5.0037212 0.017356016
0.64821959 0.48146117 -1.0143334
14.480353 -14.110639 0.70118529
0.7605288 0.36302042 -0.99969757
5.9763937 -5.0923204 0.49957684
0.98889554 0.11890507 -1.0293198
6.0879674 -5.1968231 0.75232869
1.1711258 -0.074311256 -1.024353
7.084095 -6.2324896 1.1508039
1.5141081 -0.44074726 -1.0652348
6.1850495 -5.2718306 1.2604604
1.7897011 -0.73311901 -1.0606955
5.8898697 -4.9482822 1.4437681
2.0002437 -0.95433545 -1.0184079
37.031303 -37.559883 9.6645927
2.8162074 -1.8261964 -1.1174885
37.109444 -37.568859 11.003675
3.6420341 -2.7055833 -1.1632595
37.205936 -37.596165 12.363957
4.3439965 -3.4490516 -1.1293913
6.2661853 -5.2865601 2.5531361
0.063805699 1.096385 -1.0067145
14.303267 -14.177619 -2.4652503
0.14773214 1.0063485 -1.0155406
1.1424814 -0.019606352 -0.37326351
0.20573509 0.94525576 -1.0011058
1.5132931 -0.41273713 -0.32749948
0.24428856 0.90580297 -0.97059143
5.7909703 -4.9838457 -0.45115116
0.40878344 0.72794116 -1.0131019
5.7531881 -4.9305592 -0.21607688
0.53262174 0.59535789 -1.0212129
5.878521 -5.0513277 0.018809922
0.65134335 0.46885562 -1.0180616
0.7441684 0.37114453 -0.99390346
5.9676061 -5.1197529 0.50135338
1.0081016 0.086989164 -1.0399041
14.263717 -13.903598 1.7356151
1.1913532 -0.10824704 -1.0345926
1.5310069 -0.47280812 -1.0735599
6.149756 -5.2723322 1.2583641
1.7663623 -0.72291231 -1.0550661
5.8662548 -4.9596195 1.4435012
2.1518755 -1.1348009 -1.0649649
36.898262 -37.617313 9.6610193
2.7579303 -1.7836454 -1.1045253
36.972214 -37.622459 10.997792
2.8637276 -1.8903091 -0.99178511
37.061836 -37.643211 12.354623
4.2975221 -3.427387 -1.1225702
6.3153453 -5.3761463 2.5788679
0.053999066 1.0993851 -1.0019333
14.192363 -14.16145 -2.4534841
0.13396299 1.0131727 -1.0083303
1.1295491 -0.020776033 -0.37223274
0.20381677 0.93848693 -1.0025468
1.5004607 -0.41652846 -0.32670438
0.24349809 0.89752233 -0.97273099
0.41494656 0.71085155 -1.0195658
5.6988897 -4.9183416 -0.21439794
0.54225385 0.57361662 -1.0293779
6.0842199 -5.3189383 0.024186678
0.66452694 0.44242227 -1.0276632
13.881744 -13.655316 0.67941707
0.75209177 0.34990525 -1.0003611
5.9507136 -5.1491976 0.50316441
0.99719346 0.084666252 -1.0378269
14.067693 -13.797591 1.7208683
1.0302612 0.052786589 -0.97201544
1.3847083 -0.33057904 -1.0225239
6.3849363 -5.5710564 1.3086643
1.7528325 -0.72754025 -1.0532632
5.8441968 -4.982933 1.4450101
2.224544 -1.2360053 -1.0890511
36.731365 -37.695091 9.6574831
2.839685 -1.8986709 -1.1283752
36.802456 -37.69788 10.99216
36.893223 -37.720642 12.348042
4.2606411 -3.4238346 -1.1180907
6.0833592 -5.1813316 2.5049388
0.047014832 1.100176 -0.99900925
14.088761 -14.140929 -2.4422493
0.12309897 1.0178093 -1.0028967
1.1147665 -0.018181086 -0.37092683
0.19023025 0.94572043 -0.99568909
1.4858986 -0.41642761 -0.32573366
0.25175965 0.8801235 -0.98042583
6.2111883 -5.5266523 -0.47207502
0.40546978 0.71217704 -1.0163476
5.5956602 -4.847723 -0.21205375
0.50729179 0.60245967 -1.0122412
6.0667639 -5.343338 0.025363006
0.66558647 0.43052459 -1.030694
14.276137 -14.170093 0.7048946
0.76953268 0.3193624 -1.0111607
6.0233889 -5.2697077 0.5123955
0.99350703 0.076011658 -1.0386496
14.022182 -13.839856 1.7231954
1.1185426 -0.05742836 -1.0101448
14.053386 -13.844617 2.249022
1.3368098 -0.292943 -1.0072166
6.3028426 -5.5281982 1.2985065
1.6128887 -0.59115005 -1.0091879
36.462475 -37.707375 8.3131151
2.2873206 -1.3249228 -1.1100487
36.582638 -37.76334 9.6542215
2.7255707 -1.7976401 -1.1012031
36.66164 -37.775139 10.990094
3.6252403 -2.7726753 -1.1667744
36.740158 -37.785583 12.341126
4.2365646 -3.42995 -1.1157511
6.0910268 -5.232461 2.5167248
0.032967567 1.1089798 -0.99059153
13.988074 -14.122899 -2.4314556
0.14690852 0.98349011 -1.0228157
1.1040534 -0.019933939 -0.37010637
0.18031871 0.94894254 -0.99133193
1.4794537 -0.42509723 -0.32545212
0.25259948 0.87089574 -0.98337919
6.1851134 -5.542572 -0.47075441
0.37375653 0.73844481 -0.99969268
5.5375662 -4.8251514 -0.21043727
0.5037204 0.59661305 -1.0126998
5.4785757 -4.7486629 0.015906341
0.65776825 0.42844367 -1.0291054
14.23792 -14.221711 0.70768011
0.77282763 0.30427504 -1.0151843
6.1049337 -5.4009418 0.52247882
0.98465812 0.073056698 -1.0371882
14.0321 -13.941937 1.7322606
1.1312703 -0.085067272 -1.0177053
14.000879 -13.879575 2.2502894
1.3906766 -0.36738181 -1.0294682
6.3372059 -5.6098537 1.3104445
1.526122 -0.51187587 -0.98260236
36.323402 -37.784683 8.313117
2.2679162 -1.3241534 -1.1067961
36.433826 -37.831074 9.6509228
2.772378 -1.872401 -1.1157932
36.499268 -37.829021 10.981677
3.6256824 -2.8018777 -1.1693431
36.593693 -37.857117 12.336372
4.1095424 -3.323118 -1.0939265
6.1568727 -5.3459482 2.5498846
0.017588019 1.1189916 -0.98125142
13.886088 -14.108518 -2.4207525
0.14053595 0.98252261 -1.0208665
1.0889043 -0.01760602 -0.36878681
0.17621875 0.94517779 -0.99112523
1.468455 -0.42977548 -0.32480526
0.21657038 0.90266502 -0.96263164
6.1252713 -5.524251 -0.46775505
0.38012588 0.72162485 -1.0061724
5.83746 -5.1959724 -0.21433988
0.52845919 0.55833101 -1.0293175
0.66470146 0.40917909 -1.0354172
14.65886 -14.779477 0.7352953
0.78711152 0.27605748 -1.024726
6.1519742 -5.4986925 0.52981377
0.9536773 0.094048023 -1.0260024
13.956299 -13.957421 1.7314242
1.1163799 -0.083024025 -1.0141863
7.130352 -6.531498 1.1837565
1.2165834 -0.18991351 -0.96747947
6.4155135 -5.7425919 1.3312187
1.7580084 -0.78651834 -1.0623982
7.1608696 -6.5332127 1.7601106
2.2216296 -1.2947583 -1.095705
36.269749 -37.896187 9.6458502
2.60672 -1.7142661 -1.075187
36.335075 -37.894619 10.975161
3.5521049 -2.7513111 -1.1554277
36.433296 -37.927589 12.329743
4.171432 -3.4251993 -1.1080045
6.1003094 -5.3320408 2.5389211
-0.0026211739 1.1342438 -0.9682433
13.778814 -14.093305 -2.4095244
0.12918723 0.98677623 -1.0154127
1.0760466 -0.01854372 -0.367771
0.16225719 0.95213187 -0.98425323
1.454281 -0.43189788 -0.32390937
0.25824571 0.8461746 -0.99240315
0.3787595 0.71284235 -1.0081584
5.9280133 -5.3434715 -0.21490851
0.49312377 0.58691347 -1.0121678
0.65867627 0.40368032 -1.0351157
6.3572955 -5.7874403 0.29452595
0.77181959 0.28013539 -1.0200982
6.1728601 -5.5715303 0.53509772
0.95558083 0.077620983 -1.0296468
13.923432 -14.025197 1.7363216
1.0677155 -0.043848038 -0.99697036
7.1423883 -6.6012878 1.1915188
1.3625571 -0.36943674 -1.0243124
1.7547446 -0.80270886 -1.0640882
7.1980419 -6.6304255 1.7764076
2.2325282 -1.3299549 -1.101773
36.107838 -37.977306 9.6435394
2.6374788 -1.7742102 -1.0859185
36.184967 -37.98914 10.975281
3.3457294 -2.5541298 -1.1116282
36.27095 -38.009724 12.325191
4.1347952 -3.4210327 -1.1035641
6.0280204 -5.303462 2.5226626
0.016436577 1.105924 -0.98547965
13.674986 -14.063949 -2.3979256
0.12567449 0.98358893 -1.0152383
1.0631226 -0.016810656 -0.36666092
0.1730206 0.93243062 -0.9940533
1.4469355 -0.43856311 -0.32354459
0.25436163 0.84265006 -0.99221027
6.3718095 -5.889082 -0.48006907
0.35615909 0.72991598 -0.99675763
5.812571 -5.2564878 -0.21244946
0.49722552 0.57293868 -1.016861
5.7034016 -5.1228914 0.024574675
0.64489996 0.40902674 -1.0302514
6.3210654 -5.7906265 0.29479271
0.79544497 0.24247169 -1.0339745
6.0377812 -5.4649515 0.52602583
0.90649307 0.12107849 -1.0099546
14.015714 -14.21329 1.7551583
1.1229643 -0.11877537 -1.0219085
1.3181046 -0.33375382 -1.0100207
1.7621378 -0.82762885 -1.0689088
2.2738924 -1.3957188 -1.1165156
35.969944 -38.041271 9.6408195
2.618886 -1.7751186 -1.0833209
36.029667 -38.034756 10.966386
3.3606734 -2.5966461 -1.1172622
36.132713 -38.074562 12.320408
4.1422906 -3.4597733 -1.1071107
5.9771857 -5.289341 2.5125003
0.0032736063 1.1132054 -0.97796845
13.573483 -14.053704 -2.3875813
0.090787292 1.0151072 -0.99232197
1.0516278 -0.0191257 -0.36581179
0.16862726 0.92846704 -0.9938367
1.4247721 -0.43166494 -0.32197514
0.24847853 0.839818 -0.99119073
6.3725867 -5.9422207 -0.48012432
0.32550025 0.75473547 -0.98084706
5.6696119 -5.1457405 -0.20946249
0.44362473 0.62292659 -0.9891876
5.6262612 -5.0847483 0.02469448
0.59904206 0.44902968 -1.0088669
6.2966275 -5.8153648 0.29613638
0.8039645 0.2194016 -1.0410277
5.9821982 -5.4532528 0.5245074
0.93880951 0.070205212 -1.0272939
13.967193 -14.265115 1.7582446
1.1178292 -0.12860537 -1.022581
1.2544819 -0.27872491 -0.9889462
5.8261666 -5.2409496 1.2349911
1.6823913 -0.75761223 -1.0449114
5.9083772 -5.318099 1.496292
2.1750464 -1.3078914 -1.0898128
35.801117 -38.114006 9.6366777
2.5772357 -1.7543194 -1.0751179
35.873928 -38.12244 10.964847
3.3150001 -2.5765913 -1.1096416
35.964821 -38.149837 12.314014
1.4977316 -0.52820659 -0.60419899
5.9485726 -5.3073158 2.5122576
-0.0092015266 1.1211238 -0.97049218
0.084992409 1.0147429 -0.99040705
1.0374185 -0.015802622 -0.36454871
0.17923939 0.90866721 -1.0036319
1.4160975 -0.43676353 -0.32150242
0.25781906 0.82104218 -0.99967694
6.3122649 -5.918457 -0.47713348
0.32624185 0.74543047 -0.9836278
5.8298526 -5.3646889 -0.21120968
0.38014662 0.68672001 -0.95525253
5.6066866 -5.1023054 0.025652565
0.57426441 0.46738875 -0.9980852
13.708483 -14.121947 0.70402563
0.8022064 0.21015525 -1.0426011
6.0589743 -5.580163 0.53423184
0.8861866 0.1182785 -1.0059078
1.0719603 -0.089393139 -1.0059736
7.1141262 -6.7232056 1.2029146
1.2476553 -0.28484774 -0.98861206
1.5608319 -0.6358943 -1.0062214
1.4792823 -0.53802276 -0.88315642
7.1184893 -6.6806993 2.0718307
1.4853381 -0.53968859 -0.78956324
7.1350384 -6.6830082 2.3687432
1.484569 -0.53370738 -0.69564015
1.4836036 -0.5275526 -0.6025691
5.9488711 -5.3487396 2.5210538
-0.011637926 1.1165683 -0.97123241
1.4766148 -0.53190231 -0.50958067
0.070540547 1.0235493 -0.98236012
1.0237297 -0.014654636 -0.36340818
0.16909206 0.91180289 -0.99927187
1.4011356 -0.43672967 -0.3205322
0.24494314 0.82679558 -0.99393886
0.34215868 0.71735632 -0.99607223
5.6009789 -5.1534576 -0.20701405
0.42059946 0.62996686 -0.98099762
5.5964141 -5.1355858 0.026972122
0.55389559 0.4795841 -0.98991334
0.77096641 0.23329544 -1.03001
6.0751109 -5.6460247 0.5389744
0.85697675 0.13846111 -0.99532938
5.7643166 -5.284997 0.75066739
1.1129743 -0.15106678 -1.025589
7.0204792 -6.6734905 1.1936203
1.2948154 -0.35464597 -1.0088806
5.8042116 -5.3031511 1.2412307
1.4723431 -0.55264711 -0.9788264
5.7986054 -5.2836723 1.4832015
1.4617032 -0.53530216 -0.88001508
1.4663867 -0.53547192 -0.78639865
1.4668728 -0.53094077 -0.69313967
1.4750494 -0.53518224 -0.60215342
5.9149747 -5.3581781 2.5182993
-0.017551184 1.1160789 -0.96922916
1.4719635 -0.54400277 -0.50978214
0.085349202 0.99820709 -0.99613833
1.0126973 -0.016442776 -0.36258942
0.15779006 0.91636801 -0.9940837
1.391472 -0.44262838 -0.32001704
0.25363684 0.80748677 -1.0023966
6.0198207 -5.6863308 -0.46260139
0.30714929 0.7483182 -0.97720945
0.42898583 0.60987461 -0.98847651
0.53977382 0.48472941 -0.98503971
0.68887174 0.31566644 -0.99225044
5.7741327 -5.3552427 0.51508975
0.90691721 0.067451954 -1.0206561
5.7387342 -5.30235 0.7514413
1.0677043 -0.11383581 -1.0094794
6.9893723 -6.6930971 1.1942915
1.3415898 -0.42474508 -1.0291333
5.7890468 -5.3324976 1.2438964
1.4522594 -0.54697323 -0.97450089
5.7215166 -5.2437124 1.4718252
1.4506038 -0.53989935 -0.87882519
1.451367 -0.5356226 -0.78426969
1.4583257 -0.53851867 -0.69272739
1.4599351 -0.53532481 -0.60048133
7.1022997 -6.7241106 2.9739323
-0.027117133 1.1195005 -0.96447396
1.4615268 -0.5505476 -0.50914019
0.070688486 1.0068718 -0.98808426
0.99994576 -0.017050266 -0.361595
0.14863515 0.91799903 -0.99054849
1.3734163 -0.4399085 -0.31880581
0.23097932 0.82426476 -0.99034405
6.0050826 -5.7206306 -0.46191826
0.32386065 0.71852088 -0.99038291
0.47469294 0.5453229 -1.0176946
5.3021026 -4.8939428 0.024115212
0.53888941 0.4738822 -0.98739493
6.9186583 -6.7171307 0.34089926
0.73088729 0.25375462 -1.0158893
5.7430806 -5.3693027 0.51565975
0.89481711 0.067010403 -1.0180379
5.7447557 -5.3581429 0.7564311
1.0600327 -0.12059617 -1.0091122
6.9671688 -6.725914 1.1967338
1.3735355 -0.47940278 -1.0440702
1.4355615 -0.5460763 -0.97146118
5.706399 -5.2754736 1.4751223
1.4351462 -0.54044724 -0.87644708
7.0294085 -6.7491398 2.07447
1.4397408 -0.54061532 -0.78315043
7.0522909 -6.7589788 2.3731928
1.4479555 -0.54502058 -0.6919958
1.4573654 -0.55081153 -0.60130382
-0.022059798 1.1073799 -0.97073328
1.4622334 -0.56579924 -0.51003104
0.076739788 0.99303508 -0.99491042
0.98887575 -0.016147137 -0.36068305
0.14400911 0.91636407 -0.98955399
1.3560494 -0.43388629 -0.31758025
0.22492242 0.82384491 -0.98859304
6.0024195 -5.757514 -0.46183345
0.35476267 0.67404008 -1.0117984
5.2193413 -4.8473816 -0.19928131
0.46912301 0.54293263 -1.016786
5.2829809 -4.9080381 0.02493415
0.51230085 0.49578023 -0.97533464
6.91084 -6.753211 0.3427718
0.75054204 0.22036338 -1.0279229
5.7451053 -5.409997 0.51848823
0.87309122 0.081109047 -1.0103732
5.7730746 -5.4287271 0.76333034
1.0063242 -0.070155382 -0.98888612
1.3122929 -0.42206287 -1.0231245
1.4247147 -0.54779363 -0.96982414
5.6926546 -5.2980299 1.4772445
1.4306775 -0.54957891 -0.87689102
1.4391326 -0.55424643 -0.7845307
1.4408835 -0.55121708 -0.69165975
35.189453 -38.459293 12.278252
1.458058 -0.56603241 -0.60247391
35.262955 -38.469444 13.642608
-0.015414834 1.0919389 -0.97878891
1.462644 -0.5839138 -0.51105344
0.080870748 0.97992706 -1.0008293
0.97657526 -0.016288042 -0.35971496
0.14801037 0.90295959 -0.99516827
1.335956 -0.42755866 -0.31617785
0.22045255 0.81994987 -0.9883821
6.0228572 -5.8298521 -0.46292177
0.35584044 0.66267049 -1.0152903
5.1979065 -4.8660603 -0.19826981
0.45415056 0.54975748 -1.0109242
5.3348126 -5.0114164 0.027487941
0.55081379 0.43916178 -0.99876016
0.75538027 0.20185709 -1.0331497
5.7284203 -5.4377785 0.52018744
0.89872158 0.037328005 -1.0248581
5.7444739 -5.4430752 0.76376563
0.95038879 -0.019066572 -0.96809137
7.0850277 -6.9609442 1.2263854
1.2209371 -0.33169723 -0.99110317
