# .PCD v0.7 - Point Cloud Data file format
VERSION 0.7
FIELDS x y z
SIZE 4 4 4
TYPE F F F
COUNT 1 1 1
WIDTH 1424
HEIGHT 1
VIEWPOINT 0 0 0 1 0 0 0
POINTS 1424
DATA ascii
-21.164116 -24.366287 2.5894682
-2.0856814 -1.1900477 -0.77488023
-19.591785 -22.366219 3.0720518
-1.8900197 -0.93195921 -0.63718039
-16.366646 -18.37767 3.1000111
-2.0296659 -1.1044593 -0.63668978
-2.0215063 -1.0874486 -0.57821161
-15.97346 -17.767803 4.1468029
-2.0488739 -1.1157291 -0.53147715
-15.328345 -16.927906 4.5075841
-2.2291121 -1.3370929 -0.52005792
-15.31181 -16.843252 5.0496645
-3.9118028 -3.4244885 -0.79675972
-4.3718801 -3.9837751 -0.74789512
-0.92239529 0.29831547 -0.36337018
-4.9789543 -4.7218342 -0.68406665
-0.94166768 0.27455792 -0.36410916
-5.9033909 -5.8476043 -0.60271513
-0.93779457 0.28134128 -0.34696689
-7.3394794 -7.5970635 -0.48144746
-0.97079474 0.23987362 -0.35489342
-10.788717 -11.810125 -0.28460944
-0.98375511 0.22478461 -0.34788269
-15.475068 -17.509121 0.19545303
-0.97944272 0.23217928 -0.33013368
-15.648284 -17.656616 0.74735177
-1.9173422 -0.97612149 -0.80705011
-1.9661306 -1.032402 -0.77624846
-21.247545 -24.316536 2.5834787
-2.0720167 -1.1613617 -0.7670365
-19.659271 -22.30888 3.0652339
-1.8790603 -0.90834099 -0.63141614
-18.995764 -21.428217 3.6213744
-2.0480802 -1.1171744 -0.6419397
-15.973237 -17.722584 3.5654287
-2.0460613 -1.1079507 -0.58488989
-16.007399 -17.697149 4.1355062
-2.0920162 -1.1593878 -0.54255563
-15.285565 -16.770779 4.472332
-2.2361865 -1.3338985 -0.52091473
-15.321963 -16.749613 5.0295405
-3.9169898 -3.4048791 -0.79648042
-4.3800402 -3.9642653 -0.74826533
-0.92023402 0.30352145 -0.36086684
-4.9919195 -4.7035203 -0.68520695
-0.93179864 0.28998989 -0.35594097
-5.9022522 -5.8047018 -0.60277939
-0.93784153 0.28375337 -0.34629387
-7.3450356 -7.551229 -0.48289329
-0.97662318 0.23504761 -0.35798955
-10.773244 -11.711725 -0.2875666
-0.98509842 0.22588184 -0.34801227
-15.384768 -17.283348 0.1867191
-0.98076713 0.23326111 -0.33026141
-15.662581 -17.557199 0.73928034
-1.9211596 -0.97054523 -0.8069194
-1.94529 -0.99496049 -0.7642585
-18.882433 -21.307667 2.2552314
-2.0799804 -1.1598413 -0.76862001
-18.843527 -21.183023 2.9094937
-1.8886911 -0.91050345 -0.63379288
-18.985624 -21.275187 3.5983031
-2.0511243 -1.1096461 -0.64160132
-2.0344191 -1.0819938 -0.57999402
-16.078529 -17.664469 4.1333776
-2.1541815 -1.2256455 -0.55881906
-15.394341 -16.788223 4.483614
-2.237416 -1.3226788 -0.52032614
-15.469767 -16.812706 5.0564327
-3.9137602 -3.3792834 -0.79474336
-4.3819723 -3.9420791 -0.74778914
-0.91677034 0.30999184 -0.35747322
-5.0108509 -4.698288 -0.68718499
-0.94161797 0.27922061 -0.36266148
-5.9026127 -5.7708073 -0.60295343
-0.9410547 0.28163511 -0.34795928
-7.3486528 -7.5120358 -0.48404616
-0.97202826 0.24328306 -0.3543793
-10.762285 -11.632724 -0.29003954
-1.0069216 0.20018232 -0.36072081
-15.374329 -17.175453 0.18094204
-0.99582428 0.21629882 -0.3382419
-15.65288 -17.448767 0.73134083
-1.9241282 -0.96564239 -0.80670828
-1.9423884 -0.98245615 -0.76125842
-18.973383 -21.300001 2.2539718
-2.0523074 -1.1151345 -0.75494385
-18.869167 -21.09761 2.8986032
-1.9035751 -0.92089087 -0.63848752
-18.878969 -21.031729 3.5593252
-2.0520146 -1.1013343 -0.64074087
-15.969305 -17.503546 3.5285752
-2.0401235 -1.0798461 -0.58081537
-15.798945 -17.236761 4.0382371
-2.1023171 -1.1509511 -0.54355091
-15.567685 -16.899488 4.5187187
-2.2388129 -1.3138518 -0.51993239
-0.9097271 0.31810632 -0.37839603
-3.9180613 -3.3602858 -0.7943871
-4.3879089 -3.9216871 -0.74787128
-5.0114241 -4.6667786 -0.68681061
-0.9438355 0.27869329 -0.36359781
-5.90378 -5.7335768 -0.60322309
-0.93877292 0.28690296 -0.34570724
-7.3383989 -7.4504962 -0.48461014
-0.97894764 0.23696327 -0.35821503
-10.746304 -11.539561 -0.29276681
-1.0013328 0.2101399 -0.35664827
-15.299327 -16.978004 0.17310093
-0.99945474 0.21439892 -0.339681
-15.668192 -17.358334 0.72391993
-1.9311674 -0.96476382 -0.80838859
-1.9602249 -0.9950735 -0.76797223
-19.814074 -22.169493 2.3481486
-2.0562401 -1.1093812 -0.75491911
-19.791317 -22.061432 3.0342908
-1.9069502 -0.91558331 -0.63845444
-16.221647 -17.758217 3.0040205
-15.96369 -17.387674 3.5089724
-2.0882244 -1.1291709 -0.59489101
-15.906386 -17.255251 4.0477099
-2.075428 -1.1067152 -0.53515774
-15.593868 -16.82445 4.5052681
-2.2346272 -1.2967856 -0.51811844
-15.614771 -16.784185 5.0626831
-3.9367893 -3.3576155 -0.79685712
-4.3970709 -3.9037199 -0.7484374
-5.0305157 -4.6560888 -0.68874413
-0.92936468 0.29977921 -0.3521004
-5.9046021 -5.6939387 -0.60347813
-0.93879068 0.28930792 -0.34503263
-7.320303 -7.3771558 -0.48482639
-0.97108436 0.24973223 -0.35239005
-10.737086 -11.450992 -0.29574865
-0.98533452 0.23336655 -0.34627062
-15.180152 -16.723385 0.16408418
-1.003176 0.21258116 -0.34112942
-15.663111 -17.237789 0.71489882
-1.9455899 -0.97257298 -0.81377679
-1.9844036 -1.0148582 -0.77756822
-19.848778 -22.065468 2.3363175
-1.9868916 -1.01144 -0.72295642
-18.932011 -20.903442 2.8739469
-1.9166536 -0.91761464 -0.64084363
-16.934206 -18.478544 3.1295261
-1.9314247 -0.92998475 -0.5953083
-16.074934 -17.403141 3.5161436
-2.1282992 -1.167285 -0.60630852
-16.049286 -17.307995 4.0655675
-2.1144309 -1.1434681 -0.54495263
-15.653511 -16.782507 4.501008
-2.2394373 -1.2902136 -0.51841235
-15.61959 -16.678711 5.0396094
-3.9421144 -3.3428154 -0.79686642
-4.3936729 -3.8754401 -0.74712658
-5.0353851 -4.6338229 -0.688977
-0.92804635 0.30341873 -0.35053134
-5.90833 -5.6647902 -0.60396463
-0.94201374 0.28721207 -0.34670013
-7.3335228 -7.3504634 -0.4864738
-0.98248279 0.23749465 -0.35919261
-10.723706 -11.370929 -0.2981264
-1.0003847 0.216663 -0.35479289
-15.217824 -16.676237 0.15948097
-1.0102061 0.20615259 -0.34452921
-15.664853 -17.145136 0.70777214
-1.9164872 -0.92744642 -0.79700518
-1.993464 -1.0172758 -0.78026301
-19.864653 -21.963848 2.3248456
-2.0722098 -1.108629 -0.75851101
-19.072689 -20.9543 2.8821223
-1.9450881 -0.94444937 -0.65083164
-16.983471 -18.434753 3.1243174
-1.9723821 -0.97207075 -0.60874474
-16.041639 -17.268642 3.492336
-2.1602333 -1.1968369 -0.61532491
-15.667646 -16.769817 3.944258
-2.1402624 -1.1655264 -0.55124581
-15.733261 -16.782253 4.5067253
-2.2294283 -1.2676475 -0.5153327
-15.676063 -16.651823 5.0386033
-3.9455419 -3.3243783 -0.79643756
-4.3960133 -3.8526778 -0.74670821
-0.92069674 0.31326482 -0.35785693
-5.0385265 -4.6077371 -0.68897599
-0.93689406 0.29422602 -0.3564381
-5.9117508 -5.6332126 -0.60443926
-0.92936248 0.30538461 -0.33735055
-7.3236227 -7.2934942 -0.48698109
-0.98133266 0.24137604 -0.35781676
-10.726226 -11.306096 -0.30091387
-1.0016 0.21768504 -0.35491234
-15.118948 -16.461502 0.15178876
-1.0456566 0.16441971 -0.36372694
-15.655086 -17.033216 0.69956899
-1.9601086 -0.9728139 -0.8176862
-1.9944102 -1.0089667 -0.77900171
-19.897022 -21.874123 2.3146527
-2.038182 -1.056567 -0.74218965
-18.981998 -20.726542 2.8514667
-1.9849617 -0.98447436 -0.66518295
-18.3204 -19.881105 3.3739274
-2.0064485 -1.0046306 -0.61962289
-16.008297 -17.128796 3.4676552
-2.0969996 -1.1090496 -0.59441173
-16.284428 -17.38319 4.0928812
-2.1702847 -1.1917608 -0.55861539
-15.690116 -16.634098 4.4734712
-2.2234149 -1.249449 -0.51317114
-15.698365 -16.579538 5.0245252
-3.9578745 -3.3139431 -0.79765463
-4.4049082 -3.8347282 -0.74726379
-5.051055 -4.5893021 -0.69011056
-0.93576026 0.2980307 -0.3548879
-5.9172068 -5.5998244 -0.60512143
-0.94074929 0.29335752 -0.34454978
-7.3149071 -7.23279 -0.48767388
-0.98262167 0.24246669 -0.35794395
-10.749408 -11.257663 -0.30437142
-0.99125326 0.23345321 -0.34802645
-15.119459 -16.353664 0.1454557
-1.0235069 0.19514173 -0.35071367
-15.670411 -16.939087 0.69186574
-1.9806323 -0.98785192 -0.82616353
-1.997093 -1.0016756 -0.7783646
-1.9642442 -0.95484418 -0.70856524
-18.891113 -20.485601 2.8191121
-2.04775 -1.050858 -0.68826377
-16.442022 -17.581139 2.9835479
-2.0214746 -1.0123703 -0.62361181
-2.1099358 -1.1135204 -0.59728885
-16.290106 -17.275202 4.073278
-2.1772614 -1.1884384 -0.55952436
-15.765981 -16.611 4.4743247
-2.2280655 -1.242924 -0.51345611
-0.93404865 0.29726002 -0.3960638
-3.9637158 -3.2985504 -0.79772675
-4.4109035 -3.8165636 -0.74745739
-0.92158723 0.31637901 -0.35718268
-5.0449963 -4.5525727 -0.68897557
-0.93674946 0.29887265 -0.35498589
-5.9229279 -5.5713553 -0.60581046
-0.94404852 0.29134065 -0.34622586
-7.2824602 -7.1501637 -0.48698831
-0.98957229 0.23620263 -0.36178505
-9.3387575 -9.5353584 -0.28351659
-0.99007332 0.23736539 -0.34673747
-15.058954 -16.187193 0.13869028
-1.8764691 -0.85638875 -0.823053
-15.693501 -16.86694 0.68557411
-1.9718959 -0.96780342 -0.81984383
-2.0076623 -1.0052626 -0.78166413
-19.719561 -21.399946 2.2621996
-1.9417478 -0.91825312 -0.69743586
-18.957064 -20.442526 2.8142745
-2.0918603 -1.0948792 -0.70411444
-2.0384703 -1.0235338 -0.62842327
-16.27882 -17.225918 3.4951975
-2.121052 -1.1169372 -0.59972143
-16.442169 -17.347485 4.0953856
-2.1861167 -1.1886618 -0.5610615
-15.899206 -16.664957 4.4950399
-2.2333043 -1.2384646 -0.51397508
-16.811386 -17.633291 5.35711
-3.9727311 -3.2856078 -0.79837102
-4.4124589 -3.7916632 -0.74689603
-5.0551367 -4.533392 -0.68985242
-0.93325078 0.30545071 -0.35176486
-5.9179564 -5.5282969 -0.60556924
-0.93706012 0.30228591 -0.34081161
-7.2470493 -7.0620685 -0.48619872
-0.98730719 0.24158892 -0.35966966
-9.3571463 -9.4959173 -0.28631139
-0.99955893 0.22823825 -0.35177994
-15.042274 -16.067202 0.13248323
-1.8677111 -0.83655089 -0.81623697
-15.681466 -16.748314 0.67693669
-1.9681504 -0.95347756 -0.81600368
-2.0076027 -0.99522239 -0.77985817
-19.768272 -21.324131 2.2535379
-1.9414065 -0.90838653 -0.69578552
-19.722382 -21.193291 2.9205863
-2.012836 -0.98878807 -0.67189097
-16.200237 -17.093838 2.9050438
-2.1144094 -1.1049602 -0.65377688
-16.555696 -17.433891 3.5414684
-2.1525888 -1.1441565 -0.60843939
-15.827878 -16.543436 3.9117429
-2.1851931 -1.1764858 -0.55987221
-16.362246 -17.084175 4.6140223
-2.2413986 -1.2367404 -0.51512617
-18.860353 -19.829166 6.0261493
-3.9740052 -3.2635639 -0.79749304
-4.4164782 -3.7698231 -0.74674392
-5.0574398 -4.5050983 -0.68975806
-0.9377026 0.30208758 -0.35436285
-5.9205704 -5.494421 -0.60600519
-7.2580786 -7.0288253 -0.48785108
-0.99203283 0.23831573 -0.36203027
-0.99845004 0.23222351 -0.35049897
-14.980511 -15.896047 0.12549685
-1.8373181 -0.79048318 -0.79754251
-15.680655 -16.64349 0.6689688
-1.9679593 -0.94359881 -0.81400496
-15.950563 -16.891819 1.2222755
-2.0087166 -0.98667544 -0.77862066
-19.83507 -21.269222 2.2471621
-1.945943 -0.90447885 -0.69623852
-20.054028 -21.440508 2.9565382
-1.9592783 -0.91452771 -0.64972615
-16.29141 -17.091223 2.9071376
-2.1395483 -1.1245167 -0.6612758
-16.251104 -16.981306 3.4534755
-2.1565814 -1.1381288 -0.60857278
-15.897924 -16.519489 3.9114354
-2.1816761 -1.1613166 -0.55798835
-16.360956 -16.976591 4.5921946
-3.602787 -2.8381824 -0.83446711
-18.71937 -19.548891 5.9516168
-3.9816134 -3.2490962 -0.79788017
-4.4242811 -3.752533 -0.74721199
-5.0648088 -4.4828863 -0.69030523
-0.93301785 0.31005388 -0.35030639
-5.9256372 -5.4636102 -0.60666412
-0.94029999 0.30265769 -0.34180924
-7.2454386 -6.9683657 -0.48825109
-0.99325836 0.23937777 -0.36215311
-9.3541346 -9.3716602 -0.29119873
-0.99494666 0.23909304 -0.3478092
-14.955946 -15.769143 0.11926441
-1.8762945 -0.829135 -0.8170957
-15.689877 -16.550863 0.66158867
-1.9652972 -0.9308024 -0.81077152
-2.0134656 -0.98255998 -0.77909672
-21.025082 -22.490519 2.3795245
-2.0171709 -0.9805885 -0.72514802
-19.801361 -21.022543 2.8994052
-1.9601067 -0.9061057 -0.64873719
-16.566925 -17.296051 2.9448602
-2.1673231 -1.1469271 -0.66966373
-16.285639 -16.914753 3.4439561
-2.1580238 -1.1290939 -0.60792303
-16.860052 -17.494398 4.1467886
-2.1844461 -1.1537037 -0.55782908
-16.822496 -17.386196 4.7091937
-3.6001921 -2.8142681 -0.83248663
-18.777836 -19.493059 5.9446182
-3.9826612 -3.2297642 -0.79711306
-4.4304991 -3.7365613 -0.74752533
-5.0755224 -4.4682608 -0.69132048
-0.93965602 0.30378485 -0.354559
-5.9297647 -5.4361768 -0.6072197
-0.94470745 0.29919061 -0.34427118
-7.2390509 -6.920907 -0.48885298
-0.99315965 0.24175149 -0.36151451
-9.3382063 -9.3006554 -0.29307914
-1.004366 0.22992659 -0.35284638
-14.910583 -15.630946 0.11339323
-1.8752509 -0.82003087 -0.81483442
-15.694018 -16.465063 0.65490276
-1.96812 -0.92581969 -0.81056166
-2.0201015 -0.98185974 -0.78066176
-21.211424 -22.579315 2.3888161
-2.1130428 -1.0863705 -0.76459223
-2.0115867 -0.95905882 -0.66747749
-19.228832 -20.188675 3.4439225
-2.1669173 -1.1369274 -0.66837955
-17.177101 -17.818932 3.6319072
-2.1588159 -1.1205997 -0.60720974
-17.467451 -18.075407 4.2890749
-2.182735 -1.1421316 -0.55656701
-17.038544 -17.530865 4.7544985
-3.6001484 -2.7959478 -0.83128142
-18.895729 -19.517145 5.9606376
-0.92366707 0.32077402 -0.38317055
-3.9875543 -3.2122877 -0.79698622
-4.4368687 -3.7177544 -0.74778068
-5.0801172 -4.4430294 -0.69153708
-0.93953764 0.30609766 -0.35383055
-5.934576 -5.4054122 -0.60786629
-0.93525207 0.31287989 -0.33726469
-7.2390232 -6.8757496 -0.4899165
-0.99437517 0.24281681 -0.36163729
-9.3478308 -9.2523317 -0.29569131
-1.0008379 0.23678666 -0.35015506
-14.880796 -15.500155 0.10718273
-1.8770833 -0.81340617 -0.81394225
-15.687881 -16.356155 0.64680535
-1.9787846 -0.92911857 -0.81410629
-2.0273001 -0.98064572 -0.78228503
-21.377394 -22.627348 2.3936374
-2.0845215 -1.0421212 -0.75085217
-19.952238 -20.948778 2.8917067
-2.0225472 -0.9623546 -0.67036641
-16.554098 -17.080679 2.9128373
-2.173398 -1.1338422 -0.66934448
-17.261642 -17.802675 3.6329083
-2.1550932 -1.1056099 -0.60498691
-17.172626 -17.637117 4.1914124
-2.187993 -1.1375232 -0.55709803
-17.096027 -17.485703 4.7497416
-3.6102281 -2.7871134 -0.83229947
-19.023695 -19.537325 5.976759
-3.9988713 -3.2023096 -0.79813373
-4.443161 -3.6989489 -0.74803346
-5.0701809 -4.4012995 -0.68995178
-0.9370963 0.31121272 -0.35143486
-5.9326715 -5.3671646 -0.6079222
-0.95148927 0.29537269 -0.34764618
-7.2387857 -6.8306584 -0.49096775
-0.99440193 0.24531227 -0.36101222
-9.3400412 -9.1845484 -0.29797786
-0.99847305 0.2421847 -0.34816542
-14.855667 -15.375674 0.10110782
-1.8813127 -0.80967706 -0.81437111
-15.686543 -16.25341 0.63901389
-1.9784567 -0.91926509 -0.81210089
-2.0221395 -0.96476394 -0.7781806
-20.331081 -21.320152 2.2512186
-1.9834043 -0.91272193 -0.70645416
-19.968899 -20.838625 2.8776958
-1.9970607 -0.92274004 -0.65924108
-16.415882 -16.821709 2.8709576
-17.622242 -18.09103 3.6962054
-2.1168289 -1.0504644 -0.59215391
-17.59193 -17.989588 4.2807918
-2.1893828 -1.1284208 -0.55658793
-17.199636 -17.491089 4.7586527
-3.6138194 -2.7707689 -0.83181083
-19.216513 -19.627487 6.0142117
-4.0101581 -3.1922982 -0.79928279
-4.4467554 -3.6771502 -0.74786377
-0.92724645 0.32369542 -0.35699177
-5.0810862 -4.3836336 -0.69097221
-0.93230814 0.31910914 -0.34736949
-5.9319077 -5.3304777 -0.60808432
-0.9478485 0.30196005 -0.34458971
-7.2131748 -6.7571945 -0.49065685
-0.99203825 0.25064996 -0.3588897
-9.3266134 -9.1109161 -0.30014408
-0.99487698 0.24899796 -0.34546816
-14.829922 -15.251477 0.09507589
-1.8770158 -0.79583353 -0.81017023
-15.700714 -16.168703 0.63206875
-1.9866856 -0.91959232 -0.81441629
-15.745186 -16.158463 1.1573263
-2.0317862 -0.96644968 -0.7809512
-20.368536 -21.230968 2.2411737
-1.9554063 -0.87053198 -0.69317269
-20.073107 -20.825956 2.8773708
-2.0167928 -0.93636066 -0.66551423
-20.131386 -20.813093 3.5608451
-2.1748981 -1.1142838 -0.66732961
-17.39892 -17.734066 3.62765
-2.0487981 -0.96141249 -0.57024807
-17.318438 -17.579172 4.1895552
-2.1817083 -1.1089034 -0.55364186
-17.218567 -17.403513 4.7425413
-2.2569623 -1.1889994 -0.51446837
-4.0096416 -3.1688344 -0.79812658
-4.4541979 -3.6598473 -0.7483204
-0.93166625 0.32041469 -0.35971916
-5.1011648 -4.3764024 -0.69314188
-0.93795478 0.31440827 -0.3508071
-5.9097786 -5.2699504 -0.60635263
-0.95242774 0.29866493 -0.34707066
-7.2004766 -6.6988773 -0.49103153
-0.99561524 0.24887291 -0.36050892
-9.307497 -9.0314827 -0.30218434
-0.99245262 0.254356 -0.34347349
-14.771528 -15.09184 0.088573292
-1.8799736 -0.79066581 -0.80993545
-15.69981 -16.067711 0.62439638
-1.9924614 -0.91698724 -0.81549865
-15.749675 -16.063471 1.1483436
-2.0539014 -0.9826563 -0.78946477
-2.1193342 -1.0524874 -0.76081538
-1.9998908 -0.90723759 -0.65775424
-17.360308 -17.649017 3.0188911
-2.1506991 -1.0757387 -0.65775323
-17.340576 -17.560862 3.5966163
-2.0278156 -0.92757946 -0.56285763
-16.510624 -16.591831 3.9611118
-2.177814 -1.0939028 -0.55173218
-17.233131 -17.311659 4.7252769
-3.6325018 -2.7515018 -0.83354676
-20.360302 -20.621271 6.3370848
-4.0103307 -3.1495616 -0.79734254
-4.4587693 -3.6423836 -0.74841201
-5.1062632 -4.3557587 -0.69349188
-0.93650508 0.31798887 -0.34922904
-5.9211788 -5.2516723 -0.60757679
-0.94980669 0.30371201 -0.34479022
-7.1862917 -6.6444702 -0.49119705
-0.98948646 0.25831601 -0.35612208
-9.2939978 -8.9656744 -0.30403185
-0.99712878 0.25101265 -0.34569877
-14.753738 -14.989572 0.083429888
-1.8787507 -0.7816239 -0.80766326
-15.716761 -15.998782 0.61855996
-1.9853336 -0.90039021 -0.81034338
-15.751933 -15.978274 1.1403238
-2.0605764 -0.98181313 -0.79104191
-20.285732 -20.89579 2.2041306
-2.0581989 -0.97262436 -0.73373252
-21.020557 -21.622501 2.9920154
-1.9734168 -0.86843365 -0.64653325
-2.1039529 -1.0128412 -0.64062381
-17.407583 -17.537931 3.5958428
-2.0344734 -0.92687374 -0.56406432
-16.522991 -16.514561 3.9478123
-2.1641669 -1.0691068 -0.54731566
-20.251928 -20.471703 5.5878315
-3.6243155 -2.7243185 -0.83050996
-20.315977 -20.461744 6.2981887
-4.0234318 -3.140408 -0.79881346
-4.4628458 -3.6199503 -0.74830711
-5.1138725 -4.3327804 -0.69410574
-0.94693029 0.30782384 -0.35601631
-5.9262476 -5.2202029 -0.60828596
-0.96277332 0.29069003 -0.35282618
-7.1876764 -6.6001415 -0.49238569
-0.97149998 0.28202909 -0.34425569
-9.2838583 -8.8940067 -0.30634743
-1.0093277 0.23934725 -0.35218734
-14.718108 -14.852007 0.077088401
-1.8794446 -0.77337378 -0.80612618
-15.716581 -15.893931 0.61056858
-1.9938067 -0.90042597 -0.81268924
-15.773312 -15.897111 1.1323315
-2.0705972 -0.9830882 -0.79385668
-22.235657 -22.887484 2.4200733
-2.0631933 -0.96811646 -0.73424691
-20.980551 -21.438869 2.9678948
-1.9921262 -0.88029331 -0.65235269
-20.428944 -20.761955 3.5618846
-2.1065264 -1.0052626 -0.64027321
-17.525883 -17.551029 3.6032922
-2.0678215 -0.95487589 -0.57324713
-16.59379 -16.482504 3.9463017
-2.1799221 -1.0761075 -0.55065787
-17.565767 -17.460875 4.7806129
-3.6321437 -2.7119274 -0.83097929
-4.0233183 -3.1190813 -0.79783338
-4.4719872 -3.6062775 -0.74910355
-0.93333459 0.32434091 -0.35913333
-5.114336 -4.305439 -0.69387597
-0.93966401 0.31839833 -0.35026896
-5.9331579 -5.1950517 -0.60913527
-0.96497387 0.2902092 -0.35372329
-7.1836605 -6.5551934 -0.49315697
-0.97976691 0.27451614 -0.34886277
-9.2754374 -8.8314209 -0.30840284
-0.99341369 0.26026306 -0.34240982
-14.69661 -14.741865 0.071657315
-1.8882453 -0.77557439 -0.80917895
-1.9893156 -0.88652831 -0.80879098
-15.773702 -15.805057 1.1237128
-2.0662565 -0.96892244 -0.79029173
-22.303024 -22.829006 2.4134057
-2.0371885 -0.92922682 -0.72197747
-20.615738 -20.921003 2.8966112
-2.0155048 -0.89836901 -0.66007018
-17.648825 -17.64782 3.0270309
-2.1072123 -0.99673563 -0.63942218
-17.608332 -17.537603 3.6048143
-2.0787342 -0.95820755 -0.57567924
-17.393332 -17.241419 4.1327453
-2.183383 -1.0703056 -0.5508014
-17.595718 -17.391287 4.7690763
-3.6361432 -2.6976163 -0.83072108
-20.148962 -20.03372 6.1894927
-4.0284119 -3.1036875 -0.79787999
-4.4704342 -3.5807662 -0.74820322
-0.93657601 0.32243642 -0.36098319
-5.0906229 -4.2515211 -0.69065183
-5.9010668 -5.1270289 -0.60651642
-0.96598494 0.29113239 -0.35382822
-7.1794462 -6.5103235 -0.49391556
-0.98082256 0.27548009 -0.34897238
-9.2761784 -8.7792912 -0.31062812
-0.98839611 0.26834321 -0.33898717
-14.647573 -14.602483 0.065867826
-1.8834686 -0.76205701 -0.80493677
-7.7112684 -7.0115767 0.20641433
-1.9935007 -0.88270682 -0.80922538
-7.6891613 -6.9602733 0.44558287
-2.0681534 -0.96200401 -0.7895993
-22.463755 -22.871222 2.4176815
-1.977914 -0.85281402 -0.69589055
-20.684523 -20.874359 2.8915448
-2.0223193 -0.89740008 -0.66148317
-20.786467 -20.905994 3.5932887
-2.0497093 -0.92245656 -0.61872751
-20.691814 -20.726299 4.265379
-2.0857708 -0.95709139 -0.57693011
-18.160849 -17.957296 4.3094583
-2.1920633 -1.0703783 -0.55234396
-17.622715 -17.318817 4.7567701
-3.6479924 -2.6921496 -0.83228582
-4.0387235 -3.0915229 -0.79883462
-4.443511 -3.5244884 -0.74319702
-0.93644345 0.32475308 -0.36021316
-5.0897837 -4.2198167 -0.69024408
-0.94401097 0.31745496 -0.3521471
-5.9460001 -5.1399713 -0.61079228
-0.96352351 0.2963461 -0.3515659
-7.1869574 -6.4735713 -0.4954353
-0.98685956 0.27096155 -0.35209909
-9.2637167 -8.7065601 -0.31285203
-1.0264182 0.22709829 -0.36034548
-7.519042 -6.7824135 -0.040725857
-1.8853067 -0.75524694 -0.80405897
-7.607688 -6.8515849 0.19774769
-1.9906772 -0.86981326 -0.80599385
-2.066776 -0.95026904 -0.78723502
-22.616835 -22.887619 2.4191277
-2.0080698 -0.87746781 -0.70699638
-20.59623 -20.644804 2.8609502
-20.820839 -20.807068 3.5799081
-2.0779159 -0.94421846 -0.62717956
-20.816748 -20.724331 4.2707534
-2.1103435 -0.97444552 -0.58338636
-18.274321 -17.960079 4.316968
-2.1934633 -1.0610719 -0.5518499
-22.923307 -22.785452 6.2551842
-2.2568207 -1.1251311 -0.51041692
-20.908529 -20.584816 6.3806129
-4.0477057 -3.0805223 -0.79965496
-4.4644179 -3.5241213 -0.74589413
-5.0830784 -4.185307 -0.68915069
-0.94375968 0.31969497 -0.35140854
-5.9485464 -5.110435 -0.61126781
-0.97173142 0.28894186 -0.35643327
-7.1972561 -6.4450059 -0.49698585
-0.98305678 0.27753818 -0.34920564
-9.2476501 -8.6369953 -0.31471133
-1.0177562 0.2394602 -0.35480434
-7.5030441 -6.7236743 -0.04340221
-1.894105 -0.75738734 -0.80711627
-1.9885316 -0.85885566 -0.80332434
-7.5012531 -6.6691127 0.42182505
-2.0686049 -0.94336468 -0.78653914
-22.794701 -22.945852 2.4251623
-2.0532188 -0.91973704 -0.72444439
-21.691221 -21.688972 3.009464
-1.8828843 -0.72257751 -0.60643911
-20.953545 -20.827623 3.5868256
-2.0914049 -0.9503426 -0.63073093
-2.1161308 -0.97176677 -0.58425105
-20.849918 -20.562023 4.9461761
-2.1850033 -1.0420816 -0.54883671
-22.703867 -22.424593 6.1664996
-3.6622052 -2.6683083 -0.8331033
-20.991955 -20.552908 6.3816471
-4.0566525 -3.0695007 -0.8004759
-4.4746037 -3.5119419 -0.74689162
-0.9347446 0.33052292 -0.3577686
-5.0519304 -4.1244707 -0.68503475
-0.95421338 0.30958277 -0.35820085
-5.9428463 -5.0721283 -0.61101216
-0.97033346 0.29265165 -0.3549512
-7.1952219 -6.4032426 -0.4978621
-0.98654521 0.27572191 -0.35081881
-9.2271805 -8.5631981 -0.31646258
-1.8967367 -0.75832802 -0.85869342
-7.5017824 -6.6811647 -0.045856327
-1.8941871 -0.74958831 -0.80552387
-7.4514523 -6.6012034 0.18398456
-1.9838157 -0.84507602 -0.79940939
-7.5217714 -6.6500468 0.4196701
-2.0945895 -0.96364957 -0.79680115
-23.01548 -23.048239 2.4359975
-2.0177057 -0.87116605 -0.70840383
-20.871763 -20.698687 2.8716116
-1.9811734 -0.82451171 -0.64240366
-21.027754 -20.785751 3.5829623
-2.0958047 -0.94625348 -0.6311931
-21.015194 -20.694132 4.274961
-2.1166584 -0.96324903 -0.5835306
-21.096685 -20.70122 4.9866333
-2.1804187 -1.0275288 -0.54686934
-22.91349 -22.513697 6.2006273
-2.2679608 -1.1175022 -0.51175082
-21.026571 -20.4701 6.3670888
-4.0347137 -3.0248649 -0.79532254
-4.4860983 -3.5012002 -0.74810344
-0.9391771 0.32729346 -0.36050028
-5.0786734 -4.1267557 -0.68810481
-0.95516956 0.3104763 -0.35830164
-5.9424057 -5.0397511 -0.61122948
-0.97254699 0.29220948 -0.35585177
-7.1875553 -6.3556967 -0.49842685
-0.98759699 0.27670485 -0.35092974
-9.2186575 -8.5027351 -0.3184461
-1.027487 0.23319602 -0.35930002
-7.5085468 -6.6474695 -0.048191607
-1.8979921 -0.74603277 -0.80592501
-7.4429493 -6.5516949 0.18049859
-1.976506 -0.82849604 -0.79424655
-7.506568 -6.5931907 0.4146412
-2.086225 -0.94526333 -0.79149336
-7.5418644 -6.6041794 0.65129358
-1.9613321 -0.7998578 -0.68382019
-20.929045 -20.639709 2.864877
-2.0098956 -0.84810263 -0.65209568
-21.07172 -20.712074 3.5736034
-2.0949588 -0.93636769 -0.62988526
-21.122053 -20.686312 4.2786412
-2.1158328 -0.95329028 -0.58241111
-21.008202 -20.489933 4.9430933
-2.1890302 -1.0275648 -0.54841244
-23.097881 -22.575014 6.2273149
-20.9562 -20.279325 6.3192673
-4.0374031 -3.0060091 -0.7949003
-4.5009813 -3.4926677 -0.74982113
-0.94368595 0.3241407 -0.36324042
-5.1307268 -4.1544104 -0.69430006
-0.9597767 0.30733368 -0.36092174
-5.944171 -5.0079556 -0.6116643
-0.98332286 0.28219971 -0.36232537
-7.1849852 -6.3114839 -0.49933147
-0.98625505 0.2805275 -0.34954286
-9.2059679 -8.4350729 -0.32046258
-7.5040903 -6.5995102 -0.050812468
-1.9057915 -0.74646407 -0.80834848
-7.4354734 -6.5011106 0.17689542
-1.9795153 -0.8230595 -0.79407758
-7.544652 -6.590282 0.41367793
-2.099813 -0.95088178 -0.79602599
-1.8957747 -0.71864337 -0.65549374
-21.006401 -20.594299 2.8601716
-1.9960243 -0.82388157 -0.64572477
-21.126066 -20.64193 3.5650923
-2.0890903 -0.92047375 -0.626831
-20.340078 -19.74913 4.0902624
-2.1139164 -0.9416427 -0.58092052
-20.889494 -20.241821 4.8910728
-2.1872978 -1.0156841 -0.54717314
-22.384277 -21.702772 5.9987135
-2.2646472 -1.0935206 -0.50975096
-20.939054 -20.137346 6.2870989
-4.0535088 -3.0016947 -0.79708093
-4.5090675 -3.4768133 -0.75046867
-0.94347197 0.32640859 -0.36246389
-5.1366768 -4.132329 -0.69478881
-0.94878012 0.32191345 -0.35265005
-5.9444284 -4.9747438 -0.61196917
-0.9771142 0.29147372 -0.35766888
-7.1876955 -6.2731647 -0.50052685
-0.98859078 0.28018722 -0.35041296
-9.209445 -8.3849955 -0.32281166
-1.8924321 -0.72902268 -0.85072577
-7.4994087 -6.5516405 -0.05341889
-1.9199033 -0.75387722 -0.81410503
-7.4153461 -6.4376087 0.17273907
-1.9748687 -0.80914706 -0.79017514
-7.5510311 -6.554018 0.41018164
-2.1031673 -0.94507569 -0.79594094
-7.516078 -6.4914813 0.63890326
-1.9036484 -0.71915537 -0.65751702
-21.162357 -20.630302 2.8669722
-2.016005 -0.83701271 -0.65204382
-20.882202 -20.263485 3.502979
-2.0739236 -0.89456028 -0.62066567
-20.399944 -19.689804 4.0834599
-2.126534 -0.94589502 -0.58380336
-20.966124 -20.196484 4.8877907
-2.18818 -1.0067227 -0.54663497
-20.904203 -20.056095 5.5566325
-3.6728661 -2.6041355 -0.83093035
-21.019722 -20.096003 6.2860212
-4.0587864 -2.9857287 -0.79717743
-4.5102901 -3.4536953 -0.75003916
-0.94086856 0.33136308 -0.35992622
-5.1316061 -4.0986471 -0.69392133
-0.9425267 0.33099252 -0.34772402
-5.9568758 -4.954638 -0.61336851
-0.98184741 0.2883831 -0.36017066
-7.1861105 -6.2305398 -0.50148404
-0.99216735 0.27847755 -0.35203731
-9.2223539 -8.3451176 -0.32535923
-1.8864013 -0.71412402 -0.84546798
-7.5014114 -6.5110931 -0.055927873
-1.9252201 -0.75142115 -0.81520391
-1.9816437 -0.80794722 -0.79187089
-7.5046387 -6.4630961 0.40254802
-2.1026335 -0.93501657 -0.79412013
-7.5055418 -6.4382105 0.63304949
-1.9427432 -0.75377887 -0.67235225
-21.04175 -20.379793 2.8333628
-2.0203404 -0.83288914 -0.65250635
-2.0797567 -0.89170283 -0.62159103
-20.740164 -19.917662 4.1363106
-2.1458406 -0.95728201 -0.58868408
-21.282679 -20.395836 4.9435816
-2.2024128 -1.0122013 -0.54962403
-20.941914 -19.971479 5.5430346
-3.6796846 -2.592195 -0.83133066
-21.096203 -20.050203 6.2836323
-4.0701656 -2.9775858 -0.79851246
-4.5134349 -3.4341769 -0.74995953
-5.0693836 -4.0064907 -0.68600476
-0.96277392 0.31018418 -0.36124152
-5.962781 -4.9296489 -0.61417115
-0.97918731 0.29345128 -0.35789052
-7.1817636 -6.1876788 -0.50222492
-0.98701227 0.28635907 -0.34838092
-9.2238607 -8.2966261 -0.32752013
-1.8863369 -0.70642656 -0.8437323
-7.4950619 -6.4645786 -0.058373913
-1.9277605 -0.7463823 -0.81494504
-1.9395162 -0.75359243 -0.769867
-7.5384636 -6.4583721 0.4014985
-2.0875664 -0.90969986 -0.7858997
-7.4907331 -6.3833909 0.62703645
-1.9491961 -0.75293881 -0.67383242
-21.118935 -20.341747 2.8296454
-2.0138896 -0.81759411 -0.64902717
-21.50598 -20.661282 3.5795095
-2.09062 -0.8948012 -0.6242671
-20.648602 -19.709587 4.0983901
-2.1529374 -0.95591623 -0.58995599
-20.725304 -19.71262 4.7859259
-2.2070017 -1.0078111 -0.55011559
-21.259939 -20.17779 5.6090813
-2.244556 -1.041723 -0.50335431
-21.296879 -20.136578 6.3216419
-4.0801635 -2.9679668 -0.79958755
-4.5137653 -3.411787 -0.74944401
-0.94146001 0.33441722 -0.35923719
-5.0451641 -3.9551311 -0.68280125
-0.95281202 0.32325923 -0.35379118
-5.9685898 -4.9046707 -0.61496979
-0.97773123 0.29713905 -0.35640478
-7.1786137 -6.1463385 -0.50303066
-0.98554814 0.29008913 -0.34698281
-8.0824738 -7.0609674 -0.30416995
-7.4926758 -6.4224706 -0.060758978
-1.9353684 -0.74690872 -0.81735462
-7.3993473 -6.3007674 0.16284762
-1.92536 -0.73030359 -0.76155001
-7.5611753 -6.4420643 0.39957225
-2.054224 -0.86476284 -0.76955724
-7.4756708 -6.3287086 0.62104249
-1.9831225 -0.78179699 -0.68653971
-23.070774 -22.216352 3.0962422
-1.9770342 -0.7696504 -0.63427651
-20.932804 -19.959681 3.4607401
-2.0775919 -0.87216443 -0.61894131
-20.599113 -19.54582 4.0696392
-2.1506701 -0.94450182 -0.58843565
-20.863462 -19.738325 4.7993693
-2.2156188 -1.0077145 -0.551669
-21.421522 -20.223858 5.631155
-2.2438178 -1.0314653 -0.50262517
-21.167015 -19.890251 6.2563791
-2.2928414 -1.0667748 -0.45538288
-4.5201898 -3.3945031 -0.74986452
-0.94120193 0.33666414 -0.35845751
-5.0738602 -3.9578643 -0.6861369
-0.95500517 0.32285696 -0.35473624
-5.9655771 -4.8686981 -0.61500072
-0.97631943 0.30087528 -0.35492426
-7.170907 -6.0981755 -0.50364119
-0.98537672 0.29249954 -0.34634453
-8.0746622 -7.0073061 -0.30593944
-1.8976946 -0.70325691 -0.84668249
-7.4913368 -6.37924 -0.063265383
-1.9355744 -0.73884207 -0.81578696
-7.397666 -6.257885 0.1596341
-1.9834617 -0.78510565 -0.78818387
-7.5892811 -6.428762 0.39783078
-2.0404081 -0.84085077 -0.76191485
-7.4643688 -6.2758274 0.61524457
-2.1040602 -0.90338951 -0.73460126
-22.802391 -21.808741 3.040576
-1.9203225 -0.70043296 -0.6121726
-21.067116 -19.973316 3.4668882
-2.0393834 -0.82232517 -0.60517353
-20.712729 -19.540491 4.0742106
-2.1539946 -0.93855828 -0.58853972
-21.30752 -20.06286 4.8857727
-2.204268 -0.9858318 -0.54794329
-21.427591 -20.10601 5.6086187
-2.2948613 -1.0592756 -0.45537311
-4.523097 -3.3750272 -0.7497735
-5.0893707 -3.9483294 -0.68786001
-0.96202624 0.31703401 -0.35903597
-5.9586725 -4.8308506 -0.61466891
-0.97606444 0.30318514 -0.35423309
-7.1701584 -6.0598617 -0.50457805
-0.99138677 0.28801593 -0.34947294
-8.0666685 -6.9564857 -0.30757958
-1.8925045 -0.69005829 -0.84209728
-7.4815903 -6.3301163 -0.065701202
-1.9457424 -0.74209422 -0.81953615
-7.3959885 -6.2176747 0.15662436
-1.996413 -0.79105514 -0.79297721
-7.4788408 -6.2770758 0.38569969
-1.9870888 -0.77525467 -0.7368291
-7.4614096 -6.2341852 0.61067337
-2.114887 -0.90629476 -0.73773849
-21.360836 -20.229498 2.8189828
-1.9426055 -0.71661764 -0.61944377
-21.216248 -20.008192 3.4765739
-2.027391 -0.8013528 -0.60026449
-20.831306 -19.546555 4.0808811
-2.1543314 -0.93002766 -0.58781379
-21.073137 -19.713377 4.8084617
-2.211494 -0.98429197 -0.549142
-21.487942 -20.050013 5.602612
-2.2561252 -1.0250287 -0.50427961
-21.467939 -19.952026 6.2991228
-2.3067682 -1.061491 -0.4572376
-4.5376644 -3.3663316 -0.7514928
-5.080699 -3.9122028 -0.68658972
-0.96913981 0.3113068 -0.36334619
-5.9483681 -4.7878652 -0.61405361
-0.97710001 0.30419883 -0.3543458
-7.1648226 -6.0147457 -0.50531721
-0.99121332 0.29043645 -0.34883538
-8.0863485 -6.931622 -0.30996108
-1.897632 -0.68765348 -0.84322935
-7.4854527 -6.2927527 -0.068124101
-1.9510421 -0.73954302 -0.8206417
-7.3967361 -6.1777778 0.15355562
-2.0148361 -0.80225819 -0.80030251
-7.432025 -6.1887574 0.3783257
-1.937584 -0.71393448 -0.71347487
-7.4552584 -6.1871886 0.60552239
-2.0626512 -0.84150535 -0.71519011
-21.470985 -20.216352 2.818979
-2.039746 -0.81140953 -0.65425414
-21.244413 -19.913961 3.4639502
-2.0262685 -0.79154009 -0.59894156
-20.985899 -19.580713 4.0938263
-2.1549044 -0.92124158 -0.58711535
-20.881084 -19.402119 4.7407227
-2.2054138 -0.96821088 -0.54682285
-21.819912 -20.25514 5.6697192
-2.2378087 -0.99595565 -0.49955463
-21.513567 -19.874559 6.2871971
-2.3024547 -1.0462615 -0.45597434
-5.0782013 -3.8811007 -0.68607944
-0.97143662 0.31102347 -0.36430389
-5.9527521 -4.7583313 -0.6147781
-0.97819316 0.30527559 -0.35446525
-7.170229 -5.9785647 -0.50672156
-0.99235082 0.29155681 -0.34895968
-8.0848045 -6.8826208 -0.3119632
-1.8927953 -0.6740635 -0.83868605
-7.4931698 -6.2570791 -0.070642814
-1.9642965 -0.74500042 -0.82578814
-7.4041281 -6.1424379 0.15060757
-2.0075798 -0.78541285 -0.79516172
-7.4211683 -6.1349769 0.37352282
-1.9509611 -0.71955663 -0.71800005
-7.4486704 -6.1376982 0.60010266
-2.0434041 -0.81179255 -0.70603842
-24.722879 -23.325958 3.2615235
-2.0843067 -0.84913951 -0.66949385
-22.9436 -21.471998 3.7410297
-2.0562878 -0.81395644 -0.60791391
-21.117731 -19.584164 4.1007771
-2.1570628 -0.91361552 -0.58684528
-20.985708 -19.379303 4.7435093
-2.2063479 -0.95900398 -0.54630518
-22.127636 -20.425913 5.7282009
-2.2703598 -1.0193577 -0.50631303
-21.491331 -19.723732 6.2530408
-2.3096294 -1.0447352 -0.45698649
-0.96494031 0.31990314 -0.35935432
-5.9472075 -4.7244897 -0.61456013
-0.97286552 0.31289589 -0.35057133
-7.1664228 -5.9401417 -0.50742239
-0.99203378 0.29384777 -0.34830728
-1.8974361 -0.67209548 -0.83976817
-7.4900818 -6.2179122 -0.072826162
-1.9807541 -0.75521702 -0.83287102
-7.3936958 -6.0964942 0.14745946
-2.0073318 -0.77763945 -0.79368693
-7.4672689 -6.145534 0.37368566
-2.038691 -0.80499715 -0.75559652
-7.442524 -6.0960712 0.59554791
-2.0591028 -0.82064372 -0.71127987
-24.726719 -23.20451 3.2462485
-2.0694196 -0.82569152 -0.66302919
-24.328215 -22.723837 3.9642937
-2.0991778 -0.85103363 -0.62129021
-21.243284 -19.60183 4.109726
-2.152951 -0.90114313 -0.58487988
-21.133245 -19.419062 4.7602186
-2.1995764 -0.94355255 -0.54391432
-21.765249 -19.961531 5.6081934
-2.287065 -1.0278373 -0.50958103
-2.328486 -1.053931 -0.46018267
-0.95604491 0.33151665 -0.3527298
-5.9391623 -4.684608 -0.61415809
-0.96636724 0.32194147 -0.34588754
-7.1605101 -5.895257 -0.50812405
-0.9905659 0.29760969 -0.34691149
-8.1238279 -6.8382087 -0.31649637
-1.8948386 -0.66150206 -0.83661979
-7.4934616 -6.1806698 -0.075223312
-2.006813 -0.77446216 -0.84470314
-7.3939104 -6.0567756 0.14442252
-2.0166898 -0.77903873 -0.79664546
-2.0046291 -0.76062185 -0.73918664
-7.4470692 -6.0605803 0.59165728
-2.0473952 -0.79968125 -0.7053051
-24.806475 -23.141912 3.2395906
-1.9783901 -0.72214013 -0.62854248
-2.1116781 -0.85508758 -0.62445736
-21.336626 -19.573082 4.1097074
-2.15749 -0.89662141 -0.58537978
-21.677961 -19.830853 4.8688335
-2.2056208 -0.94030839 -0.5447855
-21.799284 -19.87221 5.5937104
-2.3002703 -1.0314138 -0.5119887
-21.670427 -19.669706 6.2595267
-0.94143069 0.34468409 -0.38252968
-2.3348951 -1.0503147 -0.46100277
-0.99787688 0.28873649 -0.38062254
-0.97362316 0.31624311 -0.34999388
-7.1656885 -5.8617749 -0.50945485
-0.99415946 0.29597172 -0.34854189
-8.1615305 -6.8315673 -0.31931871
-1.8986135 -0.65771872 -0.83703727
-7.4980984 -6.1448755 -0.077599481
-2.0057261 -0.76488394 -0.84247655
-7.3953686 -6.0185199 0.14145471
-2.0195091 -0.77352482 -0.79647589
-7.6612234 -6.2566533 0.38056934
-1.9610575 -0.70679456 -0.71867579
-7.4671049 -6.0404997 0.58944142
-1.9701301 -0.71078283 -0.67298013
-23.076193 -21.306162 2.9812715
-1.966231 -0.70140105 -0.62307078
-25.077442 -23.178988 4.0534058
-2.0916481 -0.82549518 -0.61688179
-21.461193 -19.574303 4.1160374
-2.1565499 -0.88647026 -0.58427107
-21.748112 -19.777296 4.8640285
-2.202033 -0.92718893 -0.54316008
-20.906242 -18.888435 5.329216
-2.3065939 -1.0278733 -0.51284629
-21.736145 -19.612143 6.2540064
-2.3368196 -1.0427463 -0.46099502
-2.851953 -1.5549872 -0.48462349
-0.9487586 0.34162477 -0.36003619
-2.8624935 -1.5574353 -0.41211784
-0.97652501 0.31354532 -0.36557078
-2.883198 -1.5699639 -0.33983982
-0.97204578 0.31985575 -0.34849828
-7.1738491 -5.8336887 -0.51089585
-0.99260831 0.29966223 -0.34713781
-8.192277 -6.8204522 -0.32187086
-1.8982918 -0.65008909 -0.83528769
-7.4971361 -6.106091 -0.079872817
-2.0160756 -0.76782411 -0.84625572
-7.3869524 -5.9730725 0.13827555
-2.0194366 -0.76551086 -0.79502541
-7.6064529 -6.1644001 0.37298054
-1.9687445 -0.70719391 -0.72083515
-7.4716482 -6.0076065 0.58584237
-2.0327904 -0.7679407 -0.69706434
-23.346069 -21.446697 3.0032156
-2.0968814 -0.82835299 -0.66984916
-25.338341 -23.299324 4.07903
-2.0548823 -0.77954143 -0.60388345
-21.445795 -19.446535 4.0949287
-2.158041 -0.87940484 -0.58393544
-2.2036285 -0.9199931 -0.54292881
-20.988665 -18.858315 5.3302855
-2.305685 -1.01757 -0.51211476
-21.679462 -19.444586 6.2130623
-2.3460004 -1.0419066 -0.4623487
-0.94967937 0.34255821 -0.36013883
-2.8633652 -1.5452027 -0.41214818
-0.97752738 0.31456152 -0.36568254
-2.9209194 -1.5942504 -0.34337696
-0.96672302 0.32750264 -0.34460658
-0.99493313 0.29938474 -0.34801233
-8.2442493 -6.8275604 -0.32506675
-1.8968657 -0.6408996 -0.83284581
-7.5000362 -6.068975 -0.08224389
-2.0123267 -0.7555328 -0.84268516
-7.3866291 -5.9335456 0.13527159
-2.0235281 -0.76136297 -0.7954815
-2.020617 -0.75265402 -0.74226773
-7.5043974 -5.9999633 0.58498251
-1.9898918 -0.7154513 -0.67867929
-23.507868 -21.472548 3.009042
-2.0822244 -0.80458063 -0.66341716
-23.56278 -21.44437 3.7571161
-2.0672464 -0.7836569 -0.60704142
-21.577478 -19.45393 4.1026511
-2.1625161 -0.87486786 -0.58443427
-22.001181 -19.784983 4.8822289
-2.2068496 -0.91392595 -0.54308438
-22.135782 -19.836859 5.6149898
-2.3161492 -1.0182133 -0.5139094
-21.726112 -19.369473 6.2020235
-0.95486748 0.33588848 -0.39153123
-2.3467746 -1.0326238 -0.46210706
-2.8071377 -1.4843261 -0.47703093
-0.94936419 0.3447969 -0.35935658
-2.8500335 -1.518959 -0.41043121
-0.9997716 0.29323906 -0.38012984
-2.9034166 -1.5636375 -0.34194493
-0.96009403 0.33643958 -0.33991003
-2.9173553 -1.5692358 -0.26872742
-0.99470019 0.30178925 -0.34737149
-1.9018763 -0.63845605 -0.83397686
-7.50564 -6.0346961 -0.084584057
-2.0268564 -0.76223415 -0.84851032
-2.027607 -0.75720316 -0.79593807
-2.0807734 -0.80603236 -0.76723403
-1.9736511 -0.69075781 -0.67104083
-25.848162 -23.594355 3.31301
-2.0620093 -0.77538019 -0.65499657
-25.674986 -23.339214 4.0957456
-2.090596 -0.79880983 -0.61379862
-21.609228 -19.365021 4.0901232
-2.1614642 -0.86475068 -0.58331919
-22.258366 -19.908506 4.9211354
-2.2072744 -0.90506214 -0.54252309
-22.364317 -19.931887 5.6525021
-2.3015158 -0.99363834 -0.51008189
-21.746931 -19.2701 6.1833286
-0.94133258 0.3520678 -0.38001823
-2.3486254 -1.0250468 -0.46209747
-2.8461273 -1.5029876 -0.40988421
-0.98948991 0.30605736 -0.37264901
-2.8768289 -1.5251501 -0.33968484
-0.96986461 0.3280957 -0.34561771
-2.90784 -1.5475075 -0.26851988
-0.99439549 0.3041265 -0.34672302
-2.9220126 -1.5532715 -0.19531748
-1.901468 -0.63085204 -0.83222234
-7.5013294 -5.9932756 -0.086850896
-2.014926 -0.74210018 -0.84087843
-7.6773748 -6.139473 0.14105086
-2.0221481 -0.74376744 -0.79197156
-7.5552568 -5.9969625 0.35837024
-2.0177836 -0.73366851 -0.73847938
-2.0259595 -0.73640424 -0.69086701
-23.809933 -21.508087 3.018378
-2.0059829 -0.71072286 -0.63367468
-23.739885 -21.359787 3.7509558
-2.137125 -0.83761436 -0.62818396
-21.546719 -19.19384 4.0598526
-2.158725 -0.8535319 -0.58176774
-21.382925 -18.964865 4.6969376
-2.2115664 -0.9006595 -0.54300547
-21.279924 -18.794064 5.3424449
-2.2766795 -0.9596923 -0.50401956
-21.97175 -19.369791 6.2271042
-0.95190716 0.34287873 -0.38786837
-2.3580799 -1.0238345 -0.46348888
-2.8528554 -1.4960444 -0.41064358
-0.99560106 0.30194834 -0.37614757
-2.8807867 -1.5153303 -0.34019613
-0.97597826 0.32387814 -0.34893936
-2.8889537 -1.5153108 -0.26781079
-1.0058 0.29463363 -0.35291886
-2.9246407 -1.5419395 -0.19599113
-1.9053699 -0.62682587 -0.83266264
-2.0125861 -0.73098618 -0.83799624
-7.6598225 -6.0800233 0.13711558
-2.0210896 -0.73395008 -0.78993857
-7.5646782 -5.9642811 0.35518306
-2.0153127 -0.72247964 -0.73603612
-7.4873304 -5.8660426 0.57039523
-2.0085411 -0.71011132 -0.68271255
-28.026205 -25.379883 3.5722287
-1.9883204 -0.68440527 -0.62622786
-22.85284 -20.380934 3.5827918
-2.1444752 -0.83562928 -0.62960291
-21.759472 -19.270056 4.0826449
-2.1578369 -0.84319168 -0.58067524
-21.609196 -19.05438 4.727881
-2.2052183 -0.8845945 -0.54067594
-21.360697 -18.747393 5.3403568
-2.2802842 -0.95313495 -0.50427121
-24.611685 -21.708313 6.9853172
-0.96116519 0.33484873 -0.3947382
-2.3553572 -1.0123785 -0.46264291
-0.95198387 0.34749955 -0.35965216
-0.99651372 0.30289555 -0.37625098
-2.8936007 -1.5164132 -0.34148324
-0.96662682 0.3352856 -0.34262103
-1.0041524 0.29825425 -0.35150614
-2.9231937 -1.529031 -0.19645883
-1.8955444 -0.61012274 -0.82586581
-2.9852867 -1.5805969 -0.12215973
-2.0187397 -0.7300269 -0.83973956
-7.6081257 -5.9953747 0.13242422
-2.0259528 -0.73163813 -0.7909674
-7.5054379 -5.8731966 0.34778941
-2.0619183 -0.76229364 -0.75514966
-7.4813604 -5.8262472 0.56606776
-2.1071377 -0.80201489 -0.72091705
-27.740599 -24.973495 3.5166838
-1.9903831 -0.67947227 -0.62612134
-22.901199 -20.316439 3.575289
-2.152442 -0.83578533 -0.63138783
-21.777636 -19.182747 4.0697703
-2.1603024 -0.83781046 -0.58070713
-21.455641 -18.807354 4.6743398
-2.211987 -0.88323992 -0.5418449
-22.499777 -19.7075 5.6210003
-2.2774062 -0.94188911 -0.50317281
-24.688585 -21.662292 6.9836397
-2.3628011 -1.0103395 -0.46370333
-0.95657504 0.34452251 -0.36240855
-2.8643918 -1.4840381 -0.41195333
-0.97979212 0.32210416 -0.36453351
-2.8953271 -1.5059581 -0.34178036
-0.96623468 0.3375228 -0.34191966
-2.9107325 -1.5128326 -0.26972353
-0.99866384 0.30589005 -0.34781963
-2.9206316 -1.5143645 -0.19692913
-1.8858544 -0.59325963 -0.8190859
-2.0224824 -0.72612125 -0.84016532
-7.6745033 -6.0214615 0.13214745
-1.9828885 -0.6805734 -0.76936698
-7.4700899 -5.8032708 0.34193921
-2.0279579 -0.7203576 -0.7391997
-7.4865141 -5.7949271 0.56266153
-2.0375381 -0.72439164 -0.69217867
-27.961941 -25.03883 3.5285287
-1.9954044 -0.67703229 -0.62703216
-24.166866 -21.38596 3.7689466
-2.1482191 -0.82329696 -0.62914658
-22.160603 -19.429592 4.1282043
-2.1588249 -0.82803112 -0.57955176
-21.663824 -18.892221 4.7033119
-2.2092061 -0.87192625 -0.54052657
-22.652681 -19.735258 5.6393709
-2.2874522 -0.94282395 -0.50493091
-22.091339 -19.138718 6.1912737
-2.385046 -1.0214667 -0.46751869
-0.96004152 0.34296733 -0.36429274
-0.99350286 0.31023389 -0.37310463
-2.8963203 -1.4933419 -0.34203088
-0.96979439 0.33595097 -0.3436386
-2.9189694 -1.5070834 -0.27058327
-0.99845374 0.30835015 -0.34718376
-2.9158623 -1.4961782 -0.19740552
-1.8975271 -0.59724015 -0.82382208
-2.9492388 -1.5198913 -0.12397536
-1.961586 -0.65631276 -0.8076399
-7.6693335 -5.9747152 0.12875836
-1.9722004 -0.66152948 -0.76290399
-7.4569969 -5.7504096 0.33728284
-1.991527 -0.67544764 -0.72210729
-7.5185223 -5.7844596 0.56151795
-2.0089693 -0.68739885 -0.67967695
-25.910265 -22.959063 3.2345719
-1.9967436 -0.67000943 -0.62650716
-23.138453 -20.289398 3.5794799
-2.1388893 -0.80484658 -0.62515259
-22.283924 -19.417791 4.1326509
-2.1606073 -0.82048196 -0.57926291
-21.694262 -18.797371 4.6888924
-2.2181511 -0.87109214 -0.54214746
-22.557495 -19.519156 5.5900211
-2.286747 -0.93211132 -0.50423759
-3.0447958 -1.535387 0.56824982
-2.7380266 -1.3519561 -0.53375399
-0.95719433 0.34777561 -0.36173558
-0.99959815 0.30613399 -0.37660331
-2.893997 -1.478379 -0.34197432
-0.97202313 0.33564237 -0.34454978
-2.9268165 -1.5017018 -0.27140173
-0.98905027 0.31993091 -0.34121555
-2.922245 -1.4894366 -0.19813767
-1.8681651 -0.56039959 -0.80629116
-2.955708 -1.5130582 -0.12471747
-1.9893322 -0.67628843 -0.82020396
-7.6453075 -5.9128547 0.12486027
-2.0513482 -0.73248953 -0.79863381
-7.4775171 -5.7316408 0.33519709
-2.0904522 -0.76559907 -0.76358145
-7.510026 -5.7383137 0.55651188
-2.0073743 -0.67788428 -0.67795688
-22.95985 -20.07641 2.8253639
-2.0144067 -0.67952698 -0.63191628
-23.112303 -20.140858 3.5576706
-22.572596 -19.564878 4.1706114
-2.1607041 -0.81183618 -0.57853758
-3.0428398 -1.5372581 0.41025674
-2.2240217 -0.86775273 -0.54301995
-3.0398936 -1.5262215 0.48634082
-2.3027472 -0.93819112 -0.50729293
-0.95683861 0.35001063 -0.36095172
-1.0018948 0.30593157 -0.37756717
-2.8814681 -1.4538372 -0.34099478
-0.97554749 0.33404553 -0.34626561
-2.920126 -1.4825709 -0.27137253
-0.99526668 0.31574661 -0.34437388
-2.9227834 -1.4771943 -0.19871588
-1.8465351 -0.53165561 -0.7930479
-2.9563215 -1.5007339 -0.12549214
-2.0212104 -0.70008868 -0.8348074
-7.6443501 -5.873034 0.1218556
-2.0836797 -0.75627369 -0.81233859
-7.4716692 -5.6883092 0.33129972
-2.0632205 -0.73038405 -0.75056094
-3.0731113 -1.5852108 0.10636784
-2.0098588 -0.6724363 -0.67785949
-3.0461369 -1.5519693 0.17957561
-2.0196662 -0.67676491 -0.63285977
-3.0471122 -1.5446346 0.25573671
-1.96589 -0.61920506 -0.56733036
-3.0540497 -1.5426819 0.33386403
-2.1663861 -0.80865532 -0.57943696
-3.0480247 -1.528872 0.40916067
-2.224227 -0.85892481 -0.54244846
-2.3074129 -0.9332338 -0.50783038
-3.0407386 -1.5055175 0.56165093
-0.96569216 0.33962843 -0.39525735
-2.8597529 -1.4378805 -0.4832083
-0.97528362 0.33303091 -0.37347746
-0.98873824 0.32102525 -0.36836004
-2.9058349 -1.4657683 -0.3433404
-0.97120452 0.34011886 -0.34314603
-2.900955 -1.4533432 -0.2705673
-2.9108508 -1.454828 -0.19889253
-1.8760372 -0.55473953 -0.80776525
-2.9897664 -1.5206089 -0.12600328
-2.0206246 -0.69245225 -0.83317989
-7.6277676 -5.8234587 0.11864041
-2.027739 -0.69388062 -0.78498489
-3.0490673 -1.5594921 0.026287138
-2.0012016 -0.66238338 -0.72279173
-3.0365231 -1.5396559 0.10143121
-2.0325372 -0.68763727 -0.685844
-3.0431969 -1.5376325 0.17774244
-2.0550227 -0.70417637 -0.64469969
-3.0471036 -1.5330207 0.25410539
-2.046133 -0.69024462 -0.59260654
-3.0613716 -1.5377555 0.33347136
-2.1631057 -0.79783434 -0.57783669
-3.053863 -1.5226338 0.40848553
-2.2281308 -0.85475355 -0.54289997
-2.3243556 -0.94114 -0.51115024
-3.0363846 -1.4901459 0.55802596
-0.95857465 0.35187146 -0.36115295
-2.8391047 -1.3975632 -0.40859449
-0.99233907 0.31957895 -0.37017435
-2.9008141 -1.4477277 -0.34305358
-0.97478461 0.33859348 -0.3448692
-2.9323869 -1.4694288 -0.27279359
-2.92187 -1.451792 -0.19978088
-1.8996413 -0.57045072 -0.81897587
-2.9262156 -1.4479811 -0.12713698
-2.023375 -0.68673366 -0.83297992
-3.0438495 -1.5488622 -0.050882041
-2.0671258 -0.72395843 -0.80188257
-3.0413771 -1.5384338 0.024477646
-2.0380983 -0.69006795 -0.73735911
-3.0361362 -1.5254316 0.099891976
-2.137517 -0.78105325 -0.72594464
-3.0442934 -1.5247645 0.17616348
-2.0703421 -0.71045631 -0.64916939
-3.0467408 -1.5188367 0.25210375
-2.069927 -0.70470196 -0.59943199
-3.0522521 -1.5155911 0.32952791
-2.1633492 -0.78895026 -0.57713443
-3.0579197 -1.5124834 0.40701407
-2.242758 -0.85924393 -0.54597783
-3.0432568 -1.491008 0.47996098
-2.3335955 -0.9399063 -0.51267463
-3.0345681 -1.4748812 0.554694
-2.8267646 -1.382863 -0.47761947
-0.96443194 0.34765765 -0.36480039
-0.99320692 0.32051706 -0.37027553
-2.8916965 -1.4281971 -0.34236762
-0.97430646 0.34077117 -0.34416032
-2.9071932 -1.4348717 -0.27162921
-1.8279524 -0.49870378 -0.82495904
-2.9288535 -1.4471874 -0.20046407
-1.9107319 -0.57494348 -0.82365304
-2.9552605 -1.4637072 -0.12767458
-2.0200396 -0.67648453 -0.82999778
-3.0481763 -1.5412412 -0.051611088
-2.0420635 -0.69238907 -0.78901988
-3.0456901 -1.5308301 0.023703799
-1.9989616 -0.64512986 -0.71953398
-3.0374823 -1.5151644 0.098782375
-2.045609 -0.68486851 -0.6888929
-3.0382876 -1.5078051 0.17395495
-2.0333419 -0.66775376 -0.63512045
-3.0407441 -1.5019259 0.24952717
-2.0959296 -0.7224825 -0.60709608
-3.0492191 -1.5013797 0.32714885
-2.1628132 -0.78088111 -0.57634348
-3.0622473 -1.5049009 0.40600866
-2.2694764 -0.87669986 -0.55223507
-3.0504739 -1.486099 0.4796654
-2.3534918 -0.95038396 -0.51664233
-3.034457 -1.4634864 0.55234236
-0.97169101 0.34232846 -0.36935288
-0.9890331 0.32667556 -0.36699945
-2.8890643 -1.4133728 -0.34228992
-0.98306429 0.33407599 -0.34910059
-2.8942957 -1.4105251 -0.2712259
-1.8404953 -0.5041756 -0.83068419
-2.9292054 -1.4349914 -0.20103237
-1.9209337 -0.57762855 -0.82766426
-2.949769 -1.4460442 -0.12846166
-2.0049548 -0.65397376 -0.82097942
-3.0488198 -1.5287297 -0.052587412
-2.0882213 -0.729065 -0.80907774
-3.046315 -1.5183487 0.022544086
-2.026119 -0.66359359 -0.72997487
-3.0277321 -1.4933555 0.096423402
-2.0272629 -0.65933532 -0.68064868
-3.0433109 -1.4994044 0.17300265
-2.0259778 -0.65287703 -0.63157815
-3.0413394 -1.4895465 0.24781682
