# .PCD v0.7 - Point Cloud Data file format
VERSION 0.7
FIELDS x y z
SIZE 4 4 4
TYPE F F F
COUNT 1 1 1
WIDTH 1550
HEIGHT 1
VIEWPOINT 0 0 0 1 0 0 0
POINTS 1550
DATA ascii
0.84994155 3.6432014 -1.163499
13.982427 21.288168 -1.0851691
0.98243809 3.8191538 -1.1916491
14.04098 21.406937 -0.52436686
1.0202041 3.8728261 -1.1504998
14.115252 21.547558 0.046651028
1.1575671 4.0563431 -1.1642604
14.187412 21.685577 0.62085479
1.3106722 4.2611246 -1.1763935
14.267871 21.835371 1.2038851
1.5075783 4.5240211 -1.1985031
14.373764 22.020555 1.804108
1.7219179 4.8109064 -1.2126689
14.441441 22.154499 2.4054532
2.0803494 5.2881851 -1.2707646
14.496629 22.272171 3.0139651
2.4251261 5.7494898 -1.2959015
14.583167 22.433542 3.6446099
0.39564309 3.0282226 -1.1434672
2.8031206 6.2342443 -1.3004515
0.39593166 3.0319195 -1.0971305
3.5974379 7.2883568 -1.4036202
0.46816868 3.1268477 -1.1195965
4.5097842 8.5024233 -1.4756324
0.55863607 3.2454019 -1.1523813
0.64160305 3.3549438 -1.1710138
8.2502413 13.4816 -1.7471591
0.68772572 3.4177828 -1.1541737
12.24493 18.804529 -1.9624636
0.76624829 3.5224061 -1.1585197
13.768769 20.865528 -1.6181691
0.88256764 3.6760905 -1.1831322
13.94828 21.144062 -1.0776335
0.97824383 3.8037875 -1.1853718
14.011905 21.26894 -0.52008146
1.0858872 3.947464 -1.1878037
14.084146 21.406078 0.047920555
1.1734087 4.0656986 -1.1699538
14.15671 21.543865 0.61907786
1.3189613 4.2596827 -1.177317
14.236445 21.691885 1.1989527
1.483847 4.4796114 -1.1831516
14.336998 21.868877 1.7952775
1.7726419 4.8620548 -1.2319611
14.409959 22.009182 2.3941307
2.0558252 5.2387228 -1.2566725
14.468037 22.130106 3.0000224
2.4217162 5.7252617 -1.2905263
14.542315 22.274 3.6243572
0.39105663 3.0148444 -1.1346104
2.8539805 6.2720518 -1.3119848
0.40505198 3.035743 -1.1021364
3.6062598 7.2644997 -1.4002446
0.47227785 3.1237643 -1.1193765
4.5355988 8.4929314 -1.4757243
0.54680657 3.2214015 -1.137714
0.64643651 3.3513153 -1.1707547
8.359128 13.549053 -1.7579374
0.71274513 3.439424 -1.1697286
12.317583 18.789854 -1.9622605
0.7446928 3.4840922 -1.1381385
13.749001 20.715599 -1.6070693
0.8657828 3.6428001 -1.166927
13.925692 20.988571 -1.0693284
0.99589217 3.8137083 -1.1925547
13.99208 21.11628 -0.51501435
1.1006253 3.9527671 -1.1924056
14.065955 21.254694 0.049894322
1.1793112 4.0589104 -1.1689111
14.138999 21.392206 0.61800861
1.3219693 4.2479153 -1.1744227
14.213302 21.531975 1.1942823
1.5320491 4.5248337 -1.2023071
14.315749 21.710321 1.7874808
1.834046 4.9220266 -1.2548436
14.382193 21.840973 2.381887
2.0878825 5.2583151 -1.2648591
14.444463 21.966694 2.9850464
2.3781295 5.6433544 -1.2691054
14.52184 22.113789 3.6066146
0.38197318 2.9964139 -1.1214426
2.8492332 6.2387829 -1.3053359
0.41185999 3.0370159 -1.105067
3.6428499 7.2788086 -1.4053268
0.48154697 3.1276033 -1.1241776
4.5686612 8.4952002 -1.4780061
0.56298137 3.2333508 -1.1480668
5.9508519 10.311983 -1.5759392
0.65650839 3.3548291 -1.1751111
8.4906292 13.649095 -1.7730335
0.71867418 3.4371939 -1.1703478
12.315935 18.683685 -1.9524094
0.70910996 3.429038 -1.1077397
13.732402 20.578007 -1.596889
0.88028294 3.6502438 -1.1729902
13.907409 20.847073 -1.0617431
0.98807514 3.7917445 -1.1832163
13.970513 20.969646 -0.51020867
1.1196543 3.9641724 -1.199857
14.043599 21.10614 0.05165958
1.2161708 4.0925226 -1.1858298
14.113482 21.238605 0.61653131
1.3151411 4.2244825 -1.1665862
14.189507 21.379772 1.189738
1.541256 4.5202761 -1.2024509
14.298618 21.565845 1.7805859
1.7924017 4.8495855 -1.2314944
14.362028 21.691631 2.3714814
2.0814562 5.2291327 -1.2574968
14.417753 21.807825 2.9701042
2.4002204 5.6486683 -1.2724677
14.499413 21.959705 3.5892525
0.34702346 2.9469287 -1.082353
2.9148908 6.2996874 -1.3225098
0.41611832 3.0359237 -1.1059362
3.6764455 7.2928486 -1.4101528
0.50230652 3.1466022 -1.1400197
4.5885735 8.485034 -1.4776672
0.58312351 3.2510762 -1.1622863
6.0433393 10.386174 -1.5896982
0.65832126 3.3489926 -1.1730527
0.70501518 3.4114797 -1.1560595
12.343112 18.627979 -1.9476981
0.75059575 3.4727855 -1.1351267
13.707405 20.444044 -1.5869651
0.9181307 3.6883273 -1.1957605
13.881841 20.710867 -1.0545388
0.97601044 3.7659996 -1.1716664
13.942816 20.829948 -0.50581324
1.0917006 3.9172974 -1.1790147
14.010218 20.958187 0.052978046
1.2291229 4.0968943 -1.1894932
14.091406 21.104761 0.61526424
1.349605 4.2555981 -1.1811349
14.165467 21.24254 1.1854802
1.5707612 4.5435553 -1.2130147
14.263171 21.412495 1.7718631
1.8228908 4.8724251 -1.2411581
14.335514 21.54937 2.3608856
2.1464357 5.2942629 -1.2798728
14.385798 21.657669 2.9552665
2.4401884 5.6795425 -1.2829564
14.466959 21.808002 3.5708938
0.37263802 2.971808 -1.1048712
2.8714952 6.2168865 -1.3032062
0.42509991 3.0397999 -1.1109465
3.702383 7.2928476 -1.4120672
0.49972498 3.1355076 -1.1337962
4.6666007 8.5448179 -1.4911827
0.59507841 3.2573862 -1.1687827
5.3856144 9.4859953 -1.4434693
0.67398727 3.3593652 -1.1820039
8.5225916 13.554708 -1.7635224
0.72883856 3.4317055 -1.170736
12.446605 18.659252 -1.9522671
0.76684153 3.4832282 -1.1432252
13.684601 20.300659 -1.5763547
0.89394259 3.6467564 -1.1748166
13.858532 20.565165 -1.0467829
0.98063773 3.7601297 -1.1706002
13.919834 20.683903 -0.50105643
1.0816586 3.892019 -1.1687647
14.00465 20.834064 0.055000428
1.2288632 4.0828466 -1.1851412
14.065654 20.953354 0.61380315
1.3132466 4.194849 -1.157797
14.137809 21.087763 1.1806586
1.583589 4.5433903 -1.2148784
14.242206 21.265421 1.7645992
1.8021728 4.8275938 -1.2273901
14.327161 21.418041 2.3526974
2.1280274 5.249732 -1.2676448
14.364751 21.50894 2.9417839
2.4480433 5.666172 -1.2810102
14.444232 21.656116 3.5537772
0.40480125 3.0043674 -1.1338644
2.9232993 6.2561846 -1.3151355
0.43195644 3.0409865 -1.1138723
3.6676183 7.2152548 -1.3964999
0.5210982 3.1540027 -1.1496035
4.6902246 8.5341291 -1.4910026
0.60376883 3.259551 -1.1723925
0.68079746 3.3586056 -1.1835932
8.9741402 14.062972 -1.8337125
0.73137426 3.4252229 -1.168718
12.461107 18.575182 -1.9447451
0.80364913 3.5190775 -1.166373
13.669621 20.168617 -1.5666007
0.90511179 3.6497426 -1.178489
13.839375 20.426094 -1.0393422
0.98408437 3.7528033 -1.1687839
13.90343 20.54767 -0.4964819
1.0819772 3.8799777 -1.1648902
14.071713 20.805191 0.058251232
1.2120824 4.0481586 -1.1714979
14.059843 20.82922 0.6134553
1.3616842 4.2415466 -1.1791083
14.120296 20.947578 1.1768299
1.5500406 4.4846306 -1.1942893
14.221698 21.120239 1.7574707
1.8242582 4.8373632 -1.2327403
14.291573 21.25218 2.339951
2.1346083 5.2373304 -1.2656305
14.340532 21.357365 2.9277692
2.4486036 5.6435928 -1.2764196
14.42073 21.50456 3.5366344
0.42093617 3.0174074 -1.146649
2.950284 6.2650547 -1.319193
0.41913557 3.0185308 -1.0980707
3.7521915 7.2917347 -1.4155796
0.5423584 3.1725669 -1.1654155
4.7016635 8.5102835 -1.4881514
0.60225981 3.2496319 -1.1673678
6.0702295 10.267925 -1.5755876
0.68286568 3.3525164 -1.1815183
9.1322317 14.194627 -1.8531629
0.74378604 3.4315193 -1.1746173
12.517735 18.551537 -1.9434967
0.82325029 3.5337675 -1.1769817
13.64345 20.029829 -1.5563322
0.9044674 3.6386368 -1.17424
13.818764 20.29294 -1.0322462
0.99065042 3.750067 -1.1692375
13.88191 20.412617 -0.4920814
1.0666584 3.8492601 -1.1518393
14.129333 20.770733 0.061228823
1.1982622 4.0183053 -1.1598749
14.124771 20.80426 0.61702204
1.3862542 4.2585945 -1.1880311
14.107342 20.82126 1.1735938
1.5562938 4.4773722 -1.1933055
14.194728 20.974754 1.7498142
1.8242917 4.8202724 -1.2285643
14.268801 21.111338 2.3298807
2.1755166 5.269453 -1.2777332
14.313436 21.210266 2.9137969
2.4992528 5.6857996 -1.2903701
14.395529 21.359037 3.5198774
0.40861669 2.9950161 -1.1302367
2.9813418 6.2756586 -1.3239458
0.45332515 3.0524945 -1.1270028
3.7755179 7.2860527 -1.4163755
0.56311512 3.1893134 -1.1801931
4.725153 8.4970102 -1.4875979
0.57005042 3.2013624 -1.1354258
5.4328022 9.406847 -1.4353622
0.68881661 3.3501339 -1.1821707
9.2573376 14.273672 -1.8657795
0.72500235 3.3983278 -1.155905
12.544424 18.477718 -1.937138
0.8481397 3.5535281 -1.1908937
13.627844 19.892702 -1.5462124
0.93680167 3.6669691 -1.192168
13.800207 20.150341 -1.0246042
1.0002203 3.7496634 -1.1711549
13.862453 20.268091 -0.48727328
1.1106551 3.8908653 -1.1741186
14.154062 20.680519 0.063895673
1.2324014 4.0467157 -1.1747508
14.195002 20.772385 0.62089515
1.3963027 4.2555923 -1.1888477
14.182405 20.795721 1.1783373
1.5910152 4.5037413 -1.2054979
14.174854 20.826006 1.7426556
1.8337244 4.812932 -1.228044
14.242224 20.953035 2.3184972
2.1778889 5.2503977 -1.273737
14.295906 21.063009 2.9009242
2.4919529 5.651927 -1.2826558
14.372674 21.203915 3.5025678
0.41836256 3.0002077 -1.1365348
2.9950218 6.2674389 -1.3236504
0.45241052 3.0445356 -1.1226499
3.8190556 7.3094893 -1.4235499
0.57136583 3.1916475 -1.183983
4.7610626 8.5040417 -1.4908051
0.55605143 3.1766844 -1.1198483
0.69197232 3.345408 -1.1810142
9.2884445 14.241732 -1.8632189
0.71459633 3.3768094 -1.1442524
12.583533 18.431896 -1.9335722
0.81501293 3.5033255 -1.1630487
13.608972 19.765469 -1.5368184
0.96287078 3.688524 -1.2061549
13.77703 20.016165 -1.0174824
0.9845407 3.719563 -1.1573522
13.844526 20.139885 -0.48302105
1.0680741 3.8267977 -1.144811
14.159509 20.579733 0.065978192
1.2635759 4.0726242 -1.1883304
1.3636469 4.2014637 -1.1680374
14.253359 20.778204 1.1829612
1.6309946 4.5381203 -1.2206043
14.158709 20.696844 1.7365562
1.8626478 4.8319168 -1.2365905
14.224141 20.820648 2.3094134
2.2008452 5.2595253 -1.2785422
14.262504 20.910259 2.8858895
2.5014434 5.6420155 -1.2816224
14.343608 21.055895 3.4851599
0.43138728 3.0092251 -1.1460702
3.017283 6.2698679 -1.326111
0.47224808 3.0615144 -1.1380633
3.8664541 7.3373318 -1.4317575
0.55748755 3.1673186 -1.1677626
4.785924 8.4970369 -1.4912792
0.59457165 3.2155564 -1.149397
6.3642645 10.486097 -1.6171629
0.69058102 3.3351994 -1.1761832
9.4434538 14.365209 -1.8816968
0.69835705 3.3484302 -1.1282179
12.58774 18.342314 -1.9254047
0.86245263 3.5515265 -1.1936971
13.587009 19.635363 -1.5272093
0.95761406 3.6716328 -1.1987296
13.758187 19.888529 -1.0106689
1.0180482 3.7498038 -1.1750561
13.821028 20.005648 -0.47868943
1.083151 3.8339736 -1.1501533
14.101317 20.398979 0.066937163
1.2615269 4.0574255 -1.1833396
14.212142 20.578463 0.62188423
1.3823007 4.2109766 -1.173857
14.293479 20.72117 1.1847363
1.6301444 4.5217218 -1.216159
14.137048 20.561651 1.7297926
1.8552904 4.8058014 -1.2292347
14.204211 20.686945 2.3000994
2.1958303 5.23384 -1.2721875
14.246685 20.78129 2.8746266
2.4998813 5.6184082 -1.2766294
14.31748 20.912842 3.4686275
0.44163856 3.0139837 -1.1523387
2.9967251 6.2161093 -1.3143022
0.508012 3.0963578 -1.1680063
3.897419 7.3404341 -1.4346174
0.57285047 3.1772332 -1.1775273
4.8106399 8.4850149 -1.4910123
0.60008794 3.2134237 -1.1501106
6.4201074 10.50005 -1.6215318
0.69535184 3.331418 -1.1759167
9.3608894 14.181947 -1.858896
0.73187369 3.3791893 -1.1498764
12.603507 18.25606 -1.9177465
0.86906391 3.548605 -1.1942271
13.573092 19.503733 -1.5175117
0.9611029 3.6641805 -1.1968184
13.741251 19.751484 -1.0033127
1.0182202 3.7378402 -1.1709673
13.804417 19.868259 -0.47405395
1.1322684 3.8809781 -1.1752334
1.2889111 4.0766506 -1.1942106
14.156384 20.388006 0.6188581
1.3789713 4.1917763 -1.1678686
14.420432 20.760691 1.1943387
1.5538052 4.4111309 -1.1754757
14.122407 20.423176 1.7235268
14.1815 20.537422 2.2896729
2.1575971 5.1651125 -1.252202
14.22572 20.633364 2.8614235
2.5695992 5.6801605 -1.2966191
14.31305 20.785152 3.4563322
0.43606895 3.001205 -1.1435266
3.041666 6.2479897 -1.3242815
0.50915951 3.0910757 -1.165738
3.9267893 7.3472414 -1.4379805
0.571953 3.1690924 -1.1733274
4.8530059 8.5018101 -1.4960753
0.6184113 3.2279823 -1.1623799
6.666122 10.757987 -1.666073
0.70958388 3.3405166 -1.1839575
0.74633157 3.3883467 -1.1575381
12.592793 18.154985 -1.9082872
0.80496961 3.4626043 -1.1447104
13.550545 19.381271 -1.5084713
0.95772618 3.6504374 -1.1910005
13.715539 19.62372 -0.99657607
1.0208805 3.7309775 -1.1691859
13.781488 19.743311 -0.47004285
1.1066663 3.8391814 -1.156566
14.110217 20.192665 0.071152151
1.2539939 4.0224409 -1.1713576
1.3501307 4.1442394 -1.1495847
14.489446 20.746515 1.1989393
1.6226009 4.4812288 -1.2043775
14.094994 20.289511 1.7163754
1.7905817 4.6921825 -1.1928102
14.155801 20.405279 2.2799234
2.1614499 5.1521158 -1.2497721
14.200487 20.501261 2.8489199
2.5871167 5.6811638 -1.2986861
14.383962 20.774147 3.4644804
0.42866269 2.9855714 -1.1325363
3.0535755 6.2359266 -1.3231455
0.50519967 3.0789258 -1.1582477
3.9556742 7.3493242 -1.4405308
0.56701082 3.1552999 -1.1651027
4.8903461 8.5073462 -1.4991835
0.64298272 3.2487543 -1.1794105
6.7565212 10.815166 -1.6776159
0.718687 3.3423243 -1.1873745
10.360179 15.272462 -2.0105696
0.73248881 3.3625889 -1.1432492
12.606133 18.072756 -1.9009734
0.85538065 3.5130157 -1.176989
13.529781 19.249481 -1.4987559
0.96434557 3.6474817 -1.1914856
13.704204 19.502151 -0.99000627
1.0443728 3.747786 -1.1801041
13.760428 19.608952 -0.46562877
1.1282197 3.8530734 -1.1654063
1.2183465 3.9663723 -1.1478143
14.167915 20.191956 0.61961627
1.4128325 4.2060957 -1.1776319
14.57752 20.742439 1.2050768
1.537757 4.3626442 -1.1603121
14.068355 20.144796 1.7089142
1.8322327 4.7255306 -1.2066129
14.134645 20.266718 2.2703061
2.1134062 5.0737438 -1.2264582
14.176118 20.358065 2.8357401
2.547832 5.6101294 -1.2800386
14.454059 20.748344 3.4712105
0.43870321 2.9904475 -1.1388134
3.0866385 6.2495642 -1.3286912
0.4878521 3.0512245 -1.1382868
3.9846077 7.3512859 -1.4430741
0.56761205 3.14814 -1.1618788
4.9102087 8.4913225 -1.4980567
0.63814133 3.2346275 -1.1714966
0.72551489 3.3413818 -1.1889532
10.451736 15.303378 -2.0168881
0.75216025 3.3767393 -1.1543816
12.590131 17.95505 -1.889914
0.88033283 3.5325775 -1.1908892
13.512132 19.122637 -1.4894141
0.96623212 3.6388843 -1.188802
13.683454 19.369942 -0.98296392
1.0596373 3.7545302 -1.1857711
13.746256 19.484203 -0.46138209
1.0946175 3.8008521 -1.141773
14.375601 20.300026 0.080128804
1.2198764 3.9554403 -1.1448051
1.4199165 4.2003813 -1.1772306
14.664443 20.736456 1.2111195
1.6371603 4.4670582 -1.2029107
14.049722 20.011269 1.7025591
1.8544037 4.7349062 -1.2119398
14.116531 20.133093 2.2612877
2.3247337 5.3096409 -1.304786
14.154756 20.219824 2.823298
2.5305109 5.5664444 -1.2693083
14.488363 20.67749 3.4692335
0.44218311 2.987623 -1.1386156
3.1260734 6.2705946 -1.3361906
0.47702765 3.0314112 -1.1245691
4.0123405 7.3516121 -1.4452629
0.57607317 3.1501946 -1.1656508
4.9098868 8.4508448 -1.4921042
0.62067616 3.2058671 -1.1530396
6.4530082 10.338651 -1.6023623
0.73580676 3.3444681 -1.1932833
10.448848 15.218627 -2.0074954
0.74979609 3.3647695 -1.1488618
12.573541 17.837587 -1.8788759
0.88777715 3.5312166 -1.1922672
13.492584 18.994497 -1.4799783
0.99062383 3.6569278 -1.2011585
13.664569 19.241114 -0.97608489
1.0474395 3.7286096 -1.1742116
13.732731 19.361248 -0.45718017
1.1270177 3.8275721 -1.1569602
14.533558 20.383026 0.085127026
1.2432103 3.9705286 -1.1537069
14.439697 20.306293 0.63478702
1.4330927 4.2019377 -1.1799167
14.164639 20.005493 1.163112
1.6487077 4.4650898 -1.204183
14.034184 19.882677 1.6966691
1.8840652 4.7530594 -1.2204312
14.095258 19.996658 2.2518301
2.3338609 5.2997332 -1.3037113
14.13519 20.084957 2.8113408
2.491756 5.4973783 -1.2511344
14.48895 20.564968 3.4591303
0.455589 2.9962385 -1.1481242
3.117938 6.2341976 -1.3287609
0.48733556 3.036227 -1.130596
4.0438895 7.3563585 -1.4484856
0.59474367 3.1640182 -1.1784114
4.9169478 8.4195528 -1.4879642
0.62937444 3.2078261 -1.1566379
6.4732447 10.311884 -1.5998936
0.73802823 3.3380661 -1.1911892
9.5722504 14.077823 -1.8542061
0.78010541 3.3910739 -1.1678684
12.546227 17.708065 -1.8665553
0.89640743 3.5312095 -1.1944778
13.481286 18.87742 -1.4713759
0.98775029 3.6426785 -1.1953068
13.651389 19.12027 -0.96957695
1.0615146 3.7338746 -1.1791276
13.712263 19.230793 -0.45288116
1.1341878 3.8241329 -1.1573242
13.939919 19.545843 0.076307073
1.2508115 3.9667578 -1.1540029
1.4610134 4.2208834 -1.1900084
1.6763 4.4821348 -1.2129039
14.011735 19.746599 1.6899434
1.869208 4.7178774 -1.2098956
14.082083 19.871307 2.2438107
2.3354774 5.2808762 -1.2997355
14.113718 19.948843 2.7991033
2.5076771 5.4944563 -1.2522622
14.403283 20.346479 3.4282312
0.44800997 2.9806736 -1.1371387
3.1260047 6.2174196 -1.3264376
0.47523943 3.0152097 -1.1158466
4.060339 7.3428469 -1.4475397
0.58397758 3.1437192 -1.1651975
4.927671 8.3928299 -1.4847306
0.63809615 3.2097461 -1.160234
0.72628486 3.3155203 -1.1780896
0.75544322 3.3531742 -1.1457084
12.525887 17.588032 -1.8552361
0.85293311 3.4704864 -1.1600021
13.463042 18.752872 -1.4622157
0.96329111 3.6033511 -1.1752186
13.628697 18.988874 -0.96260297
1.0370752 3.6939547 -1.1600943
13.689871 19.09907 -0.4485825
1.1182806 3.7936075 -1.144291
13.973116 19.479748 0.078959502
1.2718568 3.9787788 -1.1615701
1.5309145 4.2890034 -1.2210743
1.6668721 4.4551668 -1.2044286
13.99113 19.613911 1.6835201
1.8915025 4.7270212 -1.2152092
14.049435 19.723085 2.2326326
2.3269992 5.2501707 -1.2918971
14.094072 19.816086 2.7873549
2.5424466 5.5138731 -1.2599573
0.41327327 2.9351125 -1.1003071
3.1324692 6.2019043 -1.3242034
0.47499472 3.0087633 -1.1125504
4.0672054 7.3218441 -1.4446236
0.59428871 3.1486824 -1.170988
4.9487138 8.3831396 -1.4846376
0.6624881 3.2305691 -1.1772699
6.5983858 10.36557 -1.6126813
0.74419153 3.3283868 -1.188866
10.56968 15.132265 -2.0019555
0.78770882 3.3824816 -1.1664872
12.502035 17.475868 -1.8445776
0.89409357 3.5095675 -1.1855911
13.440872 18.636517 -1.4536471
0.98475134 3.6189749 -1.1860205
13.607081 18.871916 -0.95641243
1.045612 3.6941166 -1.1620541
13.678726 18.994139 -0.44497353
1.1478105 3.8177602 -1.1580886
13.92344 19.326229 0.079826415
1.2358016 3.925328 -1.138772
14.031126 19.493471 0.61261511
1.5423265 4.2894449 -1.2231683
14.648461 20.279898 1.2022517
1.6501774 4.4217348 -1.1931485
13.966295 19.489624 1.6770453
1.9403248 4.7692547 -1.2321855
14.032621 19.607979 2.2248411
2.3196802 5.2234917 -1.2851001
14.066362 19.687166 2.7749701
2.5647225 5.5207825 -1.2637753
14.431169 20.172377 3.416296
0.38740128 2.8996882 -1.0721004
3.1104598 6.1513462 -1.3129134
0.48509359 3.0137024 -1.1185871
4.0940456 7.3225956 -1.446847
0.59572351 3.1429861 -1.168775
4.954299 8.3527937 -1.4805684
0.66875076 3.2299292 -1.1789569
6.6721344 10.404882 -1.6212082
0.75542969 3.3329115 -1.1941205
10.548009 15.031313 -1.9902225
0.79916602 3.3869882 -1.1714846
12.484241 17.366253 -1.8342664
0.91908872 3.528976 -1.1994826
13.423666 18.521017 -1.445159
0.97775632 3.6009068 -1.1778224
13.591752 18.757318 -0.95027602
1.0726825 3.715028 -1.1752104
13.657298 18.871553 -0.44098046
1.1521708 3.8117061 -1.1570601
13.71361 18.975355 0.077779345
1.2798371 3.9648128 -1.1589112
13.951117 19.297485 0.60834062
1.5529487 4.2880411 -1.2246178
14.616718 20.13755 1.197624
1.6761402 4.4375315 -1.2013134
13.940147 19.358452 1.6702369
1.9272697 4.7374668 -1.2227386
14.010765 19.481329 2.215951
2.2662563 5.1417198 -1.2604147
14.041143 19.555969 2.7627425
2.5826497 5.5211115 -1.2658001
0.4165284 2.9258239 -1.0966895
3.1533675 6.1742735 -1.3211247
0.48771411 3.009284 -1.1173302
4.1190195 7.3171253 -1.4479129
0.58841723 3.1265132 -1.1585511
5.0004587 8.3657522 -1.4853736
0.67203188 3.2248995 -1.1777399
0.75550377 3.3235843 -1.1901765
10.642251 15.058832 -1.9963192
0.79106086 3.3679864 -1.1615725
12.467477 17.247766 -1.8231735
0.92566782 3.525846 -1.2000015
13.409145 18.39784 -1.436121
0.97370148 3.585145 -1.1711731
13.571464 18.625795 -0.94326556
1.0774251 3.7086444 -1.1741154
13.645041 18.748875 -0.43673125
1.1621116 3.8107142 -1.1588081
13.702955 18.853949 0.079683773
1.2556915 3.9234946 -1.1420088
13.762054 18.960566 0.59807664
1.5495234 4.26859 -1.2186167
13.854022 19.107058 1.1259092
1.6668576 4.410327 -1.1928229
13.923216 19.227129 1.6642485
1.9968024 4.8000288 -1.2475116
13.990559 19.345282 2.2067637
2.2779651 5.1344643 -1.2602882
14.023906 19.423014 2.7513566
2.6551881 5.5825615 -1.2861093
14.478979 20.011564 3.4083195
0.44339284 2.9494445 -1.119123
3.1254005 6.1157885 -1.3078463
0.48328334 2.9973793 -1.1098584
4.1584282 7.3303099 -1.4531784
0.57157695 3.0999262 -1.1403612
5.0083323 8.3358784 -1.4815352
0.68669462 3.2332106 -1.1861117
7.2924867 11.026416 -1.730001
0.75526786 3.3144937 -1.1862496
10.686739 15.031816 -1.9948452
0.78852499 3.3560231 -1.1560544
12.456458 17.142439 -1.8133898
0.91993469 3.5092897 -1.1922091
13.3924 18.278862 -1.4273882
0.97531164 3.5765896 -1.1684952
13.564362 18.51685 -0.93734008
1.0989169 3.7220769 -1.1835016
13.627939 18.627371 -0.43265304
1.2172616 3.8621569 -1.1866243
13.684875 18.730667 0.081320614
1.3078055 3.970926 -1.1660686
13.749468 18.843185 0.59755433
1.5530539 4.2581625 -1.2163414
13.816262 18.958801 1.1207899
1.782495 4.5284071 -1.2415571
13.901342 19.097071 1.6578954
1.9741066 4.7561007 -1.2338184
13.975576 19.222746 2.1988459
2.2763958 5.1129589 -1.2553723
14.013132 19.305084 2.7418184
2.6281633 5.5287924 -1.2723446
14.50805 19.938038 3.4056859
0.46099672 2.963233 -1.1329527
2.9764123 5.9207096 -1.2583036
0.50348407 3.0138705 -1.1252415
4.2075944 7.358386 -1.4616556
0.55298924 3.0725293 -1.1212075
5.0022001 8.2944479 -1.4751351
0.69624728 3.2366269 -1.1906799
7.2985377 10.984925 -1.7250328
0.76273447 3.3151615 -1.188767
10.699377 14.976836 -1.989282
0.7937457 3.353961 -1.1566918
12.437004 17.038778 -1.8036141
0.93520808 3.5178013 -1.1994414
13.369361 18.164986 -1.4190135
0.99936163 3.5947442 -1.1808616
13.538001 18.397779 -0.93109119
1.1051297 3.7192509 -1.1839545
13.608313 18.515617 -0.42900422
1.1843375 3.8140073 -1.16449
13.666822 18.620205 0.082716122
1.3345813 3.9903095 -1.1769558
13.718836 18.71726 0.59602499
1.5782201 4.2742548 -1.2252049
13.795048 18.843397 1.1174107
1.7027203 4.4227009 -1.2016925
13.875469 18.975376 1.6514986
2.0147128 4.7874489 -1.2470614
13.943794 19.093332 2.1888719
2.3028307 5.1261902 -1.2616106
13.985621 19.180292 2.7298594
2.6327701 5.5146704 -1.2700258
0.45083177 2.9453423 -1.1198277
3.0348907 5.963665 -1.271652
0.50932068 3.0133941 -1.1271057
4.235662 7.3577852 -1.4637891
0.57988816 3.0951488 -1.1409366
5.044714 8.3050184 -1.4793879
0.69460225 3.2265029 -1.1856455
7.3516917 10.991807 -1.7284851
0.76007283 3.3034258 -1.1830096
10.759229 14.967715 -1.9902844
0.79590923 3.3474004 -1.1546743
12.415888 16.923271 -1.7927389
0.91608506 3.4863296 -1.1824967
13.355388 18.051048 -1.4106652
1.007075 3.5930073 -1.1821295
13.523345 18.28166 -0.92486221
1.1046251 3.7075043 -1.1798871
13.592674 18.397654 -0.42500997
1.2001699 3.8202004 -1.1697686
13.645 18.494366 0.084261879
1.3572474 4.0032473 -1.18515
13.702532 18.597309 0.59531832
1.5754646 4.2566156 -1.2198482
13.772721 18.715609 1.1137693
1.7546682 4.4665718 -1.2212354
13.866532 18.8626 1.6469098
2.0540137 4.8148108 -1.2591764
13.925057 18.968277 2.1804891
2.4058213 5.2246027 -1.2961887
13.968605 19.056742 2.7192574
2.6488667 5.5112295 -1.2711231
14.284217 19.469437 3.3346066
0.4521029 2.9398205 -1.1174643
3.0504947 5.9554739 -1.2716589
0.5107767 3.0076482 -1.1248088
4.2673326 7.3592062 -1.4665482
0.59087986 3.0994267 -1.146681
5.1326218 8.3651228 -1.4937321
0.69197458 3.2148852 -1.179642
7.5392699 11.149843 -1.7576202
0.77307051 3.3086801 -1.1891403
10.803184 14.935335 -1.9882401
0.83315575 3.3794346 -1.1779864
12.403341 16.813309 -1.782531
0.90192145 3.4601591 -1.1688715
13.348891 17.940958 -1.4026241
1.0089817 3.5841196 -1.1794293
13.507063 18.158789 -0.91828048
1.1253721 3.7190497 -1.188493
13.578014 18.27594 -0.42084405
1.2226254 3.8330123 -1.1785381
13.625434 18.366341 0.085955754
1.3728799 4.0072632 -1.1893574
13.688527 18.475126 0.5947634
1.5906928 4.2586088 -1.2230852
13.763042 18.597746 1.1112226
1.7718674 4.4695072 -1.2247388
13.849644 18.735388 1.6411597
2.0366592 4.7763319 -1.2475655
13.920241 18.854595 2.1741581
2.385787 5.1804304 -1.284
13.948806 18.924892 2.7077808
2.7016335 5.5482712 -1.2843927
14.070502 19.105927 3.2741714
0.45845196 2.9410233 -1.1205186
3.0457869 5.9284678 -1.2663294
0.51619595 3.0074942 -1.1266965
4.2935467 7.3600302 -1.468783
0.56856978 3.06832 -1.1245472
5.1667099 8.3697004 -1.4965928
0.66849518 3.1818106 -1.1574225
7.5833077 11.151196 -1.7599487
0.77578753 3.3039949 -1.1879914
10.815345 14.880236 -1.9826756
0.83724862 3.3759127 -1.1777418
12.38242 16.71031 -1.7728099
0.90135694 3.4510462 -1.1652877
13.321684 17.824745 -1.3940787
1.0136096 3.5801365 -1.1791528
13.490829 18.054068 -0.91270012
1.1365414 3.7216737 -1.1919268
13.55291 18.160345 -0.41718861
1.2179239 3.8172977 -1.1725985
13.608407 18.259615 0.087345198
1.3647945 3.98682 -1.1817644
13.666601 18.362125 0.5937447
1.5819142 4.2360382 -1.2153211
13.738914 18.481533 1.1076653
1.7851713 4.4707003 -1.2271793
13.822107 18.614435 1.6347005
2.0776572 4.8072309 -1.2607791
13.888015 18.727509 2.16433
2.4113016 5.1917667 -1.2897279
13.928573 18.811451 2.697556
2.7036633 5.5310764 -1.2811935
13.998425 18.930614 3.2492146
0.44465786 2.9195366 -1.1041737
3.1450415 6.0163689 -1.2917284
0.5104717 2.9943593 -1.118192
4.310008 7.3457785 -1.4677955
0.57110721 3.0638323 -1.123328
5.1704788 8.3350468 -1.4918435
0.67846459 3.1847932 -1.1619616
0.76823187 3.2870209 -1.1785766
10.758412 14.737449 -1.9652903
0.8309918 3.3599184 -1.1696023
12.364903 16.601549 -1.7626361
0.92939961 3.4724703 -1.180797
13.306064 17.711485 -1.3857881
1.0102183 3.5660598 -1.1733174
13.474507 17.93866 -0.90653014
1.1471617 3.7222953 -1.1945724
13.536867 18.044613 -0.41327652
1.217597 3.8051996 -1.1687286
13.592656 18.143637 0.088980451
1.3724895 3.9826558 -1.1820379
13.64857 18.242914 0.59297657
1.5484921 4.1844311 -1.1952118
13.727833 18.369652 1.1051441
1.8007033 4.4724655 -1.2301314
13.810201 18.500834 1.6298888
2.1044955 4.819725 -1.2676071
13.868785 18.604733 2.1560936
2.416162 5.1772881 -1.2872046
13.909779 18.688688 2.6868892
2.7483444 5.559516 -1.2918611
13.975058 18.801804 3.2348967
0.43780255 2.9053955 -1.0942808
3.3799305 6.2539988 -1.3571855
0.50139779 2.9773214 -1.1065685
4.3692508 7.377779 -1.4777602
0.57619345 3.061702 -1.1240886
5.2001457 8.3275623 -1.4926968
0.70177537 3.20175 -1.176999
0.74401951 3.2515204 -1.1563439
10.931962 14.852736 -1.9836493
0.78608119 3.3012319 -1.1335058
12.367861 16.511723 -1.7545638
0.92357421 3.4558401 -1.1730016
13.293966 17.597567 -1.3774642
1.028073 3.5748756 -1.1808724
13.460409 17.821043 -0.90021187
1.1419295 3.7047081 -1.1874993
13.524378 17.928183 -0.40923572
1.2301189 3.8067086 -1.1718651
13.575211 18.020924 0.090686828
1.3628429 3.9585059 -1.1730659
13.634092 18.122993 0.59243119
1.5852115 4.2104902 -1.2089013
13.709891 18.244955 1.1019443
1.7872707 4.4409523 -1.2199318
13.792785 18.375919 1.6242383
2.1203723 4.8186913 -1.2696658
13.858346 18.48723 2.1490684
2.3917866 5.1290092 -1.2735924
13.899755 18.571165 2.6776628
2.70683 5.4895468 -1.2732998
13.959129 18.676743 3.2219467
0.43949565 2.9016724 -1.0930327
3.4046335 6.2584372 -1.3603767
0.50093758 2.9709029 -1.103276
4.4140048 7.3988132 -1.4847879
0.57355672 3.0524869 -1.1189103
5.2369328 8.3347692 -1.4961357
0.71017081 3.2037344 -1.1806023
0.74175012 3.2416883 -1.1515445
10.898801 14.746897 -1.9710865
0.82404369 3.3349369 -1.1577169
12.394424 16.464592 -1.7507995
0.92049199 3.4440308 -1.1677552
13.27176 17.489594 -1.3695443
1.0413545 3.5803428 -1.1861123
13.436087 17.709473 -0.89435196
1.1493722 3.70312 -1.1886913
13.502949 17.819332 -0.40572184
1.2265064 3.7924466 -1.1666332
13.552719 17.910349 0.091942027
1.3316512 3.9130301 -1.153632
13.619807 18.021242 0.59186298
1.5340104 4.1414967 -1.1808724
13.686789 18.132475 1.0985655
1.7915709 4.4320869 -1.2183752
13.771441 18.264765 1.6187109
2.1204848 4.8031988 -1.2660387
13.837433 18.37599 2.1412921
2.3900781 5.1098585 -1.2692245
13.871449 18.450943 2.6660905
2.7438102 5.5116425 -1.2818567
13.944285 18.571476 3.2108846
0.45884633 2.9160681 -1.1078968
3.2432685 6.0528879 -1.307809
0.4973461 2.9603944 -1.0968529
4.4516439 7.4076595 -1.4892772
0.57603449 3.0479927 -1.1176914
5.2998362 8.3663263 -1.5047879
0.70711309 3.1923823 -1.174619
7.9434342 11.337152 -1.8011736
0.74960196 3.2418787 -1.1540303
10.909383 14.681888 -1.9644356
0.84320098 3.3468313 -1.1679168
12.467036 16.459064 -1.7516619
0.93024957 3.4451289 -1.1707851
13.2638 17.387493 -1.3621011
1.0179754 3.5446057 -1.167667
13.423405 17.600754 -0.88850778
1.1486974 3.6913488 -1.1846243
13.489233 17.708803 -0.40192896
1.2399477 3.7955754 -1.1704899
13.535288 17.795101 0.093516499
1.3696891 3.9424329 -1.169708
13.601421 17.904253 0.59110773
1.5191197 4.111496 -1.1700115
13.668793 18.015287 1.0955088
1.8199525 4.447957 -1.2270219
13.753952 18.147364 1.6133423
2.0969505 4.7596359 -1.252375
13.823043 18.26145 2.1340547
2.3959432 5.0969257 -1.2671901
13.853515 18.33193 2.6558762
2.7835388 5.5338736 -1.2907592
13.92043 18.44496 3.1968045
0.4804135 2.9329879 -1.1249163
3.5276141 6.3434801 -1.3876013
0.50053102 2.9575713 -1.0966581
4.4751959 7.4025822 -1.4903821
0.56523556 3.0297627 -1.1055316
5.2320771 8.254611 -1.4843265
0.70855647 3.1864092 -1.1724732
7.9342375 11.273726 -1.7927616
0.75600469 3.2409585 -1.1556153
10.886881 14.584869 -1.9532083
0.81439638 3.307451 -1.1440961
12.515889 16.431761 -1.7501192
0.86553669 3.3663783 -1.1239921
13.240677 17.274578 -1.3538274
0.98910451 3.5038888 -1.146099
13.404805 17.491705 -0.88271672
1.1551893 3.688076 -1.1850492
13.466915 17.594973 -0.39824438
1.2442012 3.7893035 -1.1694504
13.513218 17.681044 0.094875015
1.3117689 3.8676023 -1.1364499
13.582351 17.792973 0.59030855
1.5923581 4.1788244 -1.2015456
13.647457 17.900822 1.0922612
1.7910959 4.4018116 -1.2106228
13.734412 18.034184 1.6079485
2.0596704 4.702426 -1.2335082
13.797385 18.140694 2.1253514
2.4534302 5.1419601 -1.2843835
13.830877 18.214195 2.6452088
2.7466989 5.47262 -1.2744758
13.903549 18.333157 3.1849651
0.48836273 2.9349351 -1.1290137
3.0510101 5.7933292 -1.2425708
0.51683688 2.9682384 -1.1078417
4.4931145 7.3892508 -1.4897069
0.57715541 3.0353968 -1.1122802
5.4278669 8.4324579 -1.5226977
0.69817978 3.1674206 -1.1607628
8.0182343 11.310483 -1.8015808
0.76266265 3.2397881 -1.1571832
10.75817 14.366467 -1.9252577
0.78931671 3.2719595 -1.1228894
12.569907 16.404964 -1.7487283
0.91603816 3.4115226 -1.1544342
13.226387 17.166935 -1.3459693
1.0216492 3.5290456 -1.1631204
13.384419 17.375992 -0.8765794
1.1468543 3.6681595 -1.1765159
13.441463 17.47298 -0.39433393
1.2780372 3.8143313 -1.1845264
13.512007 17.58568 0.096763551
1.3729368 3.9218609 -1.1643567
13.569502 17.683926 0.58988124
1.5452024 4.1137743 -1.1753404
13.631013 17.787092 1.089404
1.8143307 4.4119177 -1.2169845
13.715818 17.917257 1.60254
2.0825806 4.7104445 -1.2387511
13.787157 18.032593 2.1189251
2.4266057 5.0930471 -1.2703505
13.813139 18.097172 2.6352134
2.7904444 5.4990034 -1.2846699
13.8929 18.223486 3.1741953
0.49749684 2.9380653 -1.134184
0.53321719 2.9788213 -1.1190193
4.5083346 7.3729591 -1.4883436
0.59866869 3.0510423 -1.1269877
5.4555001 8.4236078 -1.5232682
0.67803687 3.1382923 -1.1414176
8.0744753 11.316011 -1.8051076
0.76077878 3.2295315 -1.1523558
10.911786 14.461199 -1.9407697
0.78252792 3.2562962 -1.1147745
12.621197 16.375038 -1.7470113
0.93819427 3.4258609 -1.1657642
13.210235 17.058044 -1.3380184
1.0103958 3.5070407 -1.1525708
13.375509 17.273897 -0.87105447
1.1485441 3.6591644 -1.1739438
13.430126 17.367643 -0.39065856
1.245671 3.767894 -1.1631213
13.490304 17.468149 0.098225333
1.3714622 3.9079616 -1.1600271
13.553471 17.572136 0.5892871
1.6296403 4.1914482 -1.2117267
13.618006 17.678093 1.0868869
1.8103133 4.3923454 -1.2113878
13.697969 17.802088 1.5972773
2.1421962 4.7580795 -1.2586652
13.765826 17.912815 2.1107759
2.4613066 5.1114807 -1.2788575
13.794818 17.980413 2.625196
2.7406349 5.4230528 -1.2640258
13.867301 18.097775 3.1600528
0.49731731 2.9314156 -1.1307544
3.6210098 6.3651304 -1.4006478
0.53902572 2.9781899 -1.1208763
4.5261712 7.3595181 -1.4876634
0.6190924 3.0653167 -1.1406928
5.4978476 8.430687 -1.5270982
0.70133704 3.1551304 -1.156449
8.1495905 11.341776 -1.8121268
0.76496816 3.2257521 -1.1520959
10.981539 14.462577 -1.9433489
0.86596859 3.3361273 -1.1703075
12.671098 16.343452 -1.745126
0.95670587 3.4361129 -1.1745974
13.201625 16.958225 -1.3307562
1.0015439 3.4877949 -1.1436019
13.356723 17.161617 -0.86508816
1.1349481 3.6339366 -1.1624399
13.415611 17.259535 -0.38696188
1.3039559 3.8187253 -1.1915071
13.474739 17.358305 0.099804856
1.3634745 3.8871894 -1.1524147
13.539577 17.463541 0.58882213
1.6146188 4.1614199 -1.2008657
13.600484 17.56484 1.0839905
1.8231772 4.3910685 -1.2131901
13.683583 17.691601 1.592496
2.0419607 4.6327667 -1.2146385
13.74923 17.799236 2.1034598
2.4631729 5.0941095 -1.2753769
13.775949 17.863901 2.6151567
2.804318 5.4707718 -1.2807178
13.845046 17.976765 3.1468
0.49339789 2.9213114 -1.1241133
3.6697307 6.3924494 -1.4103295
0.54463774 2.9777172 -1.1227441
4.5363135 7.339674 -1.4853297
0.61897224 3.0584002 -1.1374913
5.5619359 8.4633427 -1.5360292
0.70993388 3.1568191 -1.1600342
8.1869726 11.329291 -1.8124696
0.7676723 3.2208967 -1.1509374
10.991308 14.402667 -1.937269
0.783346 3.2409964 -1.1090313
12.706256 16.300779 -1.7419686
0.96122849 3.4320095 -1.1743162
13.184523 16.855114 -1.3232285
1.0276947 3.5062654 -1.1566892
13.334736 17.052011 -0.85930794
1.1565886 3.6468821 -1.1717969
13.399253 17.155556 -0.38346949
1.2979859 3.8013806 -1.1848515
13.45731 17.252607 0.10122587
1.3757168 3.8888319 -1.1553395
13.519787 17.35466 0.58802181
1.5912168 4.123538 -1.1863614
13.586406 17.461708 1.0815092
1.8591776 4.4153547 -1.2252523
13.663262 17.580858 1.5871905
2.0511374 4.6270437 -1.2146727
13.732015 17.691343 2.0963802
2.493495 5.1085434 -1.2824677
13.761732 17.758982 2.6064839
2.8038917 5.4500685 -1.2766136
13.823407 17.862967 3.1342721
0.50235349 2.9245534 -1.1292918
3.0337281 5.6846323 -1.2215192
0.54073262 2.9673841 -1.1163336
4.6255546 7.4049549 -1.5031766
0.60797757 3.0402546 -1.1253388
5.5697451 8.4347954 -1.532497
0.69904971 3.138207 -1.1483499
8.2674942 11.363263 -1.8208057
0.77775133 3.2237408 -1.155257
11.100734 14.450949 -1.9462837
0.81594163 3.2672875 -1.1288248
12.745335 16.262423 -1.7392825
0.9494015 3.4107802 -1.1632518
13.1683 16.753668 -1.3158292
1.0070499 3.4753282 -1.1406615
13.318994 16.950012 -0.85387105
1.1604178 3.6408751 -1.1707339
13.372961 17.04146 -0.37986544
1.222362 3.7106504 -1.1403676
13.436703 17.144165 0.10257228
1.4295052 3.9343603 -1.1792736
13.498157 17.244526 0.58712763
1.6342221 4.1564503 -1.2031137
13.570513 17.35729 1.0788895
1.87563 4.4185133 -1.2287765
13.642441 17.470352 1.5818664
2.1210613 4.6860447 -1.238783
13.702294 17.570402 2.0873575
2.5106535 5.1086588 -1.2847641
13.73374 17.639545 2.5951943
2.786047 5.4108486 -1.2668781
13.806539 17.75528 3.1229482
0.49738562 2.9130909 -1.1215675
3.0545859 5.6841288 -1.2235101
0.54652894 2.9667096 -1.1181886
4.691967 7.4429655 -1.5147789
0.61764652 3.0431526 -1.1300833
5.5475602 8.371933 -1.5220859
0.71886373 3.1510279 -1.1605048
8.3391371 11.383701 -1.8270144
0.77821648 3.2160702 -1.1522574
11.107101 14.382995 -1.9392426
0.79651415 3.2387035 -1.1120037
12.782753 16.217257 -1.7359608
0.94908649 3.401191 -1.1596382
13.154213 16.650042 -1.3082836
0.9941566 3.4522262 -1.1293426
13.3 16.839928 -0.848028
1.178653 3.6493359 -1.1778295
13.367751 16.945799 -0.37637097
1.3029354 3.7841566 -1.1806335
13.420947 17.036476 0.10412364
1.3863189 3.8765693 -1.1539366
13.48273 17.136614 0.58660644
1.6201996 4.1279783 -1.1928785
13.547395 17.24032 1.0755725
1.8820313 4.4100342 -1.2277234
13.629178 17.363508 1.5773635
2.0911474 4.6375265 -1.2230765
13.693465 17.467833 2.0814791
2.504447 5.0827293 -1.2784106
13.72258 17.53405 2.586916
2.8809452 5.4907045 -1.2934943
13.789264 17.64237 3.1111646
0.50418031 2.9137032 -1.1245838
0.54514277 2.9586732 -1.1138376
4.7100272 7.4289713 -1.5140653
0.61400443 3.0323493 -1.123889
5.6347165 8.4260664 -1.5356443
0.73018062 3.1549327 -1.1659766
8.3132868 11.299546 -1.8152428
0.77616519 3.2058566 -1.1474336
11.077836 14.277336 -1.9269215
0.81074464 3.2451632 -1.1187049
12.832255 16.185118 -1.7340504
0.94619584 3.3890004 -1.1543682
13.135535 16.542274 -1.3004253
1.0551465 3.506021 -1.1636276
13.288626 16.738876 -0.84259146
1.1789405 3.6389625 -1.1745132
13.377042 16.866459 -0.37308839
1.3048791 3.7747152 -1.1781652
13.43047 16.956924 0.10620356
1.4172337 3.8968775 -1.1660182
13.469491 17.031866 0.58621615
1.6125933 4.1064997 -1.1857121
13.530457 17.130968 1.0728401
1.8923672 4.4057112 -1.2283732
13.612708 17.253933 1.5725052
2.0822306 4.6116056 -1.2157507
13.672056 17.352297 2.0736551
2.5488648 5.1104345 -1.2902266
13.705568 17.422922 2.5775766
2.8730669 5.4607773 -1.2867466
13.772772 17.531181 3.0996661
0.50743091 2.9106846 -1.1243781
3.1125951 5.6999407 -1.2321193
0.54011244 2.9469962 -1.106385
4.7267003 7.4134874 -1.5130081
0.57989788 2.9906292 -1.0928491
5.6339698 8.3862686 -1.5299667
0.7021597 3.1185923 -1.1409355
8.5211191 11.463997 -1.8463452
0.7865026 3.208396 -1.1517324
11.127097 14.256014 -1.9264015
0.83759385 3.2644465 -1.1341071
12.885785 16.157171 -1.7326015
0.94451421 3.3781443 -1.1499294
13.125902 16.444927 -1.2933574
1.040954 3.4815617 -1.1515212
13.279509 16.640955 -0.83729875
1.1998335 3.6499615 -1.183087
13.392809 16.794493 -0.369901
1.322392 3.7814574 -1.1840948
13.499584 16.941845 0.10955752
1.4325693 3.9006803 -1.1702178
13.474804 16.947838 0.5868659
1.6615766 4.1441507 -1.2048616
13.517083 17.026241 1.0704552
1.8761756 4.3736439 -1.2176694
13.593013 17.141678 1.5672919
2.0411754 4.5522594 -1.1958884
13.655493 17.242846 2.0666676
2.5224619 5.0633974 -1.2767075
13.683999 17.307648 2.5674372
2.8435092 5.4082842 -1.2730827
13.75442 17.418751 3.0878439
0.50453264 2.9018509 -1.1188165
0.55651969 2.9574318 -1.117555
4.7437053 7.4002953 -1.5123515
0.57096606 2.9752297 -1.0827039
5.7040968 8.4236202 -1.5400145
0.67617333 3.0851426 -1.1178275
8.5631132 11.454638 -1.8473634
0.78789139 3.2022285 -1.1496606
11.174167 14.236547 -1.926011
0.85297406 3.2722499 -1.1416835
12.92992 16.124128 -1.7305204
0.92723942 3.351944 -1.1355689
13.10369 16.339968 -1.2856981
1.0789797 3.5114648 -1.1716521
13.260518 16.538332 -0.83186692
1.2191919 3.6598244 -1.1909313
13.408407 16.727921 -0.36692089
1.3409222 3.7897854 -1.1907409
1.4278725 3.8843865 -1.1646018
13.548038 16.942318 0.59127694
1.7170063 4.1887722 -1.2270777
13.531889 16.957779 1.0706915
1.8793223 4.362833 -1.2155126
13.568799 17.030668 1.5617214
2.0327578 4.5284224 -1.1891336
13.639817 17.140478 2.0601368
2.5301867 5.053524 -1.2756519
13.670012 17.206751 2.5591946
2.8494897 5.3946791 -1.2711465
13.736892 17.313435 3.0767503
0.49838626 2.8891077 -1.1100142
0.5697701 2.9637697 -1.1255928
4.759903 7.3823719 -1.5108852
0.61498594 3.0124381 -1.1152548
5.8738608 8.5599575 -1.5708284
0.65167224 3.0526896 -1.0956556
8.7262936 11.565441 -1.8695377
0.78848511 3.1943452 -1.1466476
11.226923 14.214271 -1.9255364
0.83477926 3.2448812 -1.1257288
12.970721 16.077579 -1.727174
0.94865131 3.3642902 -1.1460261
13.098387 16.243561 -1.2787222
1.0997584 3.5222175 -1.1807352
13.246149 16.431131 -0.82612693
1.2197855 3.6490753 -1.1875904
13.420674 16.647789 -0.36351138
1.3353385 3.7718935 -1.1840507
13.581698 16.851208 0.11509487
1.3974487 3.8403823 -1.1458371
1.6886322 4.1448898 -1.2100939
13.600772 16.936863 1.0756623
1.9060035 4.3746004 -1.222939
13.588761 16.957214 1.5613648
2.0224795 4.5009956 -1.1812794
13.626218 17.030462 2.0534968
2.5174322 5.0202045 -1.2668887
13.648663 17.088022 2.5489225
2.852602 5.3756828 -1.2678348
13.720135 17.199003 3.0650592
0.49980497 2.8854449 -1.1087725
0.57257015 2.9611244 -1.1254128
4.7953968 7.3922138 -1.5154572
0.61422098 3.0059981 -1.1120872
5.9040618 8.5586329 -1.5727139
0.66709828 3.0622983 -1.1049888
8.8243055 11.620257 -1.881415
0.78682977 3.1861138 -1.1427861
11.260002 14.188489 -1.9239893
0.82938975 3.2326326 -1.1194152
13.00556 16.044655 -1.7249327
0.90123266 3.3089294 -1.1126664
13.079858 16.15391 -1.2721876
1.0871377 3.5012536 -1.1702602
13.223899 16.336649 -0.82118404
1.2138463 3.6342511 -1.1813639
13.427826 16.583244 -0.36083907
1.3178074 3.7446399 -1.1718597
13.581071 16.777504 0.11663433
1.4433587 3.8775837 -1.1658276
13.628903 16.860653 0.59649062
1.7342308 4.1803942 -1.2280614
13.651023 16.916851 1.0792406
1.89352 4.3494568 -1.2146018
13.648505 16.947371 1.5665923
2.0680513 4.5349579 -1.195991
13.596222 16.924765 2.0453033
2.4820027 4.9681768 -1.2511222
13.629847 16.993963 2.5405688
2.8830204 5.389924 -1.2741842
13.693681 17.096214 3.0529752
0.50195396 2.8810761 -1.1074836
3.122921 5.6228037 -1.2196178
0.55548179 2.937217 -1.1076204
4.8005834 7.3628149 -1.5112622
0.61671698 3.0012317 -1.1108533
5.8702602 8.481596 -1.5595677
0.71583539 3.1032903 -1.139025
8.897851 11.635229 -1.887113
0.78986746 3.1807733 -1.1415969
11.28371 14.135766 -1.9192539
0.85417902 3.248816 -1.1330426
13.014313 15.964821 -1.7179941
0.90077215 3.2993228 -1.1090535
13.066764 16.050653 -1.2646962
1.0937219 3.4975336 -1.1707035
13.218206 16.240021 -0.8159219
1.2260852 3.6354282 -1.1847053
13.425622 16.48877 -0.35728049
1.3436059 3.7588923 -1.18195
13.520159 16.620203 0.11729307
1.400762 3.82162 -1.1411811
13.645439 16.784285 0.59783226
1.761675 4.1937151 -1.2367448
13.686944 16.86068 1.0812899
1.8947585 4.3350525 -1.2112542
13.714594 16.923052 1.5719975
1.9901882 4.4385004 -1.1620594
13.582952 16.816685 2.0388384
2.4796906 4.9462566 -1.2461929
13.616937 16.885864 2.5320864
2.9282918 5.4142475 -1.2842468
13.683982 16.990934 3.0430899
0.49889922 2.8723247 -1.1019286
3.1582198 5.6379251 -1.2258677
0.54884541 2.9246128 -1.0991561
4.800961 7.3324623 -1.5065157
0.61507899 2.9931936 -1.1066679
5.897162 8.4722986 -1.5601231
0.70568603 3.0862374 -1.1283175
8.9488058 11.633198 -1.8895423
0.79872388 3.1821563 -1.1449934
11.304303 14.088557 -1.9150001
0.88368535 3.2704313 -1.1501709
12.951311 15.820927 -1.7039162
0.9731586 3.3635964 -1.1526374
13.046842 15.950895 -1.2574356
1.078922 3.4735124 -1.1586283
13.204291 16.145466 -0.81087375
1.2403353 3.6397882 -1.1895682
13.431751 16.41375 -0.35422784
1.3397851 3.7443995 -1.176708
13.486525 16.502966 0.11831313
1.4289608 3.8391023 -1.1519461
13.569521 16.621849 0.59399253
1.7469001 4.1656885 -1.2265441
13.819401 16.916327 1.092116
1.8762068 4.3023739 -1.2000393
2.0232224 4.4576693 -1.1714896
13.570864 16.720961 2.0331006
2.5387607 4.9892073 -1.2632523
13.601089 16.785807 2.5237751
2.9492679 5.4158096 -1.2870439
13.665892 16.887939 3.0322332
0.50583029 2.8726826 -1.1049296
0.57189637 2.9404523 -1.1154492
4.8183093 7.3157845 -1.5053837
0.62248206 2.9932983 -1.1094048
0.67708749 3.0503159 -1.1033068
9.0129576 11.637582 -1.8934684
0.79794174 3.1730301 -1.1410711
11.32205 14.030073 -1.9094601
0.89848536 3.2761853 -1.1568263
12.924398 15.705723 -1.6931282
0.97930503 3.3602107 -1.1531478
13.038303 15.853824 -1.250416
1.0880331 3.4724073 -1.1606431
13.186562 16.037712 -0.80514377
1.2434323 3.6316571 -1.1877111
13.421776 16.312353 -0.35061419
1.3657062 3.7584672 -1.1867871
1.4673238 3.8651307 -1.1672351
13.544964 16.504059 0.59306657
1.7247355 4.1288795 -1.2126353
13.898088 16.904352 1.0980167
1.8394308 4.2499266 -1.1808524
13.871865 16.910282 1.5862536
2.0885506 4.5073471 -1.192832
13.557953 16.614765 2.0268154
2.5487251 4.9796286 -1.262602
13.587164 16.678169 2.5152555
2.9098635 5.3534546 -1.2703607
13.649747 16.777348 3.0210781
0.50532061 2.8661306 -1.1015083
0.57767874 2.9396219 -1.1172953
4.8221831 7.2873478 -1.5012585
0.62969261 2.9935679 -1.1121529
5.9280782 8.4232416 -1.5554105
0.70964682 3.0750885 -1.1249561
9.0741177 11.641924 -1.8972411
0.7714656 3.1391978 -1.1189585
11.394518 14.031948 -1.9123123
0.89254409 3.2618856 -1.1495912
12.923763 15.6231 -1.6857772
0.95536989 3.3276365 -1.134656
13.02268 15.755009 -1.2432475
1.1177863 3.49225 -1.1752189
13.175603 15.942615 -0.80003017
1.2395864 3.6172884 -1.1821694
13.422734 16.227943 -0.3473393
1.3674791 3.7489295 -1.1843151
13.504448 16.343979 0.12254597
1.4586746 3.8445737 -1.1596426
1.723513 4.1141624 -1.2085251
13.968693 16.888807 1.1032712
1.887292 4.2836885 -1.1973503
13.952008 16.904835 1.5935812
2.2845292 4.6884899 -1.264174
13.541992 16.511248 2.0203457
2.6101251 5.0229263 -1.2800694
13.572913 16.57609 2.5070748
2.9588451 5.3821507 -1.2817318
13.631876 16.670908 3.0100431
0.5070287 2.862113 -1.1002444
0.57834691 2.9341931 -1.1150249
4.8499694 7.2850599 -1.5033022
0.63421804 2.9915867 -1.1129285
6.013341 8.4727716 -1.5682719
0.7446661 3.102354 -1.1485128
9.0988073 11.612355 -1.8949363
0.7802487 3.140588 -1.1223564
11.33648 13.905172 -1.8968023
0.91459805 3.2756062 -1.1614864
12.918958 15.541526 -1.6784413
0.98557532 3.3490541 -1.1509115
13.005569 15.660195 -1.2363645
1.1119734 3.4773715 -1.1686401
13.157557 15.845815 -0.7949084
1.2327127 3.6006546 -1.1751693
13.411044 16.136065 -0.3441326
1.3382283 3.709408 -1.1658188
1.4683566 3.8430614 -1.1612308
13.557598 16.349779 0.59460741
1.7002077 4.0783768 -1.1946874
14.047854 16.886982 1.1093616
1.9064059 4.2891731 -1.201986
14.028252 16.900143 1.6005865
2.1982803 4.5865173 -1.2277306
13.53408 16.421846 2.0154247
2.6190815 5.0142078 -1.2794789
13.554296 16.475254 2.4984479
3.0460038 5.4499397 -1.3051795
13.609605 16.565763 2.9985127
0.4831323 2.8335409 -1.0764797
4.0408125 6.4331846 -1.4551413
0.58269602 2.932333 -1.1158502
4.8527303 7.2575359 -1.4992405
0.61499977 2.9666698 -1.0948606
6.1268477 8.5499191 -1.5869663
0.75583762 3.1061852 -1.1539822
9.2199087 11.679902 -1.9096544
0.82355267 3.1754324 -1.1503187
11.380064 13.882013 -1.8959709
0.94190699 3.2942429 -1.1768476
12.922214 15.468585 -1.6720443
0.99376059 3.348686 -1.1531073
12.989442 15.567005 -1.229605
1.1060882 3.4625406 -1.1620641
13.143291 15.753489 -0.78998768
1.232388 3.5905764 -1.1718763
13.394737 16.040085 -0.34089452
1.3582076 3.7186983 -1.1731416
13.847988 16.534025 0.13379152
1.4592044 3.8229303 -1.1536682
1.6902655 4.0561285 -1.1869545
1.9664524 4.3350859 -1.2235723
14.101803 16.892294 1.6072685
2.1429887 4.5163431 -1.203287
13.511933 16.318336 2.0083208
2.5495424 4.9273405 -1.2517935
13.546266 16.386015 2.4919081
3.0257368 5.4096546 -1.2950443
13.597844 16.472212 2.9894366
0.50691473 2.8503993 -1.0944905
4.0614891 6.4266024 -1.4561503
0.57733333 2.92079 -1.1084101
4.8744769 7.2471952 -1.4995203
0.60586917 2.9512954 -1.0847193
5.9074802 8.2911472 -1.5355752
0.75712729 3.0999808 -1.1518265
9.4329672 11.834996 -1.9399909
0.84168017 3.1850734 -1.1600572
11.436958 13.867891 -1.896593
0.93852299 3.2824099 -1.1713471
12.910671 15.376424 -1.6636467
0.94732124 3.294749 -1.1205864
12.979503 15.475906 -1.2230256
1.1333914 3.479552 -1.1750562
13.132426 15.660395 -0.78498328
1.2416379 3.5892906 -1.1737478
13.379068 15.940457 -0.33749431
1.3745695 3.7236321 -1.178344
13.880097 16.47998 0.1364193
1.471899 3.8236966 -1.1565392
13.878639 16.510725 0.61339676
1.6996224 4.0522633 -1.1877323
1.9916912 4.3452339 -1.2304195
14.175239 16.878729 1.613799
2.1867228 4.5437469 -1.2162737
13.487638 16.208351 2.0007112
2.6429996 5.0016203 -1.2801584
13.523734 16.277441 2.4823608
3.0696793 5.4321766 -1.3046523
13.586807 16.374945 2.9802051
0.53675491 2.8731196 -1.1178602
4.0855436 6.4248819 -1.4583601
0.56799334 2.9059341 -1.0978922
4.9106569 7.2529774 -1.5035796
0.6027422 2.9421742 -1.0795517
6.315814 8.6608429 -1.6156788
0.76833642 3.1037347 -1.1572913
9.5453873 11.891275 -1.9528902
0.84550017 3.1812923 -1.1598021
11.419918 13.783957 -1.8871396
0.94131714 3.2771084 -1.1702056
12.890696 15.281161 -1.6548074
1.0169835 3.3539095 -1.1616051
12.958302 15.378865 -1.2159765
1.1393553 3.4762356 -1.1755298
13.113096 15.564206 -0.7799111
1.2412503 3.5792186 -1.1704561
13.364709 15.847729 -0.33431947
1.3812351 3.7196705 -1.1786853
1.488326 3.8287117 -1.1613894
13.917884 16.469063 0.61603451
1.6881485 4.028779 -1.1793978
13.535605 16.114006 1.0609157
1.9219964 4.2630625 -1.1983256
14.202773 16.823429 1.6148595
2.2591023 4.5998049 -1.2401922
13.482647 16.123772 1.9963965
2.6297412 4.9710083 -1.2719668
13.507934 16.181501 2.4744716
3.22996 5.5703297 -1.3503777
13.563156 16.27047 2.9686208
0.53637892 2.8663454 -1.1144252
4.1154394 6.425581 -1.461606
0.56891376 2.900182 -1.0956012
4.9389911 7.2470198 -1.5051355
0.61004663 2.9422519 -1.082288
6.3345194 8.6366262 -1.613649
0.75707418 3.0851581 -1.1456138
9.6321154 11.91415 -1.9603522
0.83560258 3.1635029 -1.1495136
