# .PCD v0.7 - Point Cloud Data file format
VERSION 0.7
FIELDS x y z
SIZE 4 4 4
TYPE F F F
COUNT 1 1 1
WIDTH 1469
HEIGHT 1
VIEWPOINT 0 0 0 1 0 0 0
POINTS 1469
DATA ascii
-2.5223641 1.7244166 -0.75060147
-3.3359823 1.4218795 -0.11061671
-2.5753832 1.7037849 -0.7275573
-3.3414798 1.4225444 -0.05110357
-2.573173 1.7070322 -0.67992741
-3.3438439 1.4244828 0.0081125386
-2.5400906 1.7234464 -0.62218183
-3.3523307 1.423926 0.067744814
-2.5825758 1.7074457 -0.59289157
-2.5770226 1.7120026 -0.5465005
-3.3450933 1.4327348 0.1866419
-2.579164 1.7132319 -0.50358677
-3.3589177 1.4300748 0.24801089
-2.6036091 1.7049977 -0.46692583
-3.360302 1.4325 0.30895233
-3.2796144 1.4219198 -0.58101583
-3.3585691 1.4361733 0.36930352
-3.0542736 1.5196694 -0.47396472
-3.3518691 1.4418539 0.42897609
-3.3076177 1.4160839 -0.4657543
-3.3510695 1.445206 0.4905712
-3.3182745 1.4231808 -0.40677345
-3.3080754 1.4303319 -0.34563842
-2.238699 1.8461151 -0.73728883
-3.3241205 1.4266282 -0.28812495
-2.3250766 1.8107314 -0.74227577
-3.3555961 1.4166362 -0.23087279
-2.405798 1.778019 -0.73974699
-3.3581228 1.4185385 -0.17119808
-2.5209508 1.7307067 -0.74928981
-3.3371534 1.4300299 -0.11092815
-2.5654473 1.7139118 -0.72268116
-3.3408046 1.4314647 -0.051457711
-2.5631208 1.7171825 -0.67535716
-3.3468733 1.4319028 0.0077481344
-2.5978522 1.7046416 -0.64303738
-3.3535209 1.4321221 0.067291334
-2.5758457 1.7161919 -0.59013665
-3.3366556 1.4418665 0.12597807
-2.5755324 1.7185055 -0.54563564
-3.3462806 1.440904 0.18609653
-2.5794311 1.7189971 -0.50332236
-3.3564358 1.4397614 0.24696377
-2.6038966 1.7108421 -0.46671033
-3.3541551 1.4436483 0.30721915
-3.2753448 1.4321516 -0.5796898
-3.3561177 1.4458336 0.36797968
-2.7813153 1.6410949 -0.41732273
-3.3549132 1.4493021 0.42861021
-3.2814565 1.4355021 -0.4608472
-3.350472 1.4540925 0.48938462
-3.2952785 1.4402416 -0.40312937
-3.2978458 1.442096 -0.34429687
-2.2368388 1.8510339 -0.73565829
-3.3193974 1.436179 -0.2876817
-2.3199592 1.8173265 -0.73902076
-3.3471966 1.4277779 -0.23033112
-2.4090872 1.7812747 -0.74075884
-3.3386045 1.4341925 -0.1703451
-2.5192981 1.736446 -0.74795121
-3.3305492 1.4403567 -0.11099173
-2.6220627 1.6950551 -0.74631786
-3.3379083 1.4402964 -0.051765706
-2.5873904 1.7120825 -0.68452001
-3.3421297 1.4414923 0.0072590117
-2.6502705 1.6878171 -0.66194862
-3.3506436 1.4409769 0.066703409
-2.6233749 1.7014198 -0.60596567
-3.3319058 1.4514061 0.12511824
-2.5737891 1.7244382 -0.54474288
-3.3452549 1.4489809 0.18541138
-2.5776691 1.7249464 -0.50251913
-3.3498883 1.4500622 0.24550517
-2.6021409 1.716864 -0.46600062
-3.3494701 1.4531931 0.30580196
-3.2779379 1.4385511 -0.58000368
-3.3496232 1.4560912 0.36605984
-2.7815342 1.6468683 -0.41719419
-3.3466206 1.4602524 0.42609784
-3.3132329 1.4298866 -0.46643203
-3.3531532 1.4607084 0.48905957
-3.3107047 1.4414642 -0.40543041
-3.2894053 1.4530483 -0.34318963
-2.2366066 1.8552362 -0.73492855
-3.3183298 1.4441994 -0.2876195
-2.3031855 1.8288393 -0.72974437
-3.3424525 1.4373703 -0.23007637
-2.4039669 1.7881072 -0.73768473
-3.3430986 1.4400249 -0.17076674
-2.5176268 1.7421718 -0.74661177
-3.3331866 1.4469135 -0.11131377
-2.6376247 1.6938517 -0.75239974
-3.3442669 1.4453875 -0.052099682
-2.5753403 1.7223778 -0.67923278
-3.3410645 1.4495651 0.006853383
-2.6469026 1.6946646 -0.66024286
-3.3477316 1.4498076 0.066116586
-2.6604314 1.6913147 -0.6182037
-3.3438191 1.4542886 0.12546571
-2.5738006 1.729618 -0.54440528
-3.3423533 1.457778 0.18454659
-2.5740976 1.731621 -0.50120461
-3.3488498 1.4581341 0.24472766
-2.6039581 1.7213864 -0.46622252
-3.352129 1.4598053 0.30547723
-3.2678576 1.4501696 -0.57737362
-3.3467641 1.4648656 0.36477941
-3.3474422 1.467573 0.42540911
-3.2921138 1.4461036 -0.46246681
-3.3430476 1.4723028 0.48586366
-3.313621 1.4487772 -0.40578976
-3.3033452 1.4558415 -0.34497216
-2.2414627 1.8577825 -0.7369253
-3.3249478 1.4500531 -0.28836343
-2.2998471 1.8350935 -0.72736722
-3.3305926 1.4507176 -0.22928031
-2.3990145 1.7954015 -0.73463285
-3.347909 1.4467005 -0.17122988
-2.511045 1.7505541 -0.7429722
-3.3268418 1.4579961 -0.11141451
-2.581306 1.7234331 -0.72775412
-3.3379292 1.456496 -0.052435592
-2.5617318 1.7338735 -0.67328018
-3.3421607 1.457711 0.0064486717
-2.6647234 1.6933637 -0.66630459
-3.3451171 1.4594394 0.065490387
-2.6096435 1.718448 -0.60043555
-3.3337755 1.4668207 0.12416556
-2.5757918 1.7346168 -0.54465026
-3.3434544 1.4659219 0.18400234
-2.5760918 1.7366202 -0.5014503
-3.355515 1.4641247 0.2448144
-2.5969896 1.7301645 -0.46414039
-3.3532495 1.4679716 0.30483896
-3.0915012 1.5304817 -0.53604966
-3.3515677 1.4715817 0.36473253
-3.2643714 1.4628735 -0.51648277
-3.3504043 1.4750073 0.42504394
-3.2730689 1.462254 -0.45886463
-3.3478293 1.4790186 0.48590875
-3.3050065 1.4593016 -0.40438595
-3.3149638 1.4582286 -0.34646055
-2.2411175 1.8617684 -0.73618555
-3.3014827 1.4665072 -0.28597847
-2.3161945 1.8322614 -0.73528051
-3.3274617 1.4590738 -0.22914636
-2.3987956 1.7998104 -0.73399627
-3.3373585 1.4580437 -0.17084099
-2.5075183 1.7566788 -0.74084193
-3.3311267 1.4633988 -0.11176874
-2.5674868 1.7340312 -0.72136688
-3.3385062 1.4633951 -0.05273274
-2.5824542 1.7301196 -0.68106151
-3.3408756 1.4653507 0.0060642078
-2.6664634 1.6977663 -0.66652071
-3.3475614 1.4656255 0.065186471
-2.5777974 1.7364656 -0.58922291
-3.3362074 1.472977 0.12386303
-2.5721045 1.7409678 -0.54318589
-3.3384681 1.4749911 0.18297993
-2.5705776 1.74371 -0.4996084
-3.3450007 1.4753665 0.24292848
-2.6022611 1.7329257 -0.46528128
-3.3501601 1.4763234 0.3037174
-3.3540187 1.4777867 0.36442769
-3.2667317 1.4688448 -0.51677579
-3.3418403 1.4854378 0.42255682
-3.286418 1.4638293 -0.46114004
-3.3447943 1.4873123 0.4843758
-3.3205833 1.4610684 -0.40671393
-3.3084459 1.4688085 -0.34560943
-2.2491713 1.8627533 -0.73997802
-3.3152881 1.4689955 -0.28746942
-2.3210802 1.8348314 -0.73719621
-3.3283319 1.4667624 -0.22934256
-2.3869519 1.8095967 -0.72765636
-3.3400955 1.4650303 -0.17118433
-2.5075855 1.761905 -0.74028867
-3.3301325 1.4718257 -0.1120053
-2.5572801 1.7436843 -0.71646786
-3.3300681 1.47475 -0.053038836
-2.5721521 1.7398478 -0.67647064
-3.3398924 1.4737989 0.0056400071
-2.6719246 1.7013294 -0.66805732
-3.3447247 1.4748113 0.064582057
-2.586719 1.7383223 -0.59186089
-3.3333621 1.4821216 0.12312023
-2.566833 1.7485721 -0.5411914
-3.3393497 1.4827 0.18245693
-2.5670452 1.7505958 -0.49830365
-3.3421841 1.4845167 0.24190727
-2.6041446 1.7377315 -0.46551767
-3.3492131 1.4847677 0.30282843
-2.7913442 1.664672 -0.4658221
-3.3457079 1.4890516 0.3621752
-3.2803278 1.4712399 -0.51936537
-3.3464227 1.4917425 0.42257616
-3.2781057 1.4750502 -0.45949361
-3.3383889 1.4977968 0.48198473
-3.3195953 1.4694568 -0.40648594
-3.3185177 1.4728013 -0.34690246
-2.2506313 1.8665098 -0.74016243
-3.3049994 1.4810008 -0.28646281
-2.3226204 1.8388005 -0.73739189
-3.3347492 1.4722704 -0.22997627
-2.3581848 1.8262389 -0.71312755
-3.3428116 1.4720252 -0.17152821
-2.5008121 1.7699171 -0.73663038
-3.3291125 1.480238 -0.11224123
-2.5539255 1.7504622 -0.71449792
-3.3327727 1.481716 -0.05338129
-2.5722432 1.7452688 -0.67601311
-3.3351469 1.4836726 0.0051366505
-2.6528168 1.7148643 -0.66055506
-3.3455811 1.4825385 0.064151257
-2.5797215 1.7466494 -0.58908677
-3.3323455 1.4905263 0.12251158
-2.5650935 1.7547046 -0.54030818
-3.3402076 1.490406 0.18193404
-2.5706682 1.754577 -0.49904695
-3.3430467 1.4922279 0.24133782
-2.6060138 1.7425425 -0.46575373
-3.3389735 1.4967151 0.30058169
-3.348433 1.4960665 0.36183041
-3.2610664 1.486751 -0.51518458
-3.3491483 1.4987593 0.42223126
-3.2789164 1.4825855 -0.45949718
-3.3374391 1.5061677 0.48082286
-3.3038273 1.4835972 -0.40397909
-1.406262 2.2165933 -0.29155836
-3.3100858 1.4840577 -0.34581047
-2.2586827 1.8675617 -0.74395871
-3.3020883 1.4900529 -0.28622341
-2.3174682 1.8455074 -0.73414212
-3.3337178 1.4806898 -0.23002703
-2.3901777 1.8179321 -0.72806644
-3.345511 1.4790276 -0.17187236
-2.4974241 1.7764986 -0.73452336
-3.3243313 1.4900726 -0.11236952
-2.5522718 1.7565172 -0.71326053
-3.3317223 1.4901221 -0.053710494
-2.6106281 1.7352527 -0.69072741
-3.3322339 1.4927967 0.0046746596
-2.6055412 1.7395635 -0.64271176
-3.3408122 1.4923974 0.06346266
-2.5709233 1.7556378 -0.58570778
-3.3275685 1.5003344 0.12163828
-2.5561953 1.7636679 -0.53719586
-3.3373132 1.4995193 0.18105352
-2.570684 1.7600032 -0.49876603
-3.3420243 1.5006368 0.24054341
-2.6006355 1.7502235 -0.46412021
-3.3509421 1.5002213 0.30159467
-3.1846342 1.5217867 -0.55665737
-3.3400445 1.5072488 0.35958192
-3.2691531 1.4913517 -0.51664644
-3.3426433 1.5092273 0.42007127
-3.2760296 1.4915574 -0.45883945
-3.3346295 1.5152084 0.47925282
-3.2935343 1.495491 -0.40232271
-3.3108673 1.4916785 -0.34591106
-2.2650862 1.869329 -0.74685431
-3.3158598 1.4926426 -0.28771913
-2.3239975 1.8474323 -0.73692113
-3.3363814 1.4876651 -0.23036997
-2.3985386 1.8193738 -0.73154777
-3.3481841 1.4860388 -0.17221704
-2.4991384 1.7809923 -0.73474461
-3.3213782 1.4991586 -0.1125498
-2.5609555 1.7584039 -0.71642351
-3.3287754 1.4992254 -0.054032013
-2.6177006 1.7379922 -0.69303507
-3.327415 1.5026032 0.0041744616
-2.6073785 1.7443774 -0.64294827
-3.3416142 1.5001014 0.063032955
-2.581584 1.7568337 -0.58895063
-3.3320928 1.5065913 0.12142853
-2.5615516 1.766924 -0.53854007
-3.3343854 1.508608 0.18017422
-2.5634904 1.7682565 -0.49643365
-3.3391142 1.5097289 0.23952495
-2.6006598 1.7557344 -0.46388888
-3.3443403 1.5107114 0.29989353
-3.2581258 1.5005312 -0.57344693
-3.3482699 1.5121833 0.36018872
-3.2900414 1.4909952 -0.52074802
-3.3342476 1.520331 0.41755086
-3.2767873 1.4990753 -0.45884308
-3.3354573 1.5228689 0.47850129
-3.3049088 1.4975818 -0.40402603
-3.3167305 1.4959439 -0.34666899
-2.2745452 1.8691192 -0.75152451
-3.2975645 1.5061612 -0.28587475
-2.3185401 1.8534039 -0.7336359
-3.3236461 1.4990979 -0.22947983
-2.4015393 1.8221538 -0.73253667
-3.3373022 1.4967829 -0.17179909
-2.4663105 1.7983701 -0.71939176
-3.3216715 1.5055815 -0.11277694
-2.5814304 1.7546896 -0.72468525
-3.3290749 1.5056641 -0.054306682
-2.6122327 1.7447542 -0.69047028
-3.3295841 1.5083331 0.0038927947
-2.6300044 1.7399977 -0.65090019
-3.3381867 1.5079713 0.062493131
-2.5724173 1.7649319 -0.58552808
-3.3230495 1.5165243 0.12035345
-2.5522838 1.7749913 -0.53538412
-3.332828 1.5157465 0.17953482
-2.5667529 1.7714146 -0.49713677
-3.3412976 1.5154884 0.23924178
-2.5985312 1.7610998 -0.46314701
-3.3428078 1.5178598 0.29906794
-3.2602296 1.5060889 -0.57371998
-3.3430457 1.5206995 0.35863751
-3.2665329 1.5065631 -0.5157463
-3.3364244 1.5260794 0.41726822
-3.2752295 1.5060998 -0.45845523
-3.3339577 1.5299677 0.47740188
-3.3002491 1.5076965 -0.40324289
-1.3978237 2.2241755 -0.28606954
-3.3027773 1.5096221 -0.3448737
-2.2744107 1.8738393 -0.7508198
-3.3077393 1.5106143 -0.28700638
-2.3167639 1.858937 -0.73211813
-3.3320065 1.5043389 -0.23028235
-2.4015183 1.8272831 -0.73193634
-3.3251238 1.5098073 -0.17135787
-2.4971886 1.7914979 -0.73282969
-3.3206859 1.5143348 -0.11302979
-2.5331259 1.7795076 -0.70364428
-3.3243475 1.5158377 -0.054639075
-2.5704799 1.7670375 -0.67346239
-3.3286066 1.5171043 0.0034524347
-2.6125593 1.7527627 -0.64404154
-3.3353443 1.5174607 0.061873563
-2.576066 1.7692324 -0.58637637
-3.3201971 1.5259571 0.11959626
-2.5505552 1.781315 -0.53451067
-3.3299947 1.5252006 0.17863737
-2.5632143 1.7784868 -0.49584165
-3.3403478 1.5242732 0.2384288
-2.5968089 1.7675784 -0.46245998
-3.3400102 1.5273235 0.29789147
-3.2647395 1.5125403 -0.57449466
-3.334703 1.5321832 0.35637388
-3.2673931 1.5144392 -0.5157218
-3.3392024 1.5334781 0.41690436
-3.2724037 1.5154134 -0.45781484
-3.3312106 1.5393621 0.47581455
-3.2878423 1.5197655 -0.40127522
-3.3181939 1.5112001 -0.34687075
-2.2840438 1.8741519 -0.75551581
-3.3027015 1.5199046 -0.28655064
-2.3198266 1.8619971 -0.73316342
-3.326972 1.5136951 -0.23001626
-2.4046874 1.8305745 -0.73295128
-3.3312998 1.5149525 -0.17188133
-2.502193 1.7943784 -0.73459244
-3.3137431 1.5243469 -0.11307825
-2.5780458 1.7668903 -0.7222144
-3.3211551 1.5244617 -0.054937344
-3.3310442 1.5236561 0.0031302522
-3.3359103 1.5247214 0.061465442
-2.5830574 1.7716166 -0.588404
-3.3263741 1.5311115 0.11953829
-2.5485983 1.7870748 -0.53360957
-3.3343053 1.5310737 0.1784927
-2.5684648 1.7815131 -0.49708578
-3.3409314 1.5315397 0.23788096
-2.5875936 1.7762583 -0.45987031
-3.3387361 1.5352623 0.29702693
-3.2616329 1.5210019 -0.57353884
-3.3371477 1.5387541 0.35605076
-3.273437 1.5194205 -0.51679075
-3.341651 1.540062 0.41658053
-3.2747827 1.5218059 -0.45812911
-3.3336511 1.5459234 0.4754917
-3.2996321 1.5231317 -0.40304157
-3.294704 1.5278518 -0.34385073
-2.3037262 1.8708211 -0.76564962
-3.2996416 1.5288703 -0.28630731
-2.3044915 1.8725532 -0.7247346
-3.325798 1.5220376 -0.23006369
-2.4011455 1.8367844 -0.7306987
-3.3432355 1.5184584 -0.17272989
-2.5021362 1.7995534 -0.73403585
-3.3144193 1.531955 -0.11336371
-2.6456966 1.7460604 -0.75036031
-3.3199592 1.5327799 -0.055262532
-2.587872 1.7707725 -0.67943949
-3.3242235 1.5340614 0.0025959546
-2.6072073 1.7655531 -0.64126694
-3.3384871 1.5317055 0.061121959
-2.5865874 1.7756804 -0.58924061
-3.3214345 1.5407956 0.11867085
-2.550312 1.7917202 -0.53383809
-3.3256412 1.5421251 0.17708421
-2.562973 1.7889707 -0.49526238
-3.3397746 1.5398899 0.23708931
-2.5966191 1.7782592 -0.4619799
-3.3338575 1.54494 0.29560268
-3.2568111 1.5305283 -0.57217848
-3.334147 1.5477433 0.35475922
-3.2685895 1.5289873 -0.5156135
-3.3257103 1.5536864 0.41261995
-3.2588296 1.5355451 -0.45514116
-3.3288455 1.5555304 0.47351831
-3.2725968 1.5414277 -0.39881814
-2.2459598 1.8961139 -0.7740379
-3.3066692 1.5316712 -0.34540957
-2.3052406 1.8749697 -0.76585448
-3.2892261 1.5409683 -0.28530568
-2.3026428 1.8780117 -0.72321385
-3.3228688 1.5314624 -0.22998264
-2.4044743 1.8405802 -0.73173803
-3.3328161 1.5306811 -0.17238477
-2.5004411 1.8056515 -0.73271608
-3.31146 1.5413371 -0.11355893
-2.7240024 1.721923 -0.78294891
-3.3226409 1.5401244 -0.055623792
-2.596724 1.7731287 -0.68245214
-3.3250303 1.5421002 0.0021959874
-2.6355906 1.7605383 -0.65123039
-3.3317928 1.5425022 0.060335938
-2.5777335 1.7847837 -0.58586782
-3.3259954 1.5474688 0.11844035
-2.5503154 1.7973249 -0.53352171
-3.3302059 1.5488154 0.17689922
-2.5665951 1.7932531 -0.49602041
-3.3237658 1.5539896 0.23449087
-2.5893717 1.7867523 -0.45988357
-3.3328223 1.5536598 0.29469973
-3.2575889 1.5383568 -0.57210606
-3.3349843 1.5557952 0.35407999
-3.2693744 1.536854 -0.51558864
-3.332109 1.5597384 0.41298038
-3.2873163 1.5330606 -0.46014816
-3.3296947 1.563558 0.47274849
-3.2952023 1.5399001 -0.40226534
-2.2602973 1.8943102 -0.78176427
-3.3014154 1.5404898 -0.3447465
-2.304831 1.8790746 -0.76511943
-3.2988892 1.5442715 -0.28638047
-2.3089437 1.8795189 -0.72597218
-3.3119693 1.542369 -0.22924843
-2.4075246 1.8436471 -0.73274189
-3.3331633 1.5375159 -0.17258595
-2.496717 1.8115994 -0.73057711
-3.3099074 1.5487952 -0.11374817
-2.6943684 1.7384087 -0.76994216
-3.3248591 1.5462511 -0.055925224
-2.6315861 1.7646902 -0.69579601
-3.3253684 1.5489103 0.001856386
-2.6300783 1.7675437 -0.64885241
-3.3302588 1.5500019 0.059865069
-2.573894 1.7909771 -0.58426255
-3.3150611 1.5583024 0.11722299
-2.5464067 1.8034556 -0.53204656
-3.3249211 1.557634 0.17588858
-2.564476 1.7987547 -0.49519569
-3.3297296 1.5587925 0.23463549
-2.5945368 1.7895988 -0.46102947
-3.3331819 1.5604758 0.2941272
-3.2542481 1.5463548 -0.57112747
-3.3372154 1.5619565 0.35377681
-3.2568073 1.5482991 -0.51285613
-3.3269129 1.5684974 0.41123304
-3.2876496 1.5397758 -0.46011212
-3.3226762 1.5729378 0.47041106
-3.2863612 1.5504277 -0.40086246
-2.2582889 1.8991445 -0.78004861
-3.3018727 1.547642 -0.34482461
-2.3144813 1.8795674 -0.76982421
-3.2974677 1.5520957 -0.28630933
-2.3153272 1.881287 -0.72874379
-3.3218055 1.5461617 -0.2301612
-2.4038386 1.8495728 -0.73047525
-3.3298812 1.5461096 -0.17260306
-2.4999561 1.8151722 -0.73156303
-3.3122411 1.5552942 -0.11406798
-2.6665087 1.7543695 -0.75767797
-3.3196735 1.5554852 -0.056211654
-2.6385078 1.7673079 -0.69809759
-3.3220663 1.5574661 0.001421932
-2.6441293 1.7674884 -0.65361422
-3.3250799 1.5592328 0.059206963
-2.5701294 1.7974234 -0.58266956
-3.3192811 1.5641519 0.1170329
-2.5479741 1.8078216 -0.53226137
-3.3291512 1.5635147 0.17574337
-2.5624375 1.8045171 -0.49438414
-3.326458 1.5673265 0.23364416
-2.5961523 1.794099 -0.46125081
-3.3280587 1.5696625 0.29272711
-3.258358 1.5520191 -0.57186365
-3.332118 1.5711378 0.35219261
-3.2498698 1.5580345 -0.51127559
-3.3274045 1.5756932 0.41054994
-3.2732916 1.552314 -0.45743191
-3.3194718 1.5813991 0.46886927
-3.2853513 1.5594103 -0.40066388
-2.2515612 1.9065164 -0.77552634
-3.2877941 1.561384 -0.3430323
-2.3243861 1.880812 -0.77456611
-3.2908306 1.563132 -0.2857118
-2.3270197 1.8818696 -0.73414153
-3.3114181 1.5586187 -0.2295035
-2.4020996 1.8555709 -0.72906554
-3.328887 1.555233 -0.17278178
-2.4931221 1.8234421 -0.72791845
-3.3093357 1.5650266 -0.11428062
-2.6684904 1.7599503 -0.75795263
-3.3186569 1.5645707 -0.056574859
-2.6351829 1.7747644 -0.6962924
-3.322938 1.5658907 0.0010028168
-2.6585016 1.7683828 -0.65842265
-3.3240719 1.568328 0.058657475
-2.5702138 1.8033479 -0.58232421
-3.3182688 1.5732212 0.11639103
-2.548018 1.813676 -0.53195727
-3.3262739 1.5732679 0.174831
-2.5642986 1.809755 -0.49464214
-3.3273454 1.5757538 0.23303892
-2.59623 1.8001184 -0.46104416
-3.3252048 1.5793903 0.29153734
-3.0498991 1.6366261 -0.52343512
-3.3255553 1.5821558 0.3502346
-3.1565757 1.6004547 -0.49194175
-3.3227305 1.5860329 0.40872484
-3.2834105 1.55722 -0.45913869
-3.3240824 1.5885174 0.46889412
-1.3904009 2.2359376 -0.29395089
-3.293067 1.5634348 -0.4018226
-2.2494349 1.9110852 -0.77379757
-3.3030081 1.5627445 -0.34501925
-2.325623 1.8843228 -0.77473891
-3.2892051 1.5705078 -0.28561881
-2.3231931 1.8872921 -0.73172385
-3.3192043 1.5627143 -0.23024975
-2.3760805 1.8695152 -0.71610916
-3.3253999 1.5633719 -0.17277661
-2.4979653 1.826107 -0.72967058
-3.303937 1.5737736 -0.11435592
-2.593338 1.7928548 -0.72579491
-3.3170362 1.5720103 -0.05685699
-2.6437464 1.776484 -0.69927359
-3.3250952 1.5720171 0.00070122915
-2.6316452 1.7832382 -0.64826316
-3.3262296 1.5744587 0.058355644
-2.5627284 1.8107891 -0.57950693
-3.3072257 1.58392 0.11518019
-2.5458541 1.8190928 -0.53103912
-3.3171387 1.5833138 0.17347166
-2.5639424 1.8145581 -0.49433059
-3.3201108 1.585134 0.23162489
-2.5958886 1.8050057 -0.46078187
-3.323617 1.5868133 0.29069787
-2.7651234 1.7458243 -0.45746648
-3.3314519 1.5870125 0.35056168
-2.848248 1.7181014 -0.42852336
-3.317441 1.5947031 0.406982
-3.2632589 1.5712473 -0.4554328
-3.3225331 1.5959108 0.46777987
-3.2730761 1.5782322 -0.39870825
-2.2507467 1.9148427 -0.77398217
-3.2960515 1.5729377 -0.34414983
-2.3203311 1.8908051 -0.77131319
-3.297226 1.5753657 -0.28654227
-2.3313427 1.8887498 -0.73537481
-3.3159781 1.5716296 -0.23014399
-2.3621373 1.8793561 -0.70891929
-3.307086 1.5775801 -0.17198849
-2.4960794 1.8318788 -0.72833389
-3.3120036 1.5786864 -0.11486422
-2.5880246 1.8002013 -0.72308612
-3.3156767 1.5802509 -0.057178684
-2.6243262 1.7891624 -0.69120741
-3.316184 1.5828964 0.00013890502
-2.6333513 1.78813 -0.6485042
-3.3229914 1.5833697 0.057764228
-2.5607815 1.8167814 -0.57852811
-3.3077455 1.5914693 0.1147109
-2.5402532 1.8263481 -0.52902818
-3.3157887 1.5915341 0.17277864
-2.5601263 1.8212186 -0.49301529
-3.3225331 1.5920724 0.23128334
-2.5920725 1.8117682 -0.45960638
-3.3204112 1.5956769 0.28955036
-3.3282757 1.5958871 0.34927559
-3.3273158 1.5991158 0.4080807
-3.2544765 1.5819825 -0.45376325
-3.3156776 1.6059804 0.46540841
-3.2680926 1.5880513 -0.39791068
-2.2537737 1.91821 -0.77512515
-3.2948146 1.5815169 -0.34402359
-2.3134217 1.8981028 -0.76699233
-3.2809458 1.5891948 -0.28494155
-2.3412671 1.8898628 -0.73990369
-3.3203969 1.5783043 -0.23065412
-2.3824601 1.8767709 -0.71817124
-3.3228221 1.5803063 -0.17306928
-2.4786921 1.8435949 -0.71999627
-3.3050838 1.5892668 -0.11494104
-2.6386828 1.7874089 -0.7439509
-3.3125339 1.5895325 -0.057509698
-2.559094 1.8186544 -0.66513997
-3.3149352 1.5915253 -0.00029489512
-2.6280265 1.7958881 -0.6461634
-3.3236413 1.5913695 0.057319332
-2.5660806 1.8204452 -0.5799821
-3.3064928 1.6000615 0.11409236
-2.5473642 1.8292944 -0.53094947
-3.3145499 1.6001468 0.17206642
-2.5618396 1.8261738 -0.49325955
-3.3194246 1.6013348 0.23025592
-2.591989 1.8174763 -0.45938468
-3.3229513 1.6030242 0.28918865
-3.3195853 1.6070296 0.34702829
-2.8392501 1.7340881 -0.42642692
-3.3242636 1.6083561 0.40663892
-3.2755375 1.5825597 -0.45745555
-3.3219261 1.6120763 0.46585849
-3.2664018 1.595335 -0.39762929
-2.2516069 1.9227567 -0.77339488
-3.2818828 1.5927782 -0.34238398
-2.3179617 1.9003549 -0.76897508
-3.2867675 1.5939084 -0.28563011
-2.3611155 1.8865993 -0.74958593
-3.3092923 1.588975 -0.22990872
-2.388855 1.8785602 -0.72081739
-3.3173623 1.5890281 -0.17295794
-2.4055886 1.8745378 -0.68667352
-3.3071651 1.5953468 -0.11524045
-2.5474906 1.8252571 -0.70512795
-3.3070521 1.5982156 -0.057769068
-2.5357928 1.8316813 -0.65564245
-3.3132405 1.5989187 -0.00066784408
-2.6259394 1.8014722 -0.64507705
-3.3200612 1.5994222 0.05677003
-2.5692945 1.8239474 -0.580791
-3.3010111 1.608699 0.1132761
-2.5433416 1.8353224 -0.52946955
-3.3128619 1.6075232 0.17141488
-2.5650749 1.829661 -0.49397939
-3.3215208 1.6074544 0.22995456
-2.5970969 1.8203932 -0.4605341
-3.31565 1.6122913 0.28754726
-3.3198056 1.6137731 0.34641334
-3.1021543 1.6472554 -0.48023912
-3.3207607 1.6163459 0.40525824
-3.2701464 1.5911634 -0.45641357
-3.3184447 1.6200455 0.46434072
-3.2761831 1.5995266 -0.3991164
-2.2479215 1.9283351 -0.7707389
-3.2654243 1.6060562 -0.34029514
-2.3109279 1.9073663 -0.76464027
-3.2890863 1.6007441 -0.2859666
-2.3947158 1.8790045 -0.76621366
-3.3059692 1.5978117 -0.22979906
-2.388555 1.8833504 -0.7202006
-3.3045855 1.6011018 -0.17247069
-2.4572773 1.8606786 -0.70949227
-3.3038244 1.60417 -0.11540847
-3.3018131 1.6076734 -0.058066756
-2.5214543 1.8419634 -0.64963049
-3.3080053 1.6083871 -0.0011519783
-2.6578932 1.7955748 -0.65635848
-3.3148351 1.6089002 0.056099456
-2.5672975 1.8299271 -0.57981229
-3.295773 1.6181105 0.11242168
-2.5431018 1.8405907 -0.52913755
-3.3152075 1.614439 0.17107424
-2.5630231 1.8356376 -0.49317789
-3.3163285 1.6168998 0.22872755
-2.5877147 1.8290377 -0.45794293
-3.319881 1.6185941 0.28747392
-2.7981391 1.757683 -0.46445289
-3.3127799 1.6238005 0.34450397
-3.2100015 1.6167897 -0.50222099
-3.3156381 1.6257403 0.40347946
-3.2575407 1.6031127 -0.45407137
-3.3170748 1.6281971 0.46318901
-1.3924338 2.2418718 -0.29424304
-3.2802081 1.6052891 -0.39972079
-2.2557306 1.9294643 -0.77470267
-3.2807198 1.6079462 -0.34230828
-2.3188815 1.9086519 -0.76844776
-3.2837114 1.6097438 -0.28549704
-2.409616 1.8780639 -0.77332622
-3.3005962 1.606855 -0.22951818
-2.3727088 1.8934203 -0.71217018
-3.3143339 1.6050335 -0.17320527
-2.4881487 1.8542783 -0.72295403
-3.3022132 1.6119248 -0.11561278
-2.3893476 1.8915209 -0.63776565
-3.3077822 1.6128805 -0.058407322
-2.4839892 1.8600236 -0.63458723
-3.3063931 1.6161468 -0.0015431491
-2.6541109 1.802137 -0.65463972
-3.3170261 1.615414 0.055778615
-2.5705829 1.8337196 -0.58063591
-3.301734 1.6233159 0.11236066
-2.5427537 1.8455812 -0.52879065
-3.3155055 1.6215781 0.17057851
-2.559032 1.8419565 -0.49184602
-3.3128524 1.6252797 0.22774343
-2.5965662 1.8309695 -0.46004927
-3.3164239 1.6269735 0.28635007
-2.7795262 1.7697773 -0.46001822
-3.3168454 1.629697 0.34449658
-2.9187822 1.7240684 -0.4424122
-3.3178277 1.6322587 0.40315834
-3.2634072 1.6081828 -0.45505396
-3.3211279 1.6341157 0.46327266
-3.2656069 1.6178191 -0.39745566
-2.2503576 1.9356229 -0.77109814
-3.2754636 1.6173027 -0.34167203
-2.3185225 1.9132144 -0.76773667
-3.2746654 1.6203768 -0.28465208
-2.4314098 1.8750335 -0.78391391
-3.3047738 1.6130983 -0.23000732
-2.3843899 1.8938862 -0.71730876
-3.320426 1.6106861 -0.17375429
-2.4965816 1.8562901 -0.72629428
-3.291224 1.6232247 -0.11554755
-2.4065218 1.8901398 -0.64460677
-3.3043838 1.6216674 -0.05871404
-2.4819312 1.8657181 -0.6334191
-3.3067894 1.6236687 -0.0019181799
-2.6700459 1.8021073 -0.66008377
-3.3174324 1.6229663 0.055355661
-2.5685501 1.8396821 -0.57965577
-3.3040242 1.6301981 0.11202165
-2.5406651 1.8514667 -0.52789575
-3.3083391 1.6315943 0.16936448
-2.5551076 1.8485246 -0.49052694
-3.3132653 1.6328127 0.22718205
-2.5999966 1.8351262 -0.46075693
-3.3130727 1.6357344 0.28520757
-3.3229108 1.6354123 0.34478116
-2.796196 1.7722993 -0.41718566
-3.3126435 1.6416005 0.40138203
-3.274991 1.6117741 -0.45706263
-3.3103833 1.6452416 0.46009853
-3.267838 1.6245914 -0.39778954
-2.2466192 1.9411547 -0.76843935
-3.2777052 1.6241052 -0.3420071
-2.3164663 1.9183683 -0.76611847
-3.2769065 1.6271768 -0.2849873
-2.4379263 1.8775306 -0.78672183
-3.3108292 1.6187315 -0.23064815
-2.4235935 1.8847476 -0.73561782
-3.3056445 1.6232647 -0.17315671
-2.4876332 1.8644302 -0.72183329
-3.2896843 1.6313252 -0.11576904
-2.4517984 1.8790648 -0.66325349
-3.3009529 1.6304272 -0.059019607
-2.4763088 1.8726259 -0.63086265
-3.3109636 1.6299441 -0.0022228574
-2.6949353 1.7990766 -0.66878355
-3.3159151 1.6311324 0.054851435
-2.562891 1.8468685 -0.57746291
-3.3043947 1.6377034 0.1115541
-2.5367417 1.8579571 -0.52643925
-3.3106117 1.638497 0.16902433
-2.5566459 1.8531895 -0.49075657
-3.3098698 1.641557 0.22617988
-2.5923786 1.8430558 -0.45863351
-3.3134656 1.6432575 0.28459999
-3.3157907 1.6453657 0.3428753
-2.7644873 1.7889938 -0.41059214
-3.3074217 1.6509056 0.39960754
-3.2510705 1.6273826 -0.4527019
-3.3070607 1.6539291 0.45854524
-3.2624073 1.6334677 -0.39694583
-2.2494307 1.9440967 -0.76956171
-3.2741427 1.6323838 -0.34159225
-2.316 1.9226817 -0.76539451
-3.2752171 1.6348294 -0.28490821
-2.4290395 1.8851638 -0.78172922
-3.2977953 1.6302146 -0.22976111
-2.4558902 1.8779762 -0.75063318
-3.3077621 1.6297508 -0.1734765
-2.4646482 1.8770802 -0.71111089
-3.2841849 1.6402484 -0.11585321
-2.5322046 1.8558509 -0.69665527
-3.3049669 1.6362827 -0.059350189
-2.5184622 1.8627596 -0.64703405
-3.3035717 1.6395266 -0.002717234
-2.6982822 1.8032421 -0.66966927
-3.3104329 1.6401041 0.054205768
-2.5643306 1.8512802 -0.57767987
-3.2989111 1.6466316 0.11072335
-2.5381575 1.8622956 -0.52665323
-3.3070426 1.6468214 0.16818179
-2.5525899 1.8594431 -0.48942196
-3.3100972 1.6486623 0.2256393
-2.6012111 1.845066 -0.46074402
-3.3080335 1.6521695 0.28321272
-2.7939606 1.7823573 -0.46292472
-3.3160343 1.6524801 0.34224162
-2.7865887 1.787111 -0.41503179
-3.305789 1.6585835 0.39857128
-3.2568789 1.6324675 -0.45368549
-3.3017025 1.6627715 0.45660925
-3.2608328 1.641467 -0.39669988
-2.2506456 1.9478527 -0.76974666
-3.2819977 1.6373265 -0.34265876
-2.3139105 1.9278073 -0.76377511
-3.2717376 1.643484 -0.28464991
-2.4133892 1.8953567 -0.77328253
-3.3019109 1.6364653 -0.23025095
-2.4504104 1.8847232 -0.74755466
-3.3004923 1.6397295 -0.17329186
-2.4225359 1.8964324 -0.69180447
-3.2901945 1.6458479 -0.11630687
-2.53369 1.8604465 -0.69688219
-3.2938662 1.6474622 -0.05960675
-2.505733 1.8721544 -0.64170301
-3.3000851 1.6482452 -0.0031602378
-2.6641111 1.8204874 -0.65690553
-3.3069553 1.6488347 0.053622719
-2.5640421 1.8565826 -0.57730442
-3.3087382 1.6510847 0.11089469
-2.5396485 1.8669102 -0.52688038
-3.3035741 1.6555262 0.16732055
-2.566916 1.8598009 -0.49327371
-3.308537 1.6567672 0.22485903
-2.5935464 1.8529464 -0.45861807
-3.3083739 1.6596663 0.28260627
-2.7623262 1.7988381 -0.45550412
-3.320158 1.6588154 0.34221256
-2.9075818 1.7529167 -0.43971404
-3.3136535 1.6637212 0.39930505
-3.247828 1.6429226 -0.45200244
-3.3076692 1.6684924 0.45707738
-3.2646236 1.6468159 -0.3972832
-2.2483797 1.9523251 -0.76801288
-3.2556071 1.6525472 -0.33929452
-2.3150258 1.931291 -0.76394641
-3.2641883 1.6525406 -0.28395531
-2.40095 1.9037876 -0.76653981
-3.2962618 1.6449848 -0.22994438
-2.4568124 1.8867936 -0.75021505
-3.3043346 1.6451851 -0.17369598
-2.4237418 1.9002008 -0.69198972
-3.2940335 1.651279 -0.11666345
-2.5244265 1.8680888 -0.69265264
-3.2977095 1.6529052 -0.059917107
-2.4768014 1.8863469 -0.63009048
-3.3077435 1.6524966 -0.003356531
-2.6368427 1.8345381 -0.64670622
-3.3069968 1.6555237 0.053242147
-2.5509124 1.8655665 -0.572653
-3.2954597 1.6619769 0.1095762
-2.5373116 1.8722011 -0.52595687
-3.3017192 1.6627983 0.16667391
-2.5627451 1.8657753 -0.49192455
-3.3009987 1.6658262 0.22346039
-2.5930505 1.857774 -0.45835316
-3.3084278 1.6663465 0.28204015
-2.7619605 1.8041089 -0.45530659
-3.3126841 1.6678656 0.34035105
-3.2057395 1.6604807 -0.50066668
-3.3062077 1.6727329 0.39721581
-3.240356 1.6519189 -0.4506135
-3.2983847 1.6780417 0.45435598
-3.2593613 1.6564143 -0.39647534
-2.2413125 1.9591569 -0.76346534
-3.2673187 1.6566489 -0.34086803
-2.318038 1.9348986 -0.7650606
-3.2664604 1.6597077 -0.28430864
-2.3938274 1.9111438 -0.76242834
-3.2947636 1.6534652 -0.22999921
-2.4531016 1.8931763 -0.74797142
-3.3047433 1.6530845 -0.17395009
-2.4862337 1.8841354 -0.71956277
-3.2906175 1.6603513 -0.11684422
-2.5206761 1.874706 -0.69067556
-3.2981067 1.660781 -0.06026331
-2.4765096 1.8916341 -0.62962711
-3.294796 1.6645983 -0.0039884197
-2.5918417 1.8552676 -0.63002932
-3.307404 1.6634241 0.052801717
-2.5615168 1.8674923 -0.57593209
-3.2939525 1.670433 0.10896395
-2.53157 1.8794934 -0.52394724
-3.3097363 1.6683125 0.16683435
-2.5643172 1.8707397 -0.49216953
-3.310905 1.6707612 0.22397867
-2.6001935 1.8610176 -0.46002173
-3.3031683 1.6759918 0.28061667
-2.8120222 1.7939311 -0.46669701
-3.3168921 1.6746092 0.34030181
-3.2303553 1.6601764 -0.50559545
-3.3047557 1.6811869 0.39614099
-3.2519803 1.6559719 -0.45264536
-3.3044405 1.6841792 0.45480376
-3.2575879 1.663975 -0.39620778
-2.2390814 1.9638044 -0.76174015
-3.2825575 1.6588112 -0.34289494
-2.3124547 1.940912 -0.76161259
-3.2779446 1.6630753 -0.28561586
-2.3882308 1.9173855 -0.75915664
-3.2986927 1.6593195 -0.23046961
-2.4699364 1.8920636 -0.75559098
-3.3029666 1.6607674 -0.17405835
-2.4910407 1.8871657 -0.72133279
-3.2907286 1.6673949 -0.11710247
-2.5220227 1.8789985 -0.69088703
-3.3039513 1.666054 -0.060607452
-2.5205417 1.8816485 -0.64651722
-3.2968216 1.6710557 -0.0043067969
-3.3037162 1.6716928 0.052241456
-2.5610867 1.8724948 -0.57554168
-3.2902555 1.6786553 0.10826548
-2.534749 1.8832202 -0.52472293
-3.2984409 1.678913 0.16530305
-2.5620275 1.8763524 -0.49135074
-3.3053417 1.6795936 0.2227816
-2.5923696 1.8685344 -0.45787841
-3.3052011 1.6824738 0.28029701
-2.990221 1.7419224 -0.50758392
-3.3075957 1.6845769 0.33811194
-3.2155061 1.6718687 -0.5024637
-3.3049078 1.6882443 0.395464
-3.2614756 1.6598972 -0.45430464
-3.3008456 1.6923625 0.45327497
-3.2465978 1.6752974 -0.39452401
-2.2453103 1.9660649 -0.76478255
-3.2696538 1.6708058 -0.34129173
-2.3154416 1.9445214 -0.76272643
-3.2687879 1.6738604 -0.28477818
-2.3810501 1.9246522 -0.75504071
-3.2857223 1.6713543 -0.22961004
-2.4627399 1.8996044 -0.75169963
-3.2861571 1.6739942 -0.17335792
-2.4925113 1.8919021 -0.72156668
-3.2834339 1.6776066 -0.11716185
-2.5270534 1.8826703 -0.69260412
-3.29284 1.6774789 -0.060876396
-2.5541139 1.8759624 -0.65927261
-3.2952552 1.6795022 -0.0047322675
-2.6307678 1.8530806 -0.64353621
-3.3002467 1.6807426 0.051642481
-2.5698752 1.8750954 -0.57821745
-3.2886882 1.6870719 0.10765504
-2.5380883 1.8875041 -0.52552688
-3.294982 1.6879301 0.16442621
-2.5598912 1.8824997 -0.49055865
-3.3057041 1.6874695 0.22220284
-2.595789 1.8729969 -0.45860103
-3.3093657 1.6892005 0.28020233
-3.0386968 1.7333424 -0.51859534
-3.306078 1.6930212 0.33712938
-3.2214231 1.6776885 -0.50357491
-3.2996325 1.6978002 0.393677
-3.25806 1.6688437 -0.45364636
-3.3031077 1.6996486 0.45291561
-1.4173292 2.2455668 -0.30765441
-3.2486591 1.6820126 -0.39485532
-2.24646 1.9698092 -0.76496685
-3.2698412 1.6781806 -0.34138128
-2.3149633 1.9490349 -0.76201308
-3.2651687 1.682412 -0.28451568
-2.3686342 1.9333211 -0.74830955
-3.2935343 1.6764195 -0.23040475
-2.464087 1.9039938 -0.75191623
-3.2997088 1.677299 -0.17433247
-2.493886 1.8963796 -0.72178745
-3.2855296 1.684433 -0.11749855
-2.4966559 1.8976191 -0.67952228
-3.2968564 1.6837492 -0.061227713
-2.5715947 1.8754128 -0.66576451
-3.3011885 1.6851988 -0.0050043496
-2.6322689 1.8579687 -0.64377737
-3.3023567 1.6876196 0.051303312
-2.5695081 1.8803877 -0.57784146
-3.2888794 1.6944928 0.10719141
-2.5340238 1.8938757 -0.52406436
-3.2989974 1.6942171 0.16426018
-2.5631661 1.8865911 -0.49130815
-3.3059163 1.6949346 0.22164431
-2.5991092 1.877193 -0.45931071
-3.2981877 1.7000754 0.2780073
-2.8059025 1.8137658 -0.46493062
-3.3006225 1.7021701 0.3355462
-3.2253342 1.6837382 -0.50428522
-3.3036323 1.7041194 0.39369431
-3.2394443 1.6820933 -0.45026937
-3.2958269 1.7093066 0.45056394
-3.2449107 1.690096 -0.39429337
-2.2458611 1.9738895 -0.76419145
-3.2566099 1.6892505 -0.33973274
-2.3144016 1.9533105 -0.76128775
-3.2613988 1.6905401 -0.28423184
-2.3646688 1.9388723 -0.74589896
-3.2878685 1.6852071 -0.23011169
-2.4757366 1.9047416 -0.75706905
-3.2883043 1.6878488 -0.17390582
-2.4916663 1.9017338 -0.72043079
-3.283658 1.6920259 -0.11769529
-3.2854214 1.6942669 -0.061451919
-2.5533094 1.8861618 -0.65832728
-3.289752 1.695714 -0.0055538234
-2.6138611 1.8689151 -0.63682914
-3.3004985 1.695248 0.050825253
-2.5672216 1.8859749 -0.57684374
-3.2870131 1.7020768 0.10662197
-2.5408258 1.8964641 -0.52596873
-3.2895031 1.7040998 0.16290827
-2.5645099 1.8910038 -0.49152592
-3.2983589 1.7042515 0.22023277
-2.5986271 1.8822905 -0.45905921
-3.3077583 1.7042964 0.27874684
-3.2987981 1.7097609 0.33460563
-3.2103729 1.6952666 -0.50114608
-3.2999349 1.7122624 0.39230558
-3.2470059 1.6866362 -0.45159271
-3.3034334 1.7141225 0.45145139
-3.2430267 1.6975726 -0.39402127
-2.2519398 1.9757724 -0.76721561
-3.2737021 1.6909574 -0.34201184
-2.3138242 1.9575803 -0.76056236
-3.2690263 1.6951637 -0.28514445
-2.3709731 1.9410619 -0.7486912
-3.2821717 1.6939586 -0.22981685
-2.4769907 1.9089104 -0.75727439
-3.3036213 1.6902436 -0.1749711
-2.4929333 1.9059458 -0.72063857
-3.2798462 1.7001786 -0.11783078
-2.4885921 1.9094722 -0.67550063
-3.2796922 1.7029939 -0.061714169
-2.5278282 1.8990812 -0.64810103
-3.2897754 1.7027292 -0.0059042294
-2.6224399 1.8711827 -0.63966423
-3.3005304 1.7022904 0.050426945
-2.5703697 1.8898246 -0.5776701
-3.2851195 1.7096466 0.10605317
-2.5348139 1.9031171 -0.52392763
-3.2971759 1.7088532 0.16310598
-2.556622 1.8983064 -0.48914754
-3.2964878 1.7118396 0.21947764
-2.5944204 1.8885378 -0.45785892
-3.3020997 1.7130164 0.27736875
-3.3026409 1.7156783 0.33459675
-3.223496 1.6980047 -0.50375271
-3.2943211 1.7209296 0.39056206
-3.2263002 1.6999224 -0.44785115
-3.2903256 1.7249553 0.44791657
-3.252594 1.7019776 -0.39551988
-2.2530599 1.9795365 -0.76740086
-3.2871261 1.6943063 -0.34382278
-2.3150001 1.9615273 -0.76075667
-3.2558002 1.7065374 -0.28387988
-2.3790617 1.9429758 -0.75236553
-3.2937527 1.6979148 -0.23092028
-2.4783111 1.9133409 -0.75749338
-3.2903647 1.701704 -0.1744542
-2.4995279 1.9087511 -0.72320801
-3.279963 1.7075648 -0.11810625
-2.5058661 1.90889 -0.68238175
-3.2855563 1.7086729 -0.06207848
-2.5399222 1.900281 -0.65250552
-3.2918129 1.7095749 -0.0062420024
-2.6653705 1.8630236 -0.65491861
-3.3006592 1.7097321 0.050008968
-2.5663161 1.8962384 -0.57607591
-3.2833223 1.7176011 0.10546529
-2.5380139 1.9071516 -0.52471894
-3.2915678 1.7179534 0.16208072
-2.5617008 1.9018319 -0.49041674
-3.2908974 1.7209252 0.2182679
-2.5921307 1.8944651 -0.45714545
-3.3003411 1.7210023 0.276501
-2.7751188 1.8402727 -0.45754766
-3.2932997 1.7258449 0.33239678
-3.0753231 1.7506166 -0.47338611
-3.300148 1.7267057 0.39093515
-3.241478 1.702553 -0.45054588
-3.2961316 1.7307293 0.44838181
-3.2374091 1.7134409 -0.39320278
-2.2541046 1.9830825 -0.76757616
-3.2700071 1.7064322 -0.34167776
-2.3110051 1.9668725 -0.75821257
-3.2481341 1.715728 -0.28319231
-2.3819265 1.9463274 -0.75342566
-3.2784491 1.7094773 -0.22985597
-2.4847503 1.9158666 -0.76017618
-3.2865167 1.7098472 -0.17445001
-2.5042858 1.9118785 -0.72498333
-3.2741799 1.7162393 -0.11817887
-2.5478945 1.900354 -0.69961804
-3.277854 1.7179189 -0.062324293
-2.5859418 1.8906595 -0.67013752
-3.2841158 1.7188282 -0.0067205504
-2.6523142 1.8722095 -0.64992589
-3.2968097 1.7178808 0.04945419
-2.5548792 1.9046029 -0.57203126
-3.2832966 1.7245826 0.10502314
-2.5356264 1.9126239 -0.52380431
-3.2953825 1.7238497 0.16193379
-2.5593066 1.907374 -0.48959461
-3.2947054 1.726823 0.21816726
-2.6008859 1.8966872 -0.45926717
-3.2984347 1.7285672 0.27565378
-3.3009019 1.7306752 0.33300754
-2.7633471 1.8515379 -0.40955657
-3.2925878 1.735866 0.38883838
-3.2527714 1.7060105 -0.45254862
-3.2904935 1.7393241 0.44645745
-3.2261958 1.7244679 -0.39150479
-2.2535901 1.9876072 -0.76682252
-3.2663908 1.7153062 -0.34129283
-2.3105216 1.9715796 -0.75750792
-3.2616601 1.7194678 -0.28474623
-2.3883643 1.9491 -0.75624704
-3.2709818 1.7194976 -0.22944239
-2.486124 1.9205829 -0.76040882
-3.2790413 1.7198858 -0.17426901
-2.525003 1.910635 -0.73383701
-3.2705183 1.7251143 -0.11835013
-2.5369039 1.9091221 -0.69467646
-3.2799568 1.7251292 -0.06268014
-2.603529 1.8907167 -0.67665899
-3.2804594 1.727724 -0.007172728
-2.6195111 1.8880078 -0.63777095
-3.2931662 1.7268091 0.048861016
-2.5654249 1.9067526 -0.57532132
-3.287323 1.7312623 0.10479121
-2.5407195 1.9163831 -0.52517474
-3.2936678 1.7322099 0.16123307
-2.5625954 1.9117652 -0.49035943
-3.3025613 1.7324591 0.21846017
-2.5930691 1.9045801 -0.45714244
-3.3005557 1.7358449 0.27529451
-3.1167846 1.7490293 -0.53583646
-3.2992206 1.7390316 0.33202919
-3.2947016 1.7431264 0.38848001
-3.243516 1.7165219 -0.45086884
-3.296381 1.7455238 0.44690168
-3.2374921 1.7279396 -0.39327779
-2.2579689 1.990099 -0.76889932
-3.2644176 1.7227974 -0.34111407
-2.3115902 1.9752859 -0.75769109
-3.2520289 1.729174 -0.28385618
-2.3860531 1.9540944 -0.75470328
-3.2728238 1.7258868 -0.22975768
-2.4786339 1.9274756 -0.75648552
-3.2847252 1.7251881 -0.17480136
-2.5280013 1.9143972 -0.73483336
-3.2742791 1.7309499 -0.1187271
-2.5221691 1.9183699 -0.6882233
-3.2818041 1.7315445 -0.062996775
-2.6012454 1.8963375 -0.67548811
-3.2803836 1.7346901 -0.0075209867
-2.5937033 1.9008331 -0.62819248
-3.2873359 1.7354497 0.048231062
-2.5594077 1.9133813 -0.57310122
-3.2853365 1.7387877 0.10422445
-2.5364604 1.9223959 -0.52369463
-3.2840204 1.7419122 0.15988997
-2.5638671 1.9161764 -0.49057671
-3.2986856 1.7405525 0.2174896
-2.601809 1.9068494 -0.45926592
-3.2986012 1.7433882 0.27444842
-2.9724894 1.7984853 -0.5025984
-3.2972751 1.7465633 0.33109125
-2.7795806 1.8582001 -0.41276956
-3.2927685 1.7506374 0.38745135
-3.2339907 1.7261841 -0.4491469
-3.2906885 1.7540741 0.44497922
-3.2507949 1.7313113 -0.3953661
-2.2556872 1.9949272 -0.7671839
-3.2453761 1.7356427 -0.33873022
-2.3093104 1.9802809 -0.75606543
-3.2596841 1.7342508 -0.28479132
-2.3855171 1.9587871 -0.75404072
-3.2747574 1.7326798 -0.23009314
-2.4798985 1.9319118 -0.75670415
-3.2828302 1.7331159 -0.17492209
-2.5310669 1.9184425 -0.73584342
-3.2723727 1.7388444 -0.11893892
-2.4701505 1.9391415 -0.66621685
-3.274127 1.741096 -0.063257836
-2.6097918 1.8989654 -0.67851484
-3.2804022 1.7420514 -0.0078887763
-2.5932536 1.9061567 -0.62777489
-3.2873611 1.7428303 0.047815934
-2.5643868 1.9169635 -0.57455188
-3.2795939 1.7477735 0.10339015
-2.532259 1.9286513 -0.52222657
-3.2840471 1.749277 0.15938231
-2.5577984 1.923068 -0.48872608
-3.2872343 1.7511514 0.21563379
-2.6050396 1.9111013 -0.45997864
-3.3005605 1.7502619 0.2741091
-3.2858987 1.7571058 0.32858983
-2.8338323 1.8480572 -0.42380604
-3.2890282 1.7590554 0.38604891
-3.2188687 1.7378376 -0.44642428
-3.2888603 1.7619575 0.44384012
-3.2277532 1.7443686 -0.39184666
-2.2532649 1.9992949 -0.76544541
-3.2527699 1.739922 -0.3397646
-2.3085876 1.984275 -0.75532603
-3.2556257 1.7418509 -0.2844817
-2.3917212 1.9608794 -0.75682825
-3.2706943 1.7403162 -0.22992519
-2.4810014 1.9358298 -0.75689769
-3.2749224 1.7418597 -0.17467709
-2.5445356 1.9187647 -0.74153256
-3.2682915 1.7464669 -0.11904846
-2.4392314 1.9526736 -0.65306532
-3.2738943 1.7476357 -0.063538581
-2.6073999 1.9043002 -0.67732942
-3.2782464 1.7491448 -0.0082477313
-2.5980663 1.9092903 -0.6292907
-3.2890644 1.7488637 0.047517948
-2.5655541 1.9211031 -0.57475656
-3.2755184 1.7553885 0.10272126
-2.5334044 1.9327067 -0.52242678
-3.2819057 1.7563635 0.15874432
-2.5663719 1.9250085 -0.49101305
-3.2927694 1.756132 0.21576868
-2.5969172 1.9180793 -0.45780858
-3.2927098 1.7589489 0.27249566
-2.737525 1.8790958 -0.44848597
-3.2914128 1.7620981 0.32890937
-2.910583 1.8309946 -0.43944588
-3.2888312 1.7656115 0.38539636
-2.586257 1.9272321 -0.33301198
-3.2924542 1.7674853 0.4439421
-3.2218938 1.7528057 -0.39098176
-2.2593002 2.0012994 -0.76847517
-3.2449927 1.7489705 -0.33883956
-2.3147297 1.9864222 -0.758241
-3.2459097 1.7514449 -0.28358608
-2.3824739 1.9679397 -0.75180835
-3.264802 1.7488664 -0.2296208
-2.4786811 1.9410604 -0.75545061
-3.2767067 1.74826 -0.17499322
-2.552803 1.9210124 -0.74488586
-3.2662196 1.7539237 -0.11923894
-2.4368067 1.9578012 -0.65178305
-3.2776041 1.7534984 -0.063870087
-2.6248379 1.9040377 -0.68383527
-3.2742529 1.7571548 -0.0086563667
-2.6228862 1.9068406 -0.6380204
-3.2831526 1.7574288 0.0468917
-2.5521698 1.9298201 -0.57009137
-3.2753797 1.7623206 0.10228133
-2.5272465 1.9391918 -0.52037781
-3.2836967 1.7627857 0.15842721
-2.5583367 1.9321316 -0.48862574
-3.2945704 1.7625839 0.21545002
-2.6093674 1.9193398 -0.46088824
-3.2945099 1.7654005 0.27217692
-2.7689137 1.8753237 -0.45561859
-3.2951202 1.7680334 0.32889909
-3.1025786 1.7815897 -0.47862363
-3.2830257 1.7740937 0.38366169
-2.5912962 1.9306254 -0.33391273
-3.2828965 1.7769723 0.44122344
-3.2276411 1.7587665 -0.39191669
-2.2519875 2.0078511 -0.76391411
-3.2545962 1.7539318 -0.34018207
-2.3124728 1.9916301 -0.75662583
-3.240202 1.7606953 -0.28312975
-2.3854108 1.9718195 -0.75289428
-3.2590947 1.7581723 -0.22935365
-2.4852123 1.9441997 -0.75816405
-3.2748446 1.7565327 -0.17513107
-2.5665107 1.9222865 -0.75062174
-3.2585626 1.7637547 -0.11927981
-2.4701347 1.9529177 -0.66536146
-3.2718816 1.762826 -0.064162433
-2.6190662 1.9113034 -0.68129712
-3.2762408 1.7643546 -0.0090120025
-2.6243081 1.911992 -0.63827503
-3.2832184 1.7651813 0.046457961
-2.5645037 1.93156 -0.57399893
-3.2754426 1.7700461 0.1018022
-2.5322704 1.9429772 -0.5217492
-3.2799211 1.7715733 0.15756112
-2.5559907 1.9381496 -0.4878276
-3.286973 1.7724277 0.21401212
-2.6014414 1.9271256 -0.45875797
-3.2869377 1.7752278 0.27050713
-2.8887758 1.8471594 -0.48304597
-3.2818484 1.7793671 0.32607543
-3.1799245 1.766786 -0.49437481
-3.2869229 1.7808199 0.38365853
-2.7576814 1.8889889 -0.36373857
-3.2829943 1.7847023 0.44046664
-3.2371855 1.7636951 -0.39344162
-2.2480178 2.0133471 -0.76125389
-3.2431531 1.7647783 -0.33879739
-2.3170233 1.9947915 -0.75865418
-3.2498069 1.7656693 -0.28428856
-2.3848834 1.9767349 -0.75224197
-3.2629642 1.7647946 -0.22986247
-2.4725246 1.953029 -0.75177777
-3.2825856 1.7621515 -0.17581467
-2.6067061 1.9158908 -0.76813602
-3.2662973 1.7693276 -0.11982184
-2.4660583 1.9591472 -0.66336614
-3.2719078 1.7705413 -0.06450136
-2.6240654 1.9153988 -0.68294775
-3.2704802 1.7736459 -0.0094882743
-2.6475015 1.9108595 -0.64638811
-3.279398 1.7739667 0.045871507
-2.5530453 1.9402092 -0.56996799
-3.2754765 1.7777667 0.10132323
-2.5354409 1.9473168 -0.52255613
-3.2761083 1.7803308 0.15669644
-2.5591936 1.9425631 -0.48859364
-3.2812591 1.7817078 0.21279232
-2.6028261 1.9322109 -0.45900947
-3.2889099 1.7824683 0.27014941
-2.8020658 1.8780659 -0.46307272
-3.2819076 1.787095 0.32541075
-2.7472563 1.8957258 -0.40596929
-3.2850866 1.7890587 0.3825936
-2.8768787 1.861661 -0.3851099
-3.2868629 1.7914393 0.44050899
-1.4017169 2.2667041 -0.29648584
-3.2198086 1.7752399 -0.39080876
-2.2523422 2.0158811 -0.76333326
-3.237196 1.7731869 -0.33811495
-2.3163185 1.999018 -0.7579267
-3.2649484 1.7683307 -0.28601792
-2.3859391 1.9806484 -0.75243556
-3.2646799 1.7711607 -0.23017687
-2.4544148 1.9627854 -0.74287945
-3.2669654 1.7732674 -0.17514578
-2.6379585 1.9117219 -0.78170872
-3.2680159 1.7757044 -0.12013679
-2.4743104 1.9612303 -0.66653985
-3.2697659 1.7779692 -0.064783975
-2.6198955 1.9215299 -0.68107766
-3.2779965 1.7784863 -0.0097144088
-2.6323986 1.9201756 -0.6407212
-3.2772617 1.7814068 0.045402318
-2.556056 1.9440713 -0.57079542
-3.2656207 1.7872342 0.10026968
-2.5366068 1.9516519 -0.52277017
-3.2816858 1.7857208 0.15671819
-2.5585217 1.9474882 -0.48828876
-3.2810621 1.7886326 0.21225995
-2.5928235 1.9398798 -0.45637089
-3.2791333 1.7919149 0.26826122
-2.7658124 1.8936441 -0.4546935
-3.2855477 1.7930211 0.32540104
-3.2791929 1.7974617 0.38086262
-2.9656782 1.8427795 -0.40103471
-3.2772079 1.8008063 0.43779588
-1.4070246 2.266408 -0.29952407
-3.2157459 1.7830448 -0.39023325
-2.2515979 2.0199184 -0.76255584
-3.2446179 1.7779236 -0.33917227
-2.3087635 2.0052285 -0.7535525
-3.2551179 1.7778132 -0.28511694
-2.3748727 1.9880724 -0.74653774
-3.2567482 1.78012 -0.22971128
-2.4100223 1.9799993 -0.72155786
-3.2725215 1.7786136 -0.17568056
-3.2619872 1.7841437 -0.12019818
-2.478991 1.9643741 -0.66823077
-3.2734003 1.7838436 -0.065116398
-2.6120992 1.9286588 -0.67780823
-3.2700362 1.7874489 -0.010178965
-2.622714 1.9278634 -0.63701642
-3.2751026 1.7888303 0.044933807
-2.5553918 1.9489795 -0.57040107
-3.265388 1.7941153 0.099832125
-2.5285282 1.958575 -0.52015066
-3.2776113 1.7936481 0.15589444
-2.555974 1.9529233 -0.4874621
-3.2808475 1.7955515 0.2117278
-2.6015067 1.9422985 -0.45850188
-3.2866006 1.7968435 0.26872864
-2.7859621 1.8934256 -0.45925698
-3.2815166 1.8009282 0.32416135
-2.6477194 1.9336654 -0.38559207
-3.2847176 1.8029017 0.38125184
-3.1154213 1.8077464 -0.42788914
-3.2827139 1.80625 0.43827701
-1.4256685 2.2622576 -0.31051356
-3.2192955 1.7887645 -0.39083612
-2.2542176 2.0229716 -0.76368356
-3.2328639 1.7878355 -0.33774117
-2.3080287 2.0094223 -0.75282341
-3.2356434 1.7898039 -0.28319868
-2.3603163 1.9964228 -0.73889649
-3.2564921 1.7869806 -0.22986855
-2.3900619 1.9899746 -0.71181756
-3.2684145 1.7865394 -0.17566602
-2.6209455 1.9264861 -0.77352279
-3.2636623 1.7905089 -0.12051253
-2.4783034 1.9690552 -0.66769385
-3.2654114 1.7927767 -0.065347224
-2.6042767 1.9357398 -0.67453665
-3.2697835 1.794342 -0.010523803
-2.6384764 1.9283712 -0.64248776
-3.2748523 1.7957355 0.044541858
-2.5620508 1.9518389 -0.57245296
-3.2631989 1.8014901 0.099272497
-2.5315118 1.962379 -0.52093089
-3.2792988 1.8000584 0.15557775
-2.5496855 1.9593685 -0.48558956
-3.2825379 1.8019692 0.2114106
-2.604568 1.9463041 -0.45920256
-3.2825322 1.804749 0.26762733
-2.7797523 1.9005159 -0.45777771
-3.2793765 1.8083223 0.32322991
-2.656518 1.9362558 -0.38736826
-3.2787766 1.8112615 0.37952298
-3.204494 1.7900186 -0.44387087
-3.2825041 1.8131536 0.43756106
-1.4076465 2.268784 -0.29964137
-3.2304769 1.7924616 -0.39262101
-2.2500715 2.0279737 -0.76099998
-3.2364159 1.7936091 -0.33830124
-2.3107023 2.0126338 -0.75391793
-3.2372799 1.7960941 -0.28350914
-2.3561192 2.0017419 -0.73647475
-3.2542892 1.7943431 -0.2298689
-2.3998461 1.9914304 -0.71615332
-3.2642794 1.7944374 -0.1756504
-2.5760961 1.9439816 -0.75331473
-3.2537146 1.7999004 -0.120443
-2.4024892 1.9947106 -0.63594764
-3.2651358 1.7996525 -0.065644875
-2.5910125 1.9442806 -0.6691643
-3.2695079 1.8012284 -0.010868589
-2.5886903 1.9470966 -0.62435073
-3.2726455 1.8031307 0.044074666
-2.5466771 1.9607958 -0.56716377
-3.2629242 1.8083533 0.098835655
-2.5289397 1.9677163 -0.52000982
-3.2713127 1.8089303 0.1544192
-2.5582733 1.9617116 -0.48789623
-3.2784247 1.8098581 0.21044971
-2.6169934 1.9477812 -0.46229291
-3.2726674 1.8140811 0.26574454
-3.286798 1.8132958 0.32383314
-3.2766271 1.8186293 0.37850106
-3.2213373 1.792145 -0.44690782
-3.2746654 1.8219419 0.43525144
-2.1806784 2.0497761 -0.76000768
-3.2264566 1.8006399 -0.39206395
-2.2442732 2.0336504 -0.75737154
-3.2266188 1.8033129 -0.33713445
-2.3065772 2.0180202 -0.75137591
-3.229373 1.8052931 -0.28282261
-2.3658357 2.0033841 -0.74102992
-3.2579527 1.8005811 -0.2303589
-2.4517717 1.9814479 -0.74039084
-3.2582846 1.8032047 -0.17554243
-2.5223813 1.9639536 -0.72917658
-3.2573819 1.8061398 -0.12084047
-2.3785176 2.0058408 -0.62574875
-3.2649398 1.8069215 -0.06596189
-2.6066933 1.9450792 -0.6749984
-3.2596278 1.8109765 -0.011376497
-2.6008506 1.9488693 -0.62852329
-3.2743945 1.8099258 0.043738898
