# .PCD v0.7 - Point Cloud Data file format
VERSION 0.7
FIELDS x y z
SIZE 4 4 4
TYPE F F F
COUNT 1 1 1
WIDTH 1558
HEIGHT 1
VIEWPOINT 0 0 0 1 0 0 0
POINTS 1558
DATA ascii
12.092466 7.6973906 -0.75405496
1.7795585 2.468878 -1.2036667
12.146271 7.7459202 -0.43239805
2.081039 2.6165855 -1.2677467
12.395035 7.8930826 -0.10542769
2.3312864 2.7408836 -1.2954922
2.4962306 2.8251507 -1.2786489
2.8357754 2.9940677 -1.3123417
12.445395 7.9852839 0.89838582
3.1324711 3.1434391 -1.3151667
15.212059 9.4239597 1.5599985
3.6173327 3.3852463 -1.3543072
12.970987 8.3003473 1.6512969
5.1621752 4.1452999 -1.6349003
12.387697 8.0233669 1.9074531
6.1524935 4.6395483 -1.709378
12.424561 8.0654039 2.2597806
0.98289824 2.066896 -1.1405919
6.8496099 4.9684753 -1.6697035
1.1466522 2.1449599 -1.1993449
8.9534264 6.010355 -1.8388796
1.2175066 2.1808627 -1.1928113
10.852264 6.9588623 -1.8692603
1.2726417 2.2097206 -1.1739032
11.783396 7.4372301 -1.6848807
1.3246075 2.237289 -1.150532
11.930199 7.5307875 -1.3831222
1.5623366 2.3516974 -1.2195997
12.040297 7.6065903 -1.0720952
1.7668169 2.4514074 -1.2594266
12.090199 7.6529255 -0.75096101
1.8043189 2.4732676 -1.2130215
12.133352 7.6958971 -0.4296512
2.0522754 2.5946724 -1.2538757
2.3384185 2.7350872 -1.2963252
12.420589 7.8836155 0.23087704
2.4109101 2.7747254 -1.2459493
2.8713121 3.0001304 -1.3220963
3.0677817 3.1003916 -1.2933242
15.29064 9.4093428 1.5695074
3.6735451 3.3986843 -1.3676362
12.963177 8.249609 1.6499813
5.1522975 4.1215057 -1.6294849
12.382696 7.9760542 1.9059379
6.1615653 4.6214943 -1.7081766
12.424982 8.0206833 2.2587101
0.95203918 2.048439 -1.1185141
6.7691774 4.9047117 -1.6506124
1.1282071 2.1315196 -1.1860771
8.9947796 5.998312 -1.8420005
1.2132736 2.1736314 -1.1886876
10.883858 6.935523 -1.869498
1.328151 2.2297246 -1.2039113
11.807388 7.4069586 -1.6834767
1.3954647 2.2643056 -1.187043
11.920408 7.4834204 -1.3783875
1.485816 2.309741 -1.1791811
12.034227 7.560607 -1.0682683
1.768066 2.4447904 -1.2582455
12.084198 7.6067486 -0.74772984
1.8123263 2.4696741 -1.214874
12.120255 7.6459894 -0.42691383
2.0555866 2.5880332 -1.2534342
14.32653 8.7658911 -0.078026339
2.246537 2.6826026 -1.2587206
14.274729 8.7654724 0.30317101
2.6279063 2.8679614 -1.3221292
2.8757613 2.9912095 -1.3215034
3.1229897 3.1149957 -1.3080554
15.355053 9.3871689 1.5773828
3.6196015 3.3590415 -1.3504195
12.935719 8.1890993 1.6458726
5.1739855 4.1129932 -1.6319849
12.375769 7.9279156 1.9041171
6.1688194 4.6025581 -1.7065804
12.411215 7.9688463 2.2548718
0.96327233 2.04884 -1.1244981
6.7565088 4.8726091 -1.6446939
1.1224495 2.1236384 -1.180794
8.9959812 5.9646997 -1.8380518
1.2267255 2.1741366 -1.1950967
10.887798 6.8962774 -1.8654988
1.3257318 2.2226048 -1.2008309
11.832342 7.3744898 -1.6819284
1.4045333 2.2621901 -1.1902089
11.918673 7.437521 -1.3741753
1.5149014 2.3165131 -1.1921747
12.030853 7.5134373 -1.0644233
1.7661406 2.43627 -1.2554572
12.079102 7.5584908 -0.74436307
1.9416392 2.5218513 -1.2706301
12.122398 7.6011114 -0.42423958
2.0845299 2.5928214 -1.2635531
14.42695 8.7613926 -0.074180461
2.3357885 2.7149458 -1.2913308
14.385731 8.7665319 0.30947238
2.5650935 2.8276763 -1.2974408
15.536217 9.3644638 0.76573354
2.9099219 2.9956064 -1.3306291
12.473276 7.8623753 0.90325439
3.2274213 3.1517963 -1.3375494
15.456379 9.379775 1.5896068
3.6288991 3.3490126 -1.3506114
12.944616 8.144311 1.6469712
5.2014217 4.1059446 -1.6357334
12.359179 7.8723059 1.9006402
6.1977963 4.5926361 -1.7096341
12.403629 7.9175825 2.2522087
0.97597122 2.0501044 -1.1315327
6.815989 4.8766069 -1.6531157
1.1370894 2.1252582 -1.1885171
8.8910599 5.8823795 -1.8164058
1.2368609 2.1734018 -1.1996021
10.89959 6.8633032 -1.8629119
1.3150471 2.2121325 -1.1931829
11.845423 7.3388672 -1.6792595
1.4216418 2.2640505 -1.1977718
11.910343 7.3912163 -1.3696198
1.5934969 2.3460932 -1.2302034
12.015474 7.4632635 -1.0600257
1.7840372 2.4373188 -1.2621958
12.065578 7.5089836 -0.74086481
1.9363276 2.5116451 -1.2664666
12.108944 7.5514145 -0.42152017
2.0589602 2.5727425 -1.2511122
14.513638 8.7527885 -0.07062836
2.341152 2.708313 -1.2915001
14.459734 8.7519197 0.31426373
2.5294061 2.801125 -1.282696
15.613506 9.3475571 0.7722429
2.8015623 2.9337919 -1.2927477
12.46587 7.8141813 0.90337211
3.0961294 3.0779135 -1.2956276
15.554661 9.3737383 1.6014717
3.6430984 3.3421211 -1.3522983
12.97175 8.1116028 1.6507056
5.2425051 4.1064043 -1.6430476
12.355425 7.8261576 1.8994012
6.2315326 4.5862379 -1.7139361
12.394764 7.8686495 2.2493901
0.97629619 2.0455444 -1.1302371
6.8138514 4.849556 -1.6492825
1.1819626 2.1399148 -1.215194
9.0508194 5.9246511 -1.8393183
1.2214937 2.1608891 -1.1887531
10.82629 6.7873745 -1.8479271
1.3579597 2.2254512 -1.215795
11.86482 7.3036699 -1.6770778
1.4290911 2.2610815 -1.2000558
11.901089 7.3420115 -1.3647685
1.5664675 2.3268998 -1.2148173
12.015354 7.418005 -1.0564303
1.7335899 2.4067264 -1.2364533
12.061926 7.4617891 -0.73758519
1.9058625 2.4895217 -1.2510538
12.103565 7.503171 -0.41876268
2.023288 2.5477207 -1.2344227
14.599855 8.7402792 -0.066899873
2.3672965 2.7106714 -1.2995777
14.542219 8.7378693 0.31952491
2.5473502 2.7990477 -1.2870741
15.702936 9.332757 0.77965236
2.8686509 2.9535718 -1.3127692
12.455807 7.762084 0.9033066
3.309119 3.1647537 -1.3578682
15.649031 9.3617802 1.6129272
3.5609543 3.2892292 -1.327343
12.964392 8.0588398 1.6495161
5.2682166 4.0982113 -1.6463385
12.349056 7.7760963 1.8977027
6.2551985 4.5735111 -1.7157934
12.381519 7.8149462 2.2456698
0.97201931 2.0387006 -1.1258116
6.8371801 4.8330202 -1.6502264
1.1763294 2.131681 -1.2098882
9.0954685 5.9095707 -1.8424888
1.238297 2.162421 -1.1970522
10.889853 6.7744455 -1.8522453
1.3735136 2.225939 -1.2227809
11.868963 7.2585993 -1.6728725
1.4202703 2.2504275 -1.1935623
11.899878 7.2942057 -1.3604362
1.4449596 2.265094 -1.1519136
12.007095 7.3663416 -1.0521154
1.7668625 2.4138515 -1.2502651
12.057339 7.4116383 -0.73409879
1.9650124 2.507771 -1.2752748
12.093645 7.4502316 -0.4157986
2.1120434 2.5790954 -1.2691777
14.687391 8.7246933 -0.062970281
2.4040115 2.7171166 -1.3115828
14.642189 8.7286234 0.3256107
2.4756348 2.7551262 -1.2593243
15.802755 9.3190393 0.78785563
2.8822088 2.947552 -1.3149688
12.453791 7.7113619 0.9040277
3.3041399 3.148488 -1.3539424
15.739471 9.3438892 1.6239736
3.5985484 3.2917361 -1.3352308
12.933035 7.9915962 1.6449072
12.347122 7.7256556 1.8967435
6.2811813 4.5603504 -1.7179601
12.372675 7.7609034 2.2427797
0.96884501 2.0334768 -1.1224866
6.8491492 4.8172131 -1.6497631
1.1368147 2.1099398 -1.1836939
8.9561005 5.8161697 -1.8156977
1.2465643 2.1614254 -1.2006299
10.929935 6.7597466 -1.8542585
1.3852655 2.2260981 -1.2280066
11.850887 7.2135735 -1.6671481
1.4256105 2.2476189 -1.1950302
11.889006 7.2524271 -1.3561864
1.6097645 2.333359 -1.2332804
11.996326 7.324234 -1.0484943
1.7307649 2.3914609 -1.2317367
12.044823 7.3684874 -0.73105282
1.9880016 2.511312 -1.2838778
12.084787 7.4086637 -0.41348737
2.0995562 2.5662034 -1.2624421
14.768133 8.7182989 -0.059732132
2.372839 2.694849 -1.29792
14.73361 8.7276077 0.33089486
2.5931835 2.8003581 -1.2995818
15.890028 9.3126268 0.79487842
2.8946877 2.943706 -1.3173137
12.436552 7.664422 0.90317696
3.2049787 3.0921156 -1.3222013
15.822758 9.3359251 1.6340938
3.5520453 3.2585838 -1.3205934
12.907663 7.939085 1.6411965
12.331871 7.679801 1.893687
6.2960424 4.5475435 -1.7184632
12.369974 7.7210741 2.2413719
0.98020756 2.0334682 -1.1284447
6.9153128 4.8203554 -1.6590068
1.1072096 2.0915391 -1.163434
9.1116714 5.8528576 -1.8375084
1.2650194 2.1635027 -1.2098773
10.939596 6.7210979 -1.8509047
1.3813196 2.2178671 -1.223985
11.8475 7.1652622 -1.662123
1.4232997 2.2399404 -1.1920414
11.887451 7.2047729 -1.3518679
1.6243078 2.3324277 -1.2387078
11.993122 7.2753363 -1.0445454
1.7355278 2.3857467 -1.2320995
12.038069 7.3176737 -0.72751391
1.9745283 2.4964874 -1.275923
12.07811 7.3576708 -0.41058767
2.0758607 2.5463369 -1.2506707
14.86661 8.7069941 -0.055608205
2.3837695 2.6894774 -1.3000023
14.822931 8.712162 0.33662263
2.613162 2.7982466 -1.3045239
15.980972 9.2935896 0.80256033
2.9064939 2.9367654 -1.3189335
12.439556 7.6164799 0.90436947
3.3507097 3.1450191 -1.3636827
3.7696621 3.3432906 -1.3776894
12.904352 7.8861618 1.6406355
5.3129625 4.0591879 -1.6483564
12.326021 7.6278114 1.8921101
6.2845807 4.5169296 -1.7123849
12.364298 7.6689606 2.2391598
0.98204601 2.0295866 -1.1281881
6.9200988 4.796443 -1.6565511
1.0996721 2.0831711 -1.1571674
9.1554337 5.8389778 -1.8407633
1.2382438 2.1462305 -1.1923373
10.977005 6.6977282 -1.8517506
1.3820885 2.2120929 -1.2227342
11.832109 7.1141243 -1.6559982
1.3944402 2.2210691 -1.1750844
11.881105 7.1576376 -1.3473735
1.6603525 2.3412566 -1.2549763
11.988714 7.2286663 -1.0407462
1.7367433 2.3788905 -1.2309055
12.042774 7.2750616 -0.72460866
1.9370457 2.4716401 -1.2575421
12.075636 7.311492 -0.40790755
2.0638392 2.5323687 -1.2438643
14.945816 8.6892624 -0.051865574
2.4616961 2.714541 -1.3278677
14.896601 8.6920376 0.34163994
2.5686755 2.7677376 -1.2866962
16.074219 9.2786417 0.8103165
2.9687011 2.9531474 -1.3371727
12.432346 7.566515 0.90459424
3.3453231 3.129354 -1.3597982
3.6357768 3.2677884 -1.3387961
5.3581686 4.0594811 -1.6564312
12.322485 7.5798521 1.8909807
6.2992039 4.4998016 -1.7122662
12.350286 7.6157246 2.2354012
1.0057982 2.0352902 -1.1424699
6.9511056 4.786047 -1.6593633
1.1429979 2.0968914 -1.1828313
9.1444836 5.8018599 -1.8351212
1.2419121 2.1425533 -1.1930056
10.991814 6.6662245 -1.8496699
1.3875954 2.2087312 -1.2242515
11.844427 7.0785627 -1.6533442
1.4198064 2.2262785 -1.1870043
11.871782 7.1118736 -1.3428657
1.6146046 2.3146551 -1.2304752
11.981323 7.1833782 -1.0369802
1.8034194 2.4011145 -1.2605407
12.03364 7.2287178 -0.72136956
1.9654952 2.4765196 -1.2683263
12.070177 7.2666969 -0.40535456
2.080678 2.5317454 -1.2490528
15.034666 8.6788979 -0.048130333
2.4135716 2.6838171 -1.3075521
14.988922 8.6835756 0.34728262
2.5011961 2.7279406 -1.2609138
16.164354 9.2652321 0.81779492
12.420305 7.5171661 0.90433693
3.3219726 3.1064785 -1.3506899
12.461109 7.5586252 1.2428064
3.6462803 3.259129 -1.3395116
5.3762851 4.0484657 -1.6580055
12.310612 7.530756 1.8884916
6.295382 4.4756641 -1.7083068
12.345684 7.5699663 2.2335722
1.0234041 2.0379739 -1.1525795
6.984499 4.7750425 -1.6624286
1.1530153 2.0959108 -1.1875277
9.1719742 5.7803516 -1.8356659
1.244084 2.1378989 -1.1926985
11.048981 6.6516161 -1.8532889
1.3981426 2.2071435 -1.2284932
11.835926 7.030921 -1.6480646
1.4222249 2.2210963 -1.1866629
11.868723 7.0665722 -1.3387089
1.6056038 2.3038487 -1.2242725
11.976587 7.1368599 -1.0331941
1.8063658 2.394799 -1.260124
12.027161 7.1811533 -0.71806419
1.9312447 2.4534132 -1.251456
12.065573 7.2198114 -0.40266544
2.1234567 2.5418751 -1.2647567
12.318445 7.3584871 -0.082155406
2.4121766 2.6734149 -1.3050375
15.086191 8.6736526 0.35327381
2.534703 2.7326219 -1.270824
16.255899 9.2484798 0.82549161
2.9705751 2.9310718 -1.3336358
12.418144 7.469944 0.90503561
3.4151528 3.1348937 -1.3763096
3.7386162 3.2861624 -1.3623283
12.50182 7.5535545 1.5829508
5.3895063 4.0339746 -1.6582003
12.308521 7.4838095 1.8876498
6.2812824 4.4455853 -1.7019291
12.341955 7.5220575 2.2318821
1.0173699 2.0306678 -1.1471312
7.0520444 4.7791929 -1.6720355
1.1742326 2.0995796 -1.1991973
9.1254921 5.7254343 -1.8239415
1.2462415 2.1332383 -1.1923912
11.053732 6.6130257 -1.8495488
1.3988737 2.2013335 -1.2272406
11.830866 6.9850321 -1.6432073
1.4825523 2.2406082 -1.2168922
11.860058 7.0188675 -1.3340762
1.529675 2.2644541 -1.1848097
11.971682 7.0904245 -1.0294161
1.7755343 2.3739455 -1.243922
12.015053 7.1311808 -0.71456373
1.9258276 2.4430377 -1.2472837
12.053528 7.1696644 -0.39989772
2.1749084 2.5554924 -1.2839606
2.441896 2.6766198 -1.314393
12.298723 7.3252792 0.24544966
2.5944133 2.7485695 -1.2899492
16.360153 9.2371511 0.83404118
2.9715903 2.9197571 -1.3318503
12.410395 7.4202633 0.90523577
3.3055537 3.0731502 -1.3413677
16.276255 9.2548628 1.6897829
3.646585 3.2308457 -1.3350704
5.413393 4.0241938 -1.6610091
12.304472 7.4360876 1.8864985
6.3064585 4.4332209 -1.7041554
12.33806 7.4742308 2.2301869
1.0143558 2.0249462 -1.1437745
7.0506959 4.7538176 -1.6686134
1.1665545 2.0913851 -1.1929433
9.1448193 5.7023153 -1.8234007
1.2644635 2.1356337 -1.2016604
10.999523 6.5504456 -1.8378503
1.4092824 2.1999667 -1.2314978
11.806538 6.9331636 -1.6364312
1.5113869 2.246774 -1.230531
11.853876 6.9750185 -1.3299129
1.4065009 2.2058961 -1.122123
11.960173 7.0437326 -1.0254438
1.8002017 2.3774617 -1.2537918
12.016329 7.0901003 -0.7117545
1.9560034 2.4484575 -1.2588029
12.053045 7.1276102 -0.39742988
2.1179273 2.5225792 -1.2589083
12.252104 7.2397223 -0.078737006
2.4194503 2.6576471 -1.3039978
2.5300848 2.7108347 -1.2654343
3.0144682 2.9274263 -1.343796
12.401447 7.3728991 0.90528101
3.3614624 3.0854781 -1.3559542
16.37874 9.246192 1.702332
3.6285784 3.2095983 -1.3280897
14.868475 8.5692148 1.9213047
5.4332414 4.0137167 -1.6630049
12.299246 7.3906422 1.8851957
6.3884706 4.4473372 -1.7189434
12.322287 7.4236546 2.2262442
1.0114248 2.0190129 -1.1404035
6.9867649 4.6993389 -1.6530654
1.1685748 2.0869544 -1.1926515
9.2190742 5.7015219 -1.8316998
1.2779737 2.135632 -1.2080386
11.009378 6.5144844 -1.8348849
1.4099888 2.1941335 -1.2302446
11.815664 6.8939753 -1.6332409
1.5155309 2.2420199 -1.2310445
1.5714506 2.269304 -1.2023866
11.951292 6.9958363 -1.0214536
1.8166167 2.3768904 -1.2596855
12.002056 7.039505 -0.70820385
1.9625044 2.4431436 -1.2598486
12.040649 7.0776672 -0.39467973
2.1556718 2.5300505 -1.2724774
2.3901901 2.6353571 -1.2909462
12.270243 7.2242241 0.24778873
2.6370656 2.7468197 -1.3011312
12.311794 7.2645025 0.57308811
2.9556503 2.8901107 -1.3226161
12.371618 7.3134155 0.90348703
3.3505173 3.0676272 -1.3505039
16.479008 9.2324095 1.7146838
3.6303635 3.1963246 -1.3263569
4.175169 3.4419858 -1.353636
12.282316 7.3372355 1.8819084
6.4172873 4.4361439 -1.7219255
12.316259 7.3751745 2.2241836
1.0368791 2.024965 -1.1556962
7.1728277 4.7564659 -1.6854184
1.1720693 2.0834365 -1.193373
9.1967201 5.6597881 -1.8242877
1.276752 2.1298125 -1.2058332
11.020046 6.481288 -1.8323026
1.4121823 2.1892867 -1.2299254
11.718225 6.8101282 -1.6182554
1.492937 2.2265034 -1.217618
11.332037 6.6584711 -1.2767668
1.5973462 2.2738352 -1.2136672
11.944916 6.951807 -1.0178394
1.8006828 2.3630774 -1.2506213
11.992092 6.9936457 -0.70500576
1.9961731 2.4497507 -1.2728412
12.030745 7.0316429 -0.39212245
2.1467369 2.5180075 -1.2671077
12.241306 7.1474495 -0.074587025
2.4144692 2.6366589 -1.2983487
2.6635554 2.7482846 -1.3085716
12.30961 7.2209005 0.57422322
2.9368935 2.8711207 -1.314605
12.34236 7.2572012 0.90169537
3.3675606 3.0627239 -1.353507
16.541862 9.2044725 1.7226415
3.6870222 3.2076676 -1.3395557
14.791235 8.4275675 1.9103351
4.1701069 3.4247603 -1.3502002
12.27676 7.2919855 1.8805885
6.4311848 4.4197073 -1.721858
12.31263 7.3306503 2.2226675
1.0481073 2.0250053 -1.161659
7.1496964 4.7214155 -1.6778617
1.1900175 2.0857868 -1.203052
9.2612038 5.6561956 -1.8311772
1.2722567 2.1226752 -1.2017195
10.992458 6.4313383 -1.8244309
1.4094265 2.1824038 -1.2268643
11.356382 6.610672 -1.5735176
1.4419875 2.1994379 -1.1893718
11.319288 6.6138659 -1.2722399
1.6048002 2.2705553 -1.2158048
11.938389 6.9078512 -1.0142317
1.8169231 2.3627996 -1.2565346
11.991102 6.9519405 -0.70214772
1.9768274 2.4339476 -1.2627323
12.029812 6.9897928 -0.38967326
2.1550145 2.5132849 -1.2687595
12.244301 7.1066122 -0.07246317
2.473573 2.6525397 -1.3189056
12.256439 7.1332655 0.25059789
2.6129851 2.7168875 -1.2889941
12.307281 7.1773529 0.57535332
2.8792567 2.8357041 -1.2940712
12.334677 7.2110643 0.90187365
3.4484785 3.0850744 -1.3754056
16.532276 9.1432896 1.7221398
3.6991863 3.1995385 -1.340739
14.855331 8.4058638 1.919564
12.269249 7.2459803 1.8789587
6.4504433 4.4055529 -1.7229569
12.296343 7.2804232 2.2186966
1.0769252 2.031754 -1.1789908
7.2427859 4.7351847 -1.6921916
1.1968504 2.0832338 -1.2057416
9.1813011 5.5877161 -1.814146
1.2857718 2.1225538 -1.2080905
11.014677 6.4009829 -1.823236
1.4001887 2.1725545 -1.2201307
1.442661 2.1935079 -1.1881549
11.320063 6.5729485 -1.2687018
1.6426904 2.2793698 -1.2328594
11.929008 6.8602352 -1.0102658
1.8180571 2.3557425 -1.2553296
11.987268 6.9065275 -0.69902194
1.9644426 2.4207096 -1.2555828
12.022381 6.9425983 -0.38700905
2.1358223 2.4965522 -1.2591588
12.217079 7.0497942 -0.070651151
2.4615948 2.63767 -1.3124404
12.251194 7.0861292 0.25217208
2.5449362 2.6778941 -1.2632682
12.293037 7.125947 0.57578516
2.8976178 2.8321753 -1.2980015
12.329636 7.1636295 0.90235513
3.3379912 3.0248694 -1.3405671
16.523796 9.0792751 1.7218218
3.6848564 3.1792338 -1.3346815
14.835714 8.3427114 1.916846
12.257164 7.1954107 1.8765531
6.4413633 4.3777418 -1.7177486
12.293381 7.2338562 2.2173114
1.1059113 2.0380893 -1.196296
7.2532754 4.7114525 -1.6906347
1.2005771 2.0790923 -1.2064223
9.1090641 5.521225 -1.7982309
1.3026886 2.1233869 -1.216347
11.01582 6.3591366 -1.8188934
1.3943369 2.1638002 -1.2152078
11.793364 6.7147961 -1.6142876
1.4851483 2.2041976 -1.2087088
11.343533 6.5395803 -1.2669377
1.625203 2.2649393 -1.2224977
11.925882 6.8129835 -1.006506
1.7529838 2.3211231 -1.2233956
11.978724 6.8566389 -0.69556469
1.9058247 2.3880744 -1.2283201
12.015726 6.8933449 -0.38421199
2.1392391 2.4888234 -1.258652
12.239992 7.0127954 -0.067983791
2.4724388 2.6318195 -1.3144963
12.233948 7.0312119 0.25336742
2.6262228 2.7011361 -1.2896554
12.294159 7.0789614 0.57730991
2.8879435 2.8161292 -1.2927868
12.327215 7.1148796 0.90314001
3.3911047 3.0335851 -1.3539691
16.525455 9.0165033 1.7227488
3.6886296 3.1658916 -1.3333762
14.824251 8.2803469 1.9153223
5.5340791 3.955919 -1.6726427
12.251265 7.1452017 1.8751948
6.438107 4.3511438 -1.7136354
12.289438 7.1843367 2.2157135
1.1108496 2.0353446 -1.198103
7.2153773 4.6703119 -1.6803467
1.2040591 2.0754678 -1.2071371
9.1697197 5.5158672 -1.804517
1.2883542 2.1123304 -1.2065084
11.027857 6.3267441 -1.8165705
1.3865324 2.1550264 -1.2094145
11.616234 6.5985661 -1.5906105
1.4656565 2.1903994 -1.1970503
11.335831 6.4975605 -1.2629051
1.5736058 2.2376487 -1.1956
11.924376 6.7716599 -1.0032566
1.6431123 2.2696178 -1.1710737
11.969955 6.8119383 -0.69246322
1.9171493 2.3853536 -1.2316315
12.01067 6.8500891 -0.38174301
2.2029121 2.5068319 -1.2827239
12.205921 6.9560413 -0.066419795
2.4356925 2.6074567 -1.298871
12.238361 6.9912882 0.25522465
2.6773279 2.7125618 -1.3056622
12.280405 7.0307903 0.57769871
2.9131217 2.8159962 -1.2990215
12.319036 7.0690022 0.90329564
3.3992133 3.0247049 -1.3543377
16.522488 8.9588737 1.7230699
3.8439667 3.2177675 -1.3728614
14.819296 8.2274466 1.9147344
5.5610294 3.9479234 -1.6763425
12.248667 7.1019096 1.8744552
6.4716716 4.342988 -1.7178369
12.283382 7.1393147 2.2138195
1.0998433 2.0263431 -1.1895652
7.3462009 4.7005339 -1.70189
1.2091491 2.0724633 -1.2088454
9.1429806 5.4732227 -1.7965598
1.2559839 2.0942497 -1.1861849
11.010576 6.2819128 -1.8102393
1.3902676 2.1509006 -1.2100139
11.61059 6.5566845 -1.586184
1.4812101 2.1907372 -1.2036908
11.333492 6.4579687 -1.2593529
1.6738827 2.2716625 -1.2433383
11.913561 6.7264414 -0.99945396
1.7103089 2.290251 -1.2006073
11.968369 6.7704868 -0.6896292
2.0007496 2.4118619 -1.2661684
11.999971 6.804513 -0.37922418
2.0168555 2.4227881 -1.2059231
12.224823 6.9226236 -0.06407088
2.5002458 2.6247747 -1.3213537
12.226162 6.94419 0.25641042
2.6299016 2.6832058 -1.2873502
12.286598 6.99154 0.57940459
2.9064183 2.8025718 -1.2950196
12.308878 7.0224085 0.90327698
3.4661489 3.0401695 -1.3719852
16.499336 8.8924818 1.7210379
3.9422638 3.2449229 -1.3969796
14.828676 8.1810455 1.9162147
5.586185 3.9390419 -1.6796012
12.244122 7.0578632 1.8734052
6.5016274 4.333149 -1.7212515
12.271786 7.0919504 2.2108655
1.0936897 2.0190167 -1.1841178
7.2250876 4.6231308 -1.6757965
1.2046481 2.065387 -1.2045717
9.1988621 5.463542 -1.8018284
1.2612855 2.090837 -1.187784
11.01593 6.2444887 -1.8067915
1.4139929 2.1542871 -1.2215424
11.739481 6.5693512 -1.5964997
1.4734805 2.1813974 -1.1981158
11.293352 6.4000463 -1.2523642
1.6189407 2.2428505 -1.2147734
11.907185 6.6807642 -0.99574286
1.6992568 2.278748 -1.1939209
11.963892 6.725379 -0.68653107
2.0054517 2.4056554 -1.2664602
12.00473 6.7632093 -0.37672025
2.1640534 2.4740369 -1.2635698
12.204174 6.869544 -0.062192462
2.500361 2.6149788 -1.3194923
12.234913 6.9037447 0.25855121
2.6195767 2.668699 -1.2818792
12.26066 6.9357853 0.57907492
2.8626313 2.7733874 -1.2790592
12.301342 6.9745121 0.90356159
3.4924257 3.037734 -1.3775291
16.500887 8.8337135 1.7219605
14.844494 8.1343946 1.9186449
5.6009583 3.9245253 -1.6801875
12.234951 7.0093002 1.8715749
6.4795589 4.3001232 -1.7133386
12.266365 7.0448942 2.2091002
1.0969869 2.0156631 -1.1848917
7.1030259 4.5477629 -1.6498382
1.2080991 2.0617366 -1.2052855
9.5024357 5.558567 -1.8473988
1.2697401 2.0889499 -1.1913066
10.992847 6.1975756 -1.7997279
1.4077846 2.1461892 -1.2166638
11.34473 6.3641014 -1.5489459
1.487366 2.1809785 -1.2038796
11.279671 6.3560266 -1.2478855
1.5958683 2.2273955 -1.2019913
11.896057 6.6357412 -0.991956
1.8162172 2.3185165 -1.2462161
11.958345 6.6824789 -0.68357915
1.9944396 2.3936481 -1.2600911
11.990044 6.7162333 -0.37417981
2.2296493 2.4921575 -1.2883048
12.018747 6.7488251 -0.062990576
2.4897158 2.6014533 -1.3137276
12.163633 6.8315802 0.25732222
2.6742966 2.6811626 -1.2990854
12.270227 6.8982258 0.58101273
2.9179771 2.7854002 -1.2949371
12.294521 6.9296961 0.90386134
3.4522974 3.0088718 -1.3637576
16.506451 8.7803068 1.7233279
3.8935153 3.1960826 -1.3796046
14.815418 8.0713329 1.9146616
5.6315136 3.9176559 -1.684732
12.230097 6.9654074 1.8705113
6.3734145 4.2339983 -1.6876962
12.26165 7.000906 2.2075362
1.0795814 2.0041232 -1.1722138
7.247263 4.5811872 -1.6736386
1.1954442 2.0515933 -1.1960483
9.1948071 5.3974314 -1.7938166
1.2881622 2.0905335 -1.200525
10.994263 6.1587324 -1.7957914
1.404991 2.1391156 -1.2135921
11.317171 6.3119459 -1.5420167
1.5064338 2.1821301 -1.2122283
11.27957 6.3154783 -1.2443824
1.5287812 2.1944971 -1.1676667
11.893038 6.5917797 -0.98848116
1.7966661 2.3034134 -1.2355862
11.942509 6.6328602 -0.68010998
2.0094533 2.3915434 -1.2648394
11.97978 6.6687889 -0.37154418
2.2885985 2.5066993 -1.3101895
12.015909 6.7043705 -0.060882539
2.5090578 2.5994051 -1.3190842
12.037804 6.7342014 0.25394353
2.7505517 2.701298 -1.3235757
12.102568 6.7823362 0.57129401
2.8846984 2.760751 -1.2823966
12.282984 6.8804016 0.90379477
3.4302053 2.986825 -1.3551862
16.503965 8.7200499 1.7238107
3.88623 3.1784656 -1.3754454
14.814524 8.0176497 1.9147403
5.6516676 3.9051728 -1.6866052
12.213337 6.9138803 1.8674402
6.4072714 4.2245626 -1.6918173
12.25411 6.9532118 2.2054057
1.0412875 1.9848285 -1.1461117
7.1983085 4.5349665 -1.6612713
1.2103308 2.0520086 -1.2036977
1.3098961 2.093271 -1.211642
10.995539 6.119935 -1.7918594
1.4237747 2.1403599 -1.2223718
11.681189 6.4216032 -1.5782714
1.5204862 2.1812327 -1.2179615
11.334587 6.2978706 -1.2455802
1.6244611 2.2251999 -1.2128348
11.888016 6.5471306 -0.98490304
1.8490179 2.316489 -1.257952
11.932011 6.585701 -0.67684364
2.0469563 2.3981631 -1.2792318
11.974874 6.6237831 -0.36897022
2.1924708 2.4598415 -1.2698383
12.016598 6.661541 -0.058723226
2.4827251 2.5791948 -1.3073928
12.031176 6.6881666 0.2554318
2.7313852 2.6830444 -1.3150353
12.070337 6.7251663 0.57053256
2.9225574 2.7647367 -1.2925458
12.141069 6.7758169 0.89177406
3.5710971 3.0302615 -1.3941545
16.497612 8.6583309 1.7238553
3.9041007 3.171061 -1.3779705
14.85536 7.9820242 1.9208078
5.6772308 3.894793 -1.689769
12.209087 6.8679829 1.866504
6.5193129 4.2466831 -1.712553
12.244587 6.9048386 2.202913
1.0845877 1.9966168 -1.1727173
7.1486077 4.4903574 -1.6490109
1.2088754 2.0464931 -1.2014322
9.2856121 5.3701963 -1.8011436
1.3134511 2.089325 -1.2122962
10.988518 6.0801315 -1.7870641
1.435801 2.1392739 -1.22752
11.717279 6.3971653 -1.5785143
1.5428281 2.1838002 -1.2280581
11.626678 6.3797541 -1.2670405
1.6165417 2.2158308 -1.2075145
11.881956 6.5046692 -0.98146963
1.8241034 2.2998071 -1.2449944
11.927845 6.5438309 -0.67397767
1.9666231 2.3592637 -1.2431867
11.967073 6.5802155 -0.36652511
2.1849341 2.4487257 -1.2651875
11.999638 6.6139641 -0.056972675
2.5018351 2.5775652 -1.312778
12.023493 6.6443605 0.2567727
2.6020544 2.6221693 -1.2686656
12.064587 6.6819906 0.57144839
2.9905534 2.7810745 -1.312351
12.098734 6.7169123 0.88882452
3.4877243 2.9844558 -1.3678687
3.901819 3.1563826 -1.3752928
14.823862 7.9185686 1.9165318
4.1271381 3.2539406 -1.3178904
12.201952 6.8235598 1.8651116
6.5964651 4.2554474 -1.7259874
12.243023 6.8626356 2.2020345
1.0943539 1.9954075 -1.1776071
7.2785263 4.5166121 -1.6700099
1.2058835 2.0401165 -1.1981578
9.3469658 5.3616743 -1.8072331
1.3105274 2.0826066 -1.2091236
10.982168 6.0384455 -1.7821474
1.429638 2.1309047 -1.222625
11.545855 6.2859278 -1.5557888
1.5468111 2.1788955 -1.2285657
11.597044 6.3262777 -1.2609916
1.6750807 2.2314727 -1.2344348
11.876633 6.4601612 -0.97790498
1.825029 2.2927725 -1.2437937
11.92812 6.5014124 -0.67110509
2.0353103 2.3778243 -1.2709248
11.963705 6.5361204 -0.36398125
2.3086245 2.4879344 -1.3128908
12.001871 6.5720263 -0.054795794
2.4947405 2.5650759 -1.3083024
12.016552 6.5984898 0.25824642
2.5914609 2.6079481 -1.2632153
12.061419 6.6375017 0.57262075
2.96963 2.761441 -1.3037832
12.088308 6.6692142 0.88886678
3.5355239 2.9901402 -1.3796508
12.126257 6.705925 1.2117741
3.8492143 3.1209846 -1.3592308
12.168232 6.7444344 1.5367978
5.7115664 3.868201 -1.6922619
12.193752 6.7762661 1.8635471
6.5903797 4.2291327 -1.7215631
12.238611 6.8167524 2.2005866
1.0816175 1.9858707 -1.1680417
7.401351 4.5392084 -1.6896029
1.2044957 2.0343642 -1.195878
9.5737209 5.4188013 -1.839756
1.3174709 2.0795887 -1.2116616
10.971989 5.9953566 -1.7767413
1.4284439 2.1244481 -1.2204645
11.615696 6.2730331 -1.5595458
1.5238011 2.1638315 -1.2151721
11.604179 6.2879486 -1.2580671
1.6536713 2.2165256 -1.2224724
11.873001 6.4164724 -0.9744556
1.8138933 2.2811677 -1.237103
11.926399 6.4582767 -0.66817385
2.0329826 2.368835 -1.268245
11.960186 6.4920845 -0.36144307
2.2785852 2.4673748 -1.2991192
11.985468 6.522522 -0.052923422
2.4505644 2.5383699 -1.2900879
12.011297 6.5534582 0.25978968
2.6607382 2.6247337 -1.2852278
12.054413 6.5915442 0.5735414
3.0308585 2.7739141 -1.3212547
12.088757 6.6262045 0.889916
3.5384297 2.977994 -1.3783841
12.126795 6.6627808 1.2124598
3.8561091 3.1093206 -1.358901
12.159733 6.6973209 1.5358157
5.7280006 3.8539021 -1.6932521
12.189024 6.7305899 1.8625903
6.5805531 4.2014313 -1.716373
12.22678 6.767869 2.1977181
1.0864413 1.98311 -1.1698499
7.4431396 4.5306807 -1.6943092
1.189932 2.024112 -1.1856821
9.432291 5.3307905 -1.8135924
1.3143905 2.073173 -1.208509
10.96454 5.9558048 -1.7719672
1.413743 2.1133599 -1.2110426
11.734613 6.2817755 -1.5688519
1.5208424 2.15678 -1.2122307
11.749165 6.3073311 -1.2669158
1.6354598 2.2033322 -1.2121944
11.868351 6.3749819 -0.97115135
1.7784475 2.260932 -1.2194641
11.914398 6.4135962 -0.66507643
2.0026555 2.349762 -1.2537382
11.948229 6.4472542 -0.3589873
2.2535174 2.4494507 -1.287482
11.988377 6.4836063 -0.050867498
2.4572532 2.5319736 -1.2908916
12.006853 6.5114212 0.26126266
2.6463542 2.609575 -1.2785871
12.046366 6.5478382 0.57431364
2.9630799 2.7369452 -1.298023
12.077118 6.5808535 0.8898015
3.4203823 2.9197946 -1.342257
12.118956 6.6188192 1.2121348
3.8916433 3.1096313 -1.3662295
12.157503 6.65553 1.5357318
12.185076 6.6879435 1.8617914
6.5975361 4.18577 -1.7170467
12.213882 6.7213039 2.1946969
1.128425 1.9934623 -1.1953692
7.5001769 4.5263224 -1.7016265
1.1868539 2.0178328 -1.1824148
9.3334732 5.258544 -1.7941194
1.2981795 2.061666 -1.1977324
10.961451 5.9158192 -1.7675662
1.4108152 2.1063561 -1.2079778
11.72686 6.2372646 -1.564117
1.5754546 2.1706491 -1.2387869
11.752516 6.2671289 -1.2636595
1.668548 2.2089231 -1.2266877
11.857004 6.3284712 -0.96728069
1.8447567 2.2784894 -1.2480576
11.904955 6.3676348 -0.66191065
2.0176251 2.347424 -1.2584739
11.944403 6.4033766 -0.35646319
2.2039874 2.4219739 -1.2660627
11.986467 6.44032 -0.048767403
2.4057927 2.5029747 -1.2700877
11.995733 6.4642916 0.26255992
2.8012505 2.6583345 -1.3298218
12.044586 6.5043173 0.57559019
3.0154088 2.7456877 -1.31265
12.073576 6.5364609 0.89049923
3.5132072 2.942605 -1.3670456
12.117361 6.5750332 1.2125928
3.8531954 3.0803585 -1.354007
12.152349 6.6101007 1.5352592
12.172737 6.6393957 1.8595877
6.6405811 4.1787891 -1.7230272
12.208981 6.6756811 2.1932263
1.1075684 1.9810653 -1.1806493
7.548069 4.5180979 -1.7072325
1.2049996 2.0192235 -1.1920345
9.1402683 5.1503391 -1.7597499
1.3183131 2.0634325 -1.2078757
10.948967 5.872283 -1.7619359
1.4128813 2.1012025 -1.2076426
11.722651 6.194293 -1.5597908
1.5827918 2.1668673 -1.2410235
11.746464 6.2232952 -1.2596343
1.6435671 2.192945 -1.2130897
11.851055 6.2842751 -0.96374345
1.8266263 2.264394 -1.2382379
11.897202 6.3225079 -0.65881509
2.0465341 2.3501821 -1.2691262
11.938564 6.3588257 -0.35393021
2.2087514 2.4151285 -1.2662725
11.973272 6.3926277 -0.046859622
2.4143481 2.4968691 -1.2715216
11.995567 6.4217434 0.2643151
2.6891043 2.6053841 -1.2896237
12.037107 6.4586067 0.57648897
3.0732031 2.7561722 -1.3289528
12.075418 6.494379 0.8917011
3.4545979 2.907191 -1.3480966
12.104567 6.5268049 1.2117453
3.8472714 3.0638125 -1.3503518
12.137857 6.5609941 1.5334663
4.3616691 3.2683773 -1.3626466
12.167538 6.5939636 1.8586094
6.6323671 4.1518078 -1.7182252
12.207556 6.6316299 2.1924586
1.1156219 1.9793499 -1.1845138
7.5402365 4.4897871 -1.7027624
1.1968826 2.0114446 -1.1858118
1.3350466 2.064188 -1.2161305
10.942961 5.8336849 -1.7574289
1.4282173 2.1011817 -1.214602
11.721174 6.1549234 -1.5560074
1.5696647 2.1560073 -1.2328699
11.737562 6.180912 -1.2555988
1.6834055 2.2011757 -1.2308943
11.84412 6.2422714 -0.96034992
1.8981301 2.2837205 -1.2691731
11.899612 6.283989 -0.65623176
2.0090675 2.3287854 -1.251677
11.935444 6.3179541 -0.35157228
2.1377242 2.3807149 -1.2365499
11.970209 6.3516254 -0.044911601
2.3908145 2.4793336 -1.2612281
11.988844 6.3791647 0.26569164
2.6746049 2.5902989 -1.282989
12.030468 6.4158792 0.57736492
3.0374587 2.7318487 -1.3159163
12.063328 6.4492865 0.89156473
3.3883221 2.8700581 -1.3271341
12.094433 6.4823503 1.2111814
3.8718843 3.0597458 -1.3548181
12.133358 6.5186596 1.5331013
4.3741708 3.2580817 -1.3635161
12.15399 6.5478067 1.856246
6.6034126 4.1183939 -1.7092814
12.196009 6.5860958 2.1897686
1.1510653 1.9875124 -1.2059159
7.5778165 4.4804678 -1.7068367
1.1869895 2.0033998 -1.1786191
9.5781403 5.2590132 -1.8224754
1.3152065 2.0521708 -1.2034976
10.937901 5.7978306 -1.7533014
1.4166105 2.0917881 -1.2070315
11.715029 6.1162691 -1.5519648
1.5682303 2.1498263 -1.2308133
11.733274 6.1428843 -1.2521682
1.6923321 2.198396 -1.2338541
11.843647 6.2053699 -0.95753205
1.843348 2.2571487 -1.2429612
11.89175 6.2439938 -0.65348661
1.9678454 2.3067305 -1.2327878
11.923903 6.2763596 -0.3493005
2.1913044 2.3930135 -1.2563291
11.955 6.3084288 -0.043299131
2.4397292 2.4892459 -1.2777407
11.977407 6.337348 0.26676488
2.6098208 2.5572774 -1.2593553
12.024691 6.3761272 0.5782184
3.1703839 2.7712882 -1.3559718
12.055779 6.4086838 0.89179164
3.518765 2.9077384 -1.3628786
12.08882 6.44238 1.2111206
3.8616657 3.0433002 -1.3503106
12.126019 6.4778337 1.5323243
4.3643999 3.240273 -1.3592844
12.152254 6.5091314 1.8558972
6.6289034 4.1072531 -1.711946
12.177973 6.5406399 2.1858616
1.1399306 1.9783624 -1.197371
7.4989834 4.422266 -1.6890235
1.1822903 1.9963459 -1.1743495
9.5865879 5.226553 -1.8198779
1.2873416 2.0364866 -1.1860685
10.93317 5.7554407 -1.7485514
1.4237897 2.0880973 -1.2094026
11.70936 6.0706739 -1.5473206
1.5790472 2.1469002 -1.234762
11.727598 6.0971718 -1.2480273
1.6759441 2.1852994 -1.2243693
11.832502 6.1571016 -0.95355421
1.7854017 2.2285128 -1.2151325
11.888119 6.1984034 -0.65039331
1.9461986 2.2906725 -1.2219706
11.927774 6.2335215 -0.34671986
2.1644421 2.3742144 -1.2439826
11.953337 6.2632828 -0.041085914
2.2566786 2.4124136 -1.2086678
11.973934 6.2913647 0.26848486
2.6867552 2.5749929 -1.2836931
12.012026 6.3263083 0.5788607
3.0414603 2.7111566 -1.3135331
12.04878 6.3609324 0.89226192
3.3297114 2.8238347 -1.3065341
12.087479 6.396698 1.2116945
3.8777311 3.0342281 -1.3523028
12.119257 6.4298096 1.5317013
4.4049172 3.2385602 -1.3664794
12.147455 6.4617443 1.8550398
6.701745 4.1096134 -1.7239561
12.186083 6.4982967 2.1869943
1.1335135 1.9712175 -1.1919379
7.5596676 4.4184341 -1.6969659
1.2201469 2.0043974 -1.1958375
9.2756786 5.0761127 -1.7672546
1.3324106 2.0467758 -1.210443
10.931236 5.7164917 -1.7444263
1.4157147 2.0793655 -1.2036159
11.693403 6.0237379 -1.5418241
1.6016344 2.1484478 -1.2447953
11.72467 6.055068 -1.2443359
1.6593561 2.1726582 -1.2149138
11.825956 6.1132126 -0.95004451
1.8814504 2.2556438 -1.256964
11.88163 6.1542969 -0.64738536
1.9453123 2.2826788 -1.2200558
11.908276 6.1842203 -0.344116
2.2555051 2.3986144 -1.2782919
11.952543 6.2210608 -0.038985126
2.2312038 2.3944535 -1.197737
11.969463 6.2476044 0.27005878
2.647244 2.5504229 -1.2685268
12.013218 6.2845831 0.58035648
3.0002742 2.684701 -1.2987983
12.046337 6.3176155 0.89309871
3.5532882 2.8935943 -1.3686223
12.075886 6.3496084 1.211031
3.9135475 3.0332088 -1.3595486
12.115166 6.3855171 1.5314574
12.137962 6.415163 1.8534133
6.7355642 4.0983973 -1.727973
12.178577 6.4523182 2.185133
1.149781 1.971871 -1.2009265
7.5501518 4.3882313 -1.6920848
1.2350594 2.0043263 -1.2034576
9.4312382 5.1015339 -1.7881241
1.3159978 2.0355301 -1.1996841
10.923594 5.6755037 -1.7395706
1.3958195 2.0665922 -1.1914761
11.690317 5.9818325 -1.5377297
1.585112 2.136188 -1.2348964
11.717871 6.0116138 -1.2403443
1.6633383 2.1673734 -1.2153571
11.822989 6.0708189 -0.94675469
1.8544574 2.2386718 -1.2432492
11.871248 6.1088533 -0.6442644
2.019707 2.3014491 -1.2499051
11.901669 6.14007 -0.34161848
2.161314 2.3562834 -1.2395484
11.940403 6.174593 -0.037086561
2.4120903 2.4507253 -1.2624259
11.955519 6.2003222 0.27122855
2.5950606 2.5215726 -1.2491238
12.003096 6.2385693 0.58109319
3.1231449 2.7179866 -1.3353307
12.038174 6.2721958 0.89341378
3.6176012 2.9039028 -1.3849916
12.071524 6.3055182 1.2112319
3.9548724 3.0339959 -1.3682029
12.103539 6.338398 1.5301487
4.3368917 3.1815376 -1.3462493
12.128304 6.3686819 1.8517785
6.7454386 4.0781698 -1.7270021
12.165419 6.4042568 2.1821959
1.1400787 1.9636452 -1.1934361
7.5682869 4.3683033 -1.6922596
1.2466975 2.003052 -1.2090933
9.3234329 5.0287991 -1.7676435
1.3578321 2.0443397 -1.2221396
10.919533 5.6359749 -1.7352118
1.4112453 2.0661228 -1.1984079
11.685225 5.9392862 -1.5334415
1.6009004 2.1352367 -1.241457
11.710915 5.9682331 -1.2363598
1.7327083 2.1848388 -1.2471087
11.819878 6.0284767 -0.94346988
1.9264257 2.2565336 -1.274091
11.873802 6.0684404 -0.64156777
1.9925494 2.2840037 -1.2369034
11.898653 6.0974121 -0.33915386
2.2224686 2.3695426 -1.2620091
11.92997 6.1289415 -0.035163604
2.4419067 2.4521065 -1.2716727
11.952606 6.1574345 0.27286825
2.8478029 2.6020164 -1.3329577
12.002136 6.196228 0.58245254
3.1902599 2.7304573 -1.3543692
12.027994 6.2261438 0.89354944
3.5620856 2.870589 -1.3671341
12.068871 6.2622061 1.2116461
3.8994148 2.9994619 -1.3517725
12.104677 6.2964067 1.5306859
4.1695862 3.1048977 -1.3051362
12.13505 6.3287563 1.8529327
6.7552562 4.0579038 -1.7260303
12.164921 6.3613377 2.181747
1.1269908 1.9546477 -1.183908
7.5895619 4.3510237 -1.6931908
1.2384719 1.9953271 -1.2028754
9.413496 5.0311356 -1.7783959
1.3596073 2.0396376 -1.2218356
10.910872 5.5970936 -1.7304957
1.4181383 2.0629969 -1.2008169
11.681065 5.8995924 -1.5294943
1.6148683 2.1339529 -1.2471688
11.703018 5.9270325 -1.2325184
1.7142031 2.1719589 -1.2368536
11.812084 5.9869184 -0.94011641
1.8818339 2.2339554 -1.2525926
11.860445 6.024581 -0.6385392
2.0458925 2.2952826 -1.2578878
11.894688 6.0569448 -0.33683255
2.2499306 2.3711154 -1.2712762
11.93541 6.091876 -0.033085063
2.4145029 2.4337003 -1.2601047
11.946869 6.1160412 0.27428347
2.8313839 2.5861669 -1.3257105
11.98716 6.1511154 0.58278209
3.0710025 2.6769001 -1.3154836
12.022417 6.1844807 0.89405501
3.5589046 2.8571448 -1.3643618
12.059692 6.2189827 1.2112572
4.0227418 3.0303786 -1.3817356
12.099314 6.254488 1.5302823
12.122429 6.283885 1.8508325
6.7866969 4.0468669 -1.7297235
12.157951 6.3185081 2.1800804
1.1382766 1.9538293 -1.1898198
7.6219244 4.3376675 -1.6961327
1.1856911 1.9727829 -1.1699662
9.4757442 5.0228806 -1.7847669
1.3329924 2.0253952 -1.2054129
10.903946 5.55898 -1.7260308
1.4402236 2.064976 -1.2113876
11.667427 5.8565435 -1.5245628
1.6117747 2.1267946 -1.2442229
11.694988 5.8859148 -1.228683
1.6939141 2.1585991 -1.2257829
11.807896 5.9468279 -0.93698072
1.9050349 2.2349768 -1.2615652
11.854431 5.9836159 -0.63575512
2.0325568 2.2831993 -1.2508211
11.888718 6.0158453 -0.33450475
2.2242744 2.3540802 -1.259701
11.922009 6.0478239 -0.031348042
2.4280777 2.4297936 -1.2635152
11.941 6.0747213 0.27569252
2.7159929 2.5357087 -1.2851121
11.985104 6.111062 0.58399016
3.0673089 2.6648722 -1.312623
12.02603 6.1464205 0.89541984
3.4500628 2.8063045 -1.3315716
12.052223 6.1765604 1.2110798
4.0126357 3.0130377 -1.3771734
12.101219 6.2154703 1.5309348
4.3501077 3.1410079 -1.3432453
12.10965 6.2391272 1.8487244
6.7774901 4.0210733 -1.7250063
12.141653 6.2722254 2.1766191
1.1447775 1.9510891 -1.192625
7.7067742 4.3413563 -1.7083721
1.2137684 1.9770299 -1.1854906
9.5163078 5.0045633 -1.7875302
1.3047395 2.0104635 -1.1880336
10.893879 5.5176353 -1.7209587
1.4759763 2.0710523 -1.2291863
11.669382 5.8169432 -1.5210853
1.5951076 2.1147182 -1.2343373
11.696966 5.8461971 -1.2254765
1.708223 2.1567001 -1.2311571
11.791231 5.8998804 -0.93297857
1.8133602 2.1963155 -1.2189887
11.847193 5.9399099 -0.63278168
2.0140448 2.2689807 -1.2415211
11.890909 5.9754524 -0.33209378
2.2519097 2.355063 -1.2689304
11.922369 6.006608 -0.029242154
2.4400434 2.4247203 -1.2662411
11.939528 6.0327253 0.27739519
2.676131 2.5116725 -1.2699821
11.970623 6.0640144 0.58444124
3.1145306 2.6700077 -1.3254583
12.011665 6.0992174 0.89518666
3.5161929 2.8168709 -1.3484359
12.04727 6.1327553 1.2112551
4.0430632 3.0092323 -1.3829525
12.075998 6.1637783 1.5277359
12.108603 6.196517 1.8486173
6.7667952 3.9934552 -1.7198348
12.146233 6.2316103 2.1772249
1.1348706 1.9432641 -1.1851621
7.7298703 4.3242416 -1.7096105
1.2665765 1.9895104 -1.2158446
9.211338 4.8649302 -1.7368455
1.3013955 2.0042543 -1.1848972
10.894165 5.4823494 -1.7174807
1.4947479 2.0716331 -1.2379274
11.661081 5.7760973 -1.5167608
1.62103 2.1173453 -1.2460966
11.686783 5.8045378 -1.221503
1.717224 2.1533408 -1.2340815
11.796152 5.863348 -0.93037987
1.9411902 2.2327242 -1.2747805
11.842779 5.8997765 -0.63006824
2.0182071 2.2630477 -1.2418373
11.879034 5.9324112 -0.3297419
2.2243729 2.3375793 -1.2566724
11.914307 5.9648104 -0.027416896
2.4339359 2.4139359 -1.2624927
11.924006 5.9880733 0.27838591
2.7909422 2.5417862 -1.3070045
11.970163 6.024786 0.58576477
3.1325703 2.6654353 -1.3293319
12.007551 6.0584602 0.89584726
3.46174 2.785841 -1.3312035
12.039518 6.0904827 1.2110646
4.1135936 3.0201402 -1.399147
12.075771 6.1241941 1.52811
5.9989891 3.6897583 -1.7206917
12.097374 6.1526432 1.8468053
6.7518468 3.9658523 -1.7139869
12.127792 6.1848335 2.1733902
1.1724693 1.950241 -1.2074831
7.7279124 4.2950611 -1.7059739
1.2617826 1.9823619 -1.211571
9.2222347 4.835022 -1.7349186
1.3384277 2.0106099 -1.2044594
10.87892 5.4372158 -1.7115669
1.4832793 2.0614672 -1.2303092
11.654154 5.7311497 -1.5121739
1.6129823 2.1078382 -1.2405169
11.679865 5.7594547 -1.2174175
1.7195626 2.1469235 -1.2336681
11.787464 5.8171911 -0.92667586
1.8913763 2.2081106 -1.2509253
11.839781 5.8554554 -0.62708682
2.1389909 2.2953289 -1.2907224
11.868561 5.8852091 -0.3271237
2.1401954 2.3001802 -1.2221775
11.903893 5.91745 -0.025393112
2.4263465 2.4016254 -1.2580357
11.919275 5.9426994 0.28005093
2.7674448 2.5227757 -1.2972922
11.967394 5.9799223 0.58710527
3.1819251 2.6701393 -1.3426614
11.997385 6.0106945 0.89608389
3.4569378 2.7708092 -1.3278549
12.036922 6.0453491 1.2115867
4.0268283 2.9744287 -1.3746841
12.071423 6.0782309 1.5279603
6.0265164 3.6769884 -1.7241015
12.102381 6.1100512 1.8477645
6.8007097 3.9579058 -1.7209337
12.131044 6.1414394 2.1737673
1.1984986 1.953876 -1.2226305
7.7118058 4.2641935 -1.7001801
1.2849113 1.9848393 -1.2241228
9.3140488 4.8371382 -1.7459095
1.328371 2.0021706 -1.1975312
10.878956 5.4020395 -1.7080991
1.4172724 2.034368 -1.1937487
11.651197 5.6924524 -1.5084522
1.5772189 2.0900922 -1.2211597
11.669394 5.7179756 -1.213459
1.7198907 2.140645 -1.2324786
11.780846 5.7766991 -0.92346019
1.8936108 2.2019219 -1.2505269
11.831331 5.8140945 -0.62427008
2.1273565 2.2837579 -1.2843878
11.863913 5.8450756 -0.32483259
2.18894 2.308764 -1.2397559
2.4560137 2.4029858 -1.2672832
11.912842 5.9016733 0.28143379
2.7868145 2.5196381 -1.3021829
11.957293 5.9373655 0.58777827
3.2054529 2.6671467 -1.3482013
11.989243 5.968708 0.89638299
3.570466 2.7977026 -1.3581491
12.023285 6.0011749 1.2107203
4.0532742 2.9698572 -1.3795543
12.057913 6.0339403 1.5264571
6.0347543 3.6599252 -1.723388
12.100121 6.0697699 1.8475022
6.7948914 3.9335501 -1.7169921
1.1918409 1.9470351 -1.2172189
7.7179585 4.2411528 -1.6984048
1.309727 1.98772 -1.2376537
9.3274002 4.8115673 -1.7447581
1.365262 2.008826 -1.2171137
10.865753 5.3623285 -1.7029376
1.4631479 2.043709 -1.2169809
11.646236 5.6531477 -1.5045393
1.6065781 2.0936728 -1.2346375
11.668198 5.6798944 -1.2102575
1.7375376 2.1400173 -1.2395067
11.775982 5.7369366 -0.92035431
1.9728436 2.2209628 -1.284416
11.824631 5.7734861 -0.62151718
2.1545348 2.2850595 -1.2942526
11.857246 5.8043337 -0.32253632
2.1789834 2.2976162 -1.2344546
11.879505 5.8315926 -0.021921568
2.5018656 2.4095688 -1.2823637
11.908146 5.8613977 0.2828927
2.6579547 2.4667788 -1.2574713
11.947052 5.8949032 0.58844376
3.2326326 2.6652563 -1.3548543
11.988453 5.9295206 0.89737457
3.6127956 2.7998343 -1.3682835
12.024441 5.9625483 1.2116148
3.9104071 2.9076107 -1.3411176
12.055422 5.9938354 1.5265484
6.0447946 3.6434669 -1.7230988
12.075485 6.0213671 1.8434777
6.86514 3.9353745 -1.7286394
11.607882 5.8694429 2.0715969
1.1868867 1.9404823 -1.2128208
7.8644991 4.2644796 -1.7215762
1.3197447 1.9854783 -1.2422762
9.4030571 4.8054543 -1.7530019
1.370401 2.0048714 -1.218684
10.860619 5.3233547 -1.6986279
1.468429 2.0394835 -1.2184501
11.640011 5.6111612 -1.5003023
1.5879964 2.0813305 -1.2239082
11.661961 5.6377897 -1.2064769
1.744915 2.1355758 -1.2415776
11.769854 5.6944675 -0.91701478
2.0243235 2.2300603 -1.3057885
11.81666 5.7301598 -0.61857742
2.1871998 2.2875104 -1.3062882
11.853092 5.7621946 -0.32011977
2.1709211 2.2866788 -1.2298222
11.871616 5.7880173 -0.019988926
2.4922628 2.397038 -1.2772832
11.894678 5.8156929 0.28407025
2.717191 2.4765263 -1.2756417
11.948704 5.8544168 0.5900135
3.2181556 2.6486428 -1.3485749
11.982679 5.8861952 0.89797533
3.582118 2.7765036 -1.3577385
12.013151 5.9170685 1.2110937
3.9664466 2.9124165 -1.3534787
12.055429 5.9522905 1.5270417
6.049633 3.6239767 -1.7214613
12.079287 5.9810934 1.8442824
6.8931408 3.9210296 -1.7314482
11.598303 5.825819 2.0695658
1.1900104 1.9367652 -1.2135766
7.8799901 4.2441826 -1.7214444
1.324681 1.9819194 -1.2439542
9.7536354 4.8942699 -1.8036237
1.3787907 2.0022445 -1.2221639
10.864058 5.2896061 -1.6956582
1.4974027 2.0430627 -1.2326076
11.634783 5.5719862 -1.4964011
1.6036303 2.0803554 -1.2304699
11.65674 5.5985041 -1.2029865
1.7260984 2.123137 -1.231353
11.770386 5.6567945 -0.91422927
2.0248725 2.2229402 -1.3045893
11.811577 5.6903563 -0.61589366
2.0799348 2.2450471 -1.2602415
11.842386 5.720273 -0.31781587
2.1930006 2.2860885 -1.2369883
11.866608 5.7479858 -0.018127879
2.4554594 2.3762522 -1.262511
11.897245 5.7782211 0.28584826
2.6459064 2.4436491 -1.2503252
11.94006 5.8127756 0.59079486
3.2489786 2.6477859 -1.3563378
11.976002 5.8450985 0.89843094
3.6464763 2.785686 -1.3740406
12.006563 5.8758612 1.2110913
4.0093799 2.9133587 -1.3625789
12.047091 5.9102736 1.52632
6.104053 3.6223571 -1.7313654
12.071051 5.9389925 1.843061
6.9150991 3.9059277 -1.733192
11.584141 5.78304 2.0666742
1.1784474 1.9282445 -1.205075
7.8155227 4.1954536 -1.7068925
1.2765061 1.96164 -1.2140522
9.5689373 4.7987576 -1.7718234
1.3738194 1.995098 -1.2180562
10.849266 5.2475634 -1.6901512
1.500988 2.0381858 -1.233165
11.630152 5.5307903 -1.4923716
1.5987374 2.0724688 -1.2266514
11.652111 5.5571947 -1.199368
1.7247399 2.1159508 -1.2293208
11.763973 5.6144533 -0.91090155
1.8798187 2.1690714 -1.2387648
11.810875 5.6498022 -0.6131919
2.0895052 2.2401805 -1.2627239
11.839834 5.6789379 -0.315422
2.2456205 2.2947059 -1.2558801
11.860317 5.7052345 -0.016172692
2.3899183 2.3458862 -1.2373519
11.885359 5.7333651 0.28709343
2.823046 2.4914284 -1.3077276
11.930149 5.7684155 0.59157717
3.252666 2.6371934 -1.3556576
11.968058 5.8012619 0.89884239
3.591819 2.7546189 -1.3568089
12.004333 5.8338976 1.2116656
3.960315 2.8828392 -1.3481357
12.033754 5.8641863 1.5249248
6.1347971 3.6113234 -1.7356617
12.070866 5.8974638 1.8432286
6.9411888 3.8907018 -1.7356067
11.579809 5.7416134 2.0657072
1.1751484 1.9220238 -1.2016931
7.8935828 4.1928854 -1.7175674
1.2599328 1.9510219 -1.2028844
9.5063992 4.743329 -1.7586417
1.3470166 1.980965 -1.2016425
10.8444 5.2068415 -1.6857343
1.5063747 2.0335004 -1.2346058
11.620441 5.4856663 -1.4876308
1.6111599 2.0696371 -1.2314382
11.644289 5.5125809 -1.1953239
1.7826682 2.1269302 -1.2551615
11.754364 5.5687914 -0.90724123
1.8997824 2.1676733 -1.2460997
11.797522 5.6026468 -0.6099695
2.0797045 2.2286687 -1.2570944
11.839766 5.6361752 -0.31290609
2.2555571 2.2889066 -1.2581282
11.856503 5.6610727 -0.014050372
2.5190134 2.377713 -1.2821507
11.885374 5.6903973 0.28896922
2.6667144 2.4301696 -1.2539887
11.926468 5.7239714 0.59287882
3.2382643 2.6200562 -1.3493462
11.966343 5.7573261 0.89991319
3.5942178 2.7417283 -1.3555064
11.997078 5.7878532 1.2117045
3.9649503 2.8693893 -1.3472733
12.034081 5.8206577 1.5255396
6.1584916 3.5965552 -1.7381797
12.056396 5.8485327 1.8410151
6.9341249 3.8629944 -1.7311158
11.590893 5.7034311 2.0677533
1.1813343 1.9198349 -1.2045357
7.8592124 4.1592875 -1.7089691
1.2379352 1.9400963 -1.1888366
9.644268 4.7622013 -1.7768857
1.3214326 1.9686667 -1.186259
10.840517 5.1752157 -1.6823027
1.5079035 2.0290239 -1.2343185
11.615297 5.451478 -1.4842079
1.5886321 2.0574648 -1.219065
11.639137 5.4782896 -1.1922662
1.7757151 2.1190798 -1.2507305
11.751188 5.534832 -0.90463734
1.8963618 2.1605916 -1.2434187
11.796276 5.56919 -0.6077401
2.1402848 2.241169 -1.2809548
11.827196 5.5987244 -0.31089389
2.2523408 2.2809095 -1.2556508
11.853428 5.62677 -0.012403948
2.4600594 2.3513157 -1.2596908
11.874779 5.6534042 0.28995785
2.9072003 2.4987633 -1.3325377
11.912172 5.6855459 0.59310514
3.2704949 2.6207385 -1.3577306
11.954025 5.7194233 0.89972234
3.5349395 2.712003 -1.3374095
11.984856 5.7498493 1.2109618
3.7410259 2.7852182 -1.288919
12.031326 5.7858143 1.5255961
6.1787581 3.5855851 -1.7405567
12.042536 5.8096914 1.8388662
6.9681692 3.8544519 -1.7356577
11.537792 5.6519794 2.0573556
1.1648312 1.909725 -1.1929502
7.9654236 4.1653566 -1.7245944
1.2112499 1.9267092 -1.1717713
9.7827835 4.772768 -1.7943537
1.3805785 1.980757 -1.2180495
10.827843 5.1321402 -1.6769359
1.5149757 2.0248156 -1.236661
11.610962 5.4084063 -1.4800642
1.6234691 2.0614467 -1.2350545
11.632914 5.4344645 -1.1883843
1.7535294 2.1049948 -1.2388313
11.752649 5.4931335 -0.9016006
1.9057665 2.1557865 -1.2460811
11.788303 5.5241394 -0.60469913
2.1393514 2.2323251 -1.2789907
11.826847 5.5560846 -0.30838946
2.2138708 2.2599576 -1.2392433
11.849335 5.5827332 -0.010293115
2.3600981 2.3102794 -1.2222416
11.870731 5.6092644 0.29165396
2.788785 2.4501786 -1.2914989
11.915756 5.6438351 0.59491605
3.2944491 2.6158412 -1.3631516
11.952026 5.675622 0.90078074
3.5795536 2.7128065 -1.3479385
11.977299 5.7039862 1.2109852
3.771265 2.7807634 -1.294662
12.016397 5.7371874 1.5240474
6.2061224 3.5717902 -1.7439094
12.040792 5.7655478 1.8388395
6.9852519 3.8346112 -1.7360833
11.528156 5.6068163 2.0554147
1.1645793 1.9050765 -1.1916583
7.9318686 4.1289396 -1.715817
1.234388 1.9288335 -1.1843019
9.436306 4.6293316 -1.7385023
1.3804858 1.9754891 -1.2168007
10.826935 5.0973654 -1.6735065
1.508152 2.0171154 -1.2318153
11.603191 5.3689365 -1.4759984
