# .PCD v0.7 - Point Cloud Data file format
VERSION 0.7
FIELDS x y z
SIZE 4 4 4
TYPE F F F
COUNT 1 1 1
WIDTH 1433
HEIGHT 1
VIEWPOINT 0 0 0 1 0 0 0
POINTS 1433
DATA ascii
16.12965 -0.4614116 -0.14498146
16.157833 -0.38174784 -0.1474186
12.503014 0.73245817 -0.082126699
12.717276 0.80383724 -0.088882618
12.935539 0.85261005 -0.087941028
16.045683 2.3246129 -0.11249653
16.010002 2.4163377 -0.10803297
16.033663 3.5691247 -0.094289578
15.598236 4.4303551 -0.087352596
15.56212 4.5201106 -0.080905959
15.573662 4.5296893 -0.079935506
15.319059 4.8853273 -0.078873448
15.206114 5.2955341 -0.064886734
16.333208 5.5526018 -0.075458422
15.155571 5.8390093 -0.062141962
15.146555 5.8914833 -0.056440465
16.334923 5.6375108 -0.074519537
15.104982 5.9805608 -0.059937499
15.117687 5.9734178 -0.059169944
15.096106 6.0638323 -0.053889785
15.037382 6.2402058 -0.050194543
14.927334 6.5511665 -0.051365592
16.032747 6.9459777 -0.059121814
15.954618 7.0580993 -0.055920649
15.903561 7.3663125 -0.055827823
14.528883 7.7962031 -0.035533287
15.282412 7.8656292 -0.040758345
14.588858 8.1858263 -0.0238468
15.440271 7.9935884 -0.045200482
14.132803 8.7959757 -0.01349955
13.02721 9.7909613 0.0039620651
15.086779 9.9062853 -0.015360638
14.959379 10.230607 -0.014173002
2.0356491 -5.3978376 -0.018237263
2.0649571 -5.3780441 -0.02336476
2.091001 -5.3852797 -0.022757757
2.1601653 -5.107769 -0.019448832
2.1459916 -5.0118842 -0.018195935
2.4188077 -5.0099802 -0.022436615
2.3821926 -4.9909692 -0.023784244
2.3981569 -4.7470727 -0.018218774
2.4833782 -4.7303743 -0.016048685
2.8312111 -4.7843003 -0.027818032
2.9356661 -4.794796 -0.02518503
2.7502542 -4.675652 -0.020621676
3.0345922 -4.5521359 -0.020625539
3.1087286 -4.5471468 -0.02345591
3.2238257 -4.5169649 -0.025491223
3.473634 -4.4479561 -0.023697846
3.5511394 -4.4632864 -0.027798157
3.4326024 -4.4042449 -0.025713665
3.4916155 -4.4110913 -0.026496712
3.6308908 -4.4431596 -0.033525094
3.8519714 -4.3827567 -0.028485039
3.8938522 -4.3577485 -0.031703636
3.9163203 -4.3024845 -0.027347276
5.1239519 -4.5743508 -0.052860048
4.0916672 -4.3256884 -0.031706307
3.9438555 -4.2771196 -0.033390693
4.108459 -4.3111644 -0.033743281
5.1608167 -4.5667324 -0.046213765
4.1359863 -4.299221 -0.032937344
5.268363 -4.5553107 -0.04837079
4.1502748 -4.2738581 -0.030821323
4.22084 -4.2792902 -0.037727181
4.2551093 -4.2607484 -0.034927096
4.2704444 -4.2613444 -0.031116653
4.1716752 -4.2141929 -0.030402971
4.3012209 -4.2439451 -0.037288867
5.4229498 -4.5191197 -0.048810139
5.254858 -4.4524107 -0.045046318
5.4629898 -4.5059838 -0.055141274
4.195364 -4.1920252 -0.03643661
4.3493123 -4.2276449 -0.036679585
4.2328515 -4.1773462 -0.031718262
4.3477173 -4.2128911 -0.034493525
5.310966 -4.4410648 -0.048589379
5.3394852 -4.4293742 -0.045797847
5.7489729 -4.5308614 -0.058841862
5.3638835 -4.4258862 -0.05105086
5.8328519 -4.5457087 -0.057012156
4.4722605 -4.2034583 -0.036876224
5.3872876 -4.4139924 -0.050196156
5.8807473 -4.5304108 -0.05341148
4.5141702 -4.2000628 -0.038339138
5.0063419 -4.3171425 -0.048547398
5.4153237 -4.4083028 -0.053467523
5.5864663 -4.4449034 -0.056927614
5.435091 -4.3986068 -0.054594483
4.6627064 -4.1634765 -0.036701322
4.7952332 -4.1548891 -0.042189468
4.6452088 -4.0729756 -0.034469385
4.750402 -4.0280781 -0.039220367
4.1098828 -2.7984622 -0.015667183
4.1441827 -2.7881045 -0.017960526
4.1645293 -2.7672226 -0.020968249
4.1373749 -2.7392347 -0.013326364
4.1579413 -2.7132936 -0.013279189
4.176054 -2.6847084 -0.013172738
4.2203341 -2.6757166 -0.01360059
4.2719216 -2.6705096 -0.015158706
4.362123 -2.6929741 -0.019491488
4.413712 -2.6877668 -0.021049647
4.4515924 -2.6710751 -0.022314075
4.1652756 -2.4878247 -0.016819928
4.1409364 -2.4347663 -0.013929115
4.1110024 -2.3793578 -0.009944709
4.0971732 -2.3339424 -0.0072658826
3.8550351 -1.9648337 -0.0052005327
3.8708763 -1.9501023 -0.0052234638
3.9634812 -1.9063265 -0.0088364845
3.9551446 -1.8765886 -0.0084008481
3.2910843 -1.6826043 0.0017313529
3.9748282 -1.8154895 -0.0079457462
3.8491728 -1.7219036 -0.0003850857
3.8874445 -1.6775339 -0.0033417686
3.7639825 -1.3285079 0.0050787358
3.8135579 -1.2930307 0.005886978
2.8503778 -1.0124016 0.014573916
2.7858667 -0.96420097 0.020890636
2.7214782 -0.88926297 0.022507288
2.7293522 -0.8777734 0.022542981
2.7586617 -0.8754884 0.02121824
2.756531 -0.85853493 0.021435255
2.7227156 -0.82787603 0.02218603
3.7962081 -1.085398 0.010440858
2.7176785 -0.81023961 0.023445692
3.8062141 -1.0692775 0.0105034
2.7145746 -0.79305428 0.023677001
2.73646 -0.80030119 0.021333113
2.7509127 -0.79140586 0.02126082
2.7385228 -0.78744644 0.023454048
2.7551291 -0.77801812 0.021361653
2.7614865 -0.78159481 0.022245402
2.7790635 -0.77239782 0.02013891
3.6558409 -0.96664083 0.0084604891
3.6982117 -0.96129578 0.0070141163
2.2017376 -0.42120853 0.029010024
2.2840068 -0.43879598 0.035828657
2.3028471 -0.43299168 0.034668852
2.2537086 -0.27630803 0.030025933
2.2516234 -0.26347718 0.03019586
2.2522259 -0.25231355 0.030314779
2.251853 -0.24091868 0.030448014
2.2495382 -0.22906092 0.03060966
2.2445483 -0.21554716 0.031822179
2.2490289 -0.20529826 0.030884242
2.2447793 -0.19298854 0.032074329
2.2463534 -0.18205661 0.032179028
2.2418597 -0.17070851 0.032361001
2.2388036 -0.15764642 0.03254512
2.2394042 -0.146483 0.032664098
2.2419527 -0.13578255 0.032754514
2.2376897 -0.12346143 0.032944728
2.2489934 -0.11484417 0.03290692
2.2476485 -0.10321751 0.033054419
2.2443614 -0.091128305 0.033230312
2.2410717 -0.079038925 0.033406265
2.2462935 -0.069994234 0.032445841
2.241071 -0.057453264 0.033650156
2.2436051 -0.046741266 0.032740787
2.2430043 -0.036319125 0.032865722
2.228796 -0.022667864 0.034189973
2.2599583 -0.03418586 0.032687098
2.2068155 -0.0071760956 0.036628127
2.2615311 -0.02325378 0.032791827
2.2613928 -0.010885982 0.032933228
2.2571306 0.0014348375 0.033123408
2.2587059 0.012366866 0.033228099
2.2534819 0.024907881 0.034432385
5.8563657 -0.25881103 -0.01285339
5.7584734 -0.22115397 -0.0082569774
5.7767801 -0.16590129 -0.0068514007
5.8058171 -0.15638867 -0.0040906556
5.8077693 -0.13935448 -0.0069219591
5.8023624 -0.11032322 -0.0055291178
5.7240243 -0.06395527 -0.0010681148
5.7923374 -0.07917323 -0.0030569977
5.7789125 -0.049263053 -0.0015583854
5.8246312 -0.04263309 -0.0060306215
5.8160591 -0.01386911 -0.0056031309
5.9212813 -0.029671235 -0.0050395695
5.8057799 0.016330691 -0.0051389611
5.7971163 0.035831809 -0.00081451121
5.9554191 -0.0028461411 -0.0051446632
5.7930756 0.04505901 -0.0056626382
5.7868199 0.066042982 -0.0013501456
5.9269447 0.028590472 -0.0034487888
6.0261011 0.052286647 -0.0053668548
5.9613886 0.087248623 -0.0081984969
5.9594035 0.095911108 -0.0040763794
6.0138874 0.082938522 -0.00387424
5.954247 0.11773781 -0.0087687736
5.9391484 0.12746428 -0.0044777216
6.0777793 0.15310003 -0.0098462896
2.1047103 1.5199153 0.052104205
2.2019169 1.5481629 0.053261377
2.4968216 1.508811 0.051290795
2.5045478 1.5151708 0.054270696
2.51317 1.5172896 0.047190558
2.4595408 1.542377 0.049115449
2.4884362 1.5426714 0.05177369
2.4457383 1.583693 0.049747292
2.4503479 1.6072488 0.051958688
15.660208 -1.3848944 -0.13780186
15.899343 -1.2526801 -0.13716695
2.3950005 2.0048048 0.062113382
2.4372532 2.0575116 0.055202793
2.4355645 2.0630021 0.061285831
2.4171388 2.1198685 0.055147771
2.3939083 2.1387415 0.057639055
2.4212835 2.141479 0.057342667
2.4154358 2.1469562 0.060474899
2.4181595 2.1668415 0.063667431
16.018135 -1.01266 -0.13687547
2.3696206 2.269932 0.058411721
2.3645623 2.3132532 0.061962172
16.047806 -0.93541485 -0.13835743
2.3685324 2.3256783 0.06105493
2.3615265 2.3438013 0.060343362
2.3504682 2.3577311 0.061633132
2.3402882 2.3796742 0.063002914
2.3318362 2.4001689 0.06533584
12.578119 -0.0060272962 -0.083368257
2.3299477 2.4787645 0.063246109
2.2935505 2.502836 0.064953484
12.564081 0.05590155 -0.082500607
16.064909 -0.7770527 -0.13977298
12.543278 0.1153289 -0.081580363
2.2480509 2.626704 0.069897562
12.534113 0.17610016 -0.08078409
12.511368 0.23599076 -0.079835296
12.49297 0.29690146 -0.078926958
12.469994 0.35581803 -0.077986673
12.439026 0.41560265 -0.075940758
16.424528 -0.48441964 -0.13376531
12.42647 0.47512332 -0.075117931
12.385792 0.53311247 -0.073976278
16.165657 -0.37141228 -0.13139325
16.460411 -0.40247348 -0.13726903
12.394709 0.60090321 -0.075317353
12.383801 0.64562601 -0.072681189
12.382814 0.66337729 -0.077469461
12.45986 0.65425259 -0.073493108
12.533144 0.71187627 -0.076718509
12.606102 0.73768711 -0.077299304
12.715199 0.72098118 -0.078792624
12.689997 0.77942556 -0.08083114
12.822557 0.80956334 -0.083075836
12.963957 0.79029167 -0.082984112
15.949141 2.5058217 -0.1022936
15.905746 2.5952504 -0.095763385
15.988602 3.4656835 -0.086918637
15.550806 4.6275873 -0.072555289
15.636843 4.6348486 -0.071501777
15.539072 4.7290072 -0.065268293
15.342981 4.9720249 -0.064178057
16.379854 5.3338351 -0.07448791
16.266748 5.5621724 -0.065554529
15.085991 6.0466266 -0.043961924
15.064939 6.0794411 -0.049340207
14.996117 6.3558669 -0.044393614
15.467804 6.6012926 -0.042259589
15.823477 6.8004055 -0.050263342
15.954113 7.0859294 -0.050599288
15.896297 7.2487035 -0.045068379
15.933187 7.273807 -0.040225133
14.49861 7.6809502 -0.019471267
15.44684 7.5972052 -0.035756137
14.523409 8.3164873 -0.017587131
14.180832 9.7918348 0.0021796976
15.154413 9.9826355 -0.0073054568
2.0161262 -5.4065685 -0.016102254
2.0214996 -5.4099069 -0.016204149
2.1252956 -5.3585973 -0.0098645668
2.1817603 -5.3545594 -0.010494111
2.1870642 -5.263329 -0.00752636
2.3903158 -5.0053806 -0.0070419325
2.2503176 -4.9236827 -0.013446021
2.8956265 -4.8295178 -0.019097798
2.8972006 -4.8145084 -0.014946482
2.5071747 -4.7083049 -0.013083449
2.5567751 -4.6944351 -0.01051939
2.747468 -4.7398391 -0.010312135
2.9627781 -4.6728382 -0.015129955
2.9996824 -4.5654936 -0.011357836
3.0417287 -4.5785384 -0.017008666
3.1437972 -4.5298653 -0.015678829
3.2552204 -4.5152788 -0.014846019
3.4046402 -4.4275117 -0.012640463
3.3998339 -4.4129772 -0.015419203
3.4478695 -4.4182076 -0.020053225
3.5779147 -4.4419723 -0.019876437
3.6515412 -4.434804 -0.022676025
3.926059 -4.3695655 -0.02722156
3.926141 -4.3521371 -0.024025174
3.872062 -4.3074231 -0.020873033
4.1098537 -4.3146849 -0.021798138
4.1077318 -4.3058939 -0.028674345
5.1927681 -4.5538383 -0.039449118
5.2297335 -4.5626345 -0.039990537
4.1222191 -4.2929568 -0.021700395
4.129468 -4.2750998 -0.027586138
4.1742001 -4.2857332 -0.02924135
4.1736312 -4.2840934 -0.024715411
4.1964583 -4.2787127 -0.027427848
4.1664314 -4.2582297 -0.023836961
4.1541553 -4.2450294 -0.02354102
4.2405009 -4.266602 -0.024817221
5.3812037 -4.530829 -0.041442338
5.2029223 -4.4678264 -0.041599084
4.3226361 -4.2408953 -0.028509209
5.2426324 -4.4567623 -0.036948182
4.2112675 -4.1907811 -0.023610856
5.2909455 -4.4435558 -0.041377172
4.3810821 -4.2198448 -0.02997034
4.3871946 -4.2027969 -0.029850794
4.4062386 -4.2053442 -0.022106187
4.4257145 -4.1924868 -0.02419401
4.4444852 -4.2041178 -0.027550332
4.4862328 -4.2099171 -0.031115495
4.4060378 -4.1456671 -0.022429561
5.9298387 -4.5143676 -0.050816707
5.9806404 -4.499752 -0.048258614
4.4519191 -4.1298423 -0.024799697
4.5029273 -4.1183105 -0.028279722
6.0351133 -4.487052 -0.044765912
4.5505233 -4.1039228 -0.030686496
4.5964141 -4.0881071 -0.032056592
6.1766925 -4.4621363 -0.048177503
6.2247257 -4.4457784 -0.052567575
4.6672492 -4.0412779 -0.027373765
6.2578678 -4.3242002 -0.04558919
6.3017001 -4.2996535 -0.048836343
4.396194 -2.645695 -0.0053626974
4.4355564 -2.6314101 -0.0066720741
4.4722323 -2.615458 -0.007930533
4.1445193 -2.4202757 -0.0048069642
4.1250277 -2.3683641 -0.0029871534
4.1062799 -2.3176577 -0.0011899038
4.0858021 -2.2911649 -0.0046462365
4.0902147 -2.2686164 0.00055644405
4.0839615 -2.2557864 -0.0032243363
4.0891018 -2.2344315 0.0009560124
4.0680032 -2.2150044 -0.00057246536
4.0763278 -2.1974809 0.0025264104
3.3829784 -1.668586 0.011792448
2.9317417 -1.4358654 0.025818402
2.9122515 -1.4055393 0.027394304
2.9329929 -1.4176605 0.026009144
3.0199459 -1.4321601 0.02180519
3.530128 -1.5258346 0.018647015
2.9008536 -1.3708942 0.019920938
2.8903961 -1.3458011 0.021329654
2.9294798 -1.3499537 0.019815275
2.9234235 -1.3279631 0.02113631
3.4480445 -1.3438971 0.02168433
3.0266237 -1.2055655 0.025285911
3.6648076 -1.2617738 0.011019203
2.9477291 -1.0665545 0.030800482
2.8354928 -1.0285418 0.03257202
3.6153626 -1.2191885 0.014091891
3.1831057 -1.0834513 0.02179431
3.6468723 -1.1300731 0.015722245
3.6487026 -1.1181905 0.01783492
3.6792843 -1.1233866 0.014410097
3.6830609 -1.1119668 0.016494257
3.7092543 -1.1140716 0.014157002
3.7164452 -1.1055119 0.015167866
3.7399521 -1.1059496 0.012881601
3.7388515 -1.0933616 0.014037143
3.7538483 -1.0907545 0.012887118
2.7380047 -0.84186029 0.02984629
3.765903 -1.0833511 0.013826783
2.7312658 -0.82279974 0.032142531
3.798779 -1.0747206 0.01253108
2.7374263 -0.80987448 0.032214887
3.8241045 -1.0632625 0.011357589
2.7474794 -0.79787612 0.032230265
3.8062248 -1.0477021 0.011747232
2.7750854 -0.79416627 0.031942122
3.8409204 -1.0487616 0.011320366
3.8135426 -1.0299134 0.011860705
3.836798 -1.0272233 0.01161303
3.8273132 -1.0023613 0.013007525
2.2833161 -0.49831676 0.04316546
2.312613 -0.49601999 0.040840842
2.3022475 -0.47917172 0.042155303
2.2918847 -0.46232355 0.043469753
2.2946639 -0.45065013 0.043568417
2.2918494 -0.43662682 0.044760626
2.2863815 -0.41833207 0.041032225
2.2859662 -0.40952992 0.045137171
2.2850978 -0.39596903 0.046300922
2.289438 -0.40309295 0.037167333
2.2878764 -0.38429588 0.046399646
2.2997684 -0.39424384 0.037143797
2.2969413 -0.38020909 0.037336178
2.2896836 -0.37239099 0.046512526
2.2929208 -0.36692646 0.03853447
2.2849135 -0.35789338 0.046733387
2.2957144 -0.35526475 0.039632984
2.2868195 -0.34081382 0.039902631
2.286695 -0.3284575 0.041043863
2.2855816 -0.3158581 0.041199554
2.289114 -0.3054004 0.042275619
2.2850833 -0.29210681 0.042474028
2.286902 -0.28021324 0.043586798
2.2760742 -0.2653107 0.044884779
2.2786214 -0.25461015 0.044975251
2.2794557 -0.24247366 0.045102421
2.2790842 -0.23107876 0.045235638
2.2787256 -0.219695 0.0463687
2.2776132 -0.20709571 0.046524361
2.2752981 -0.19523793 0.046686057
2.2691033 -0.18246551 0.047904592
2.2697041 -0.17130199 0.048023541
2.2654552 -0.15899256 0.049213592
2.268976 -0.14852357 0.049289763
2.268605 -0.13712864 0.049422976
2.2662892 -0.12527069 0.049584646
2.2816646 -0.0045550051 0.050764885
4.8748503 -0.30705833 0.016339872
4.9804268 -0.29515043 0.012211675
4.9966288 -0.27021596 0.01129951
4.9649081 -0.20922676 0.013368123
4.9617147 -0.18379697 0.013693677
5.0005164 -0.163213 0.012462161
5.5268602 -0.17124107 0.0020773897
5.6249299 -0.11338229 0.0025586593
5.5285172 -0.078122579 0.0061101988
5.8146982 -0.14108753 0.00297695
5.8092585 -0.12953055 0.005172919
5.5652037 -0.036519807 0.010142125
5.7951488 -0.041870434 0.0043318956
5.9662161 -0.070239618 0.0019658688
5.8058052 -0.022785963 0.00041950206
5.7960224 -0.012260415 0.0036557862
5.7893944 0.016041573 0.0040548681
5.8054667 0.0060834722 -0.00025035461
5.7841935 0.046068143 0.0034562566
5.8377056 0.072420374 0.0001137557
2.5363009 1.4757349 0.055445697
2.48665 1.4977727 0.062789246
2.5249643 1.4928133 0.056774344
2.4635856 1.5156412 0.057766195
2.491152 1.5100429 0.065374427
2.4998689 1.5039158 0.058200005
2.5011919 1.5004678 0.064146042
2.4907458 1.521471 0.062508017
2.495862 1.5171869 0.06039818
2.5072463 1.5175698 0.059266243
2.4818287 1.5400224 0.064824514
14.844061 -1.2216163 -0.11619677
14.900469 -0.99350888 -0.11129323
15.748812 -1.1470077 -0.1291723
2.44064 2.0278234 0.066828474
15.904057 -1.1726239 -0.13331832
2.434432 2.0581169 0.063244417
2.4385846 2.0622132 0.069741935
15.935484 -1.0968606 -0.13083772
2.3867662 2.1558013 0.064918205
2.3882732 2.1790349 0.071163461
2.4166076 2.1774733 0.065806389
2.412626 2.1907206 0.07000424
15.908867 -1.0144806 -0.12758821
2.4079251 2.2010751 0.072177693
2.3945961 2.2443237 0.073825888
2.3860683 2.2608094 0.066113085
15.859943 -0.93091208 -0.12305854
2.3659091 2.331367 0.070151791
2.3535573 2.3399637 0.069896579
2.3514199 2.3656774 0.067712322
2.3390985 2.3870754 0.072102018
2.3221438 2.4024506 0.068477914
2.3378372 2.3945463 0.075201899
2.3461401 2.3905072 0.076057136
2.3087113 2.4796231 0.073511079
2.2969334 2.533828 0.073264293
16.055157 -0.68956029 -0.12166529
12.5459 0.15162447 -0.071200177
16.350771 -0.73009223 -0.12565784
12.527962 0.21449135 -0.071275502
16.131142 -0.63362777 -0.12294187
16.084061 -0.61109984 -0.12412475
12.506632 0.27610636 -0.071324334
12.506351 0.28334486 -0.068238772
16.111269 -0.53120404 -0.12654775
12.487492 0.33823165 -0.071393542
12.483534 0.34738117 -0.069242537
16.429159 -0.56880492 -0.13177387
12.466406 0.40082091 -0.07143449
12.463629 0.41073257 -0.071289167
12.465532 0.41845825 -0.066223942
16.142586 -0.45126146 -0.12901935
12.401304 0.4728618 -0.071842261
12.448971 0.46152052 -0.072540298
12.432072 0.48091641 -0.067118324
12.382298 0.5226202 -0.072052829
12.36322 0.54150581 -0.066610679
12.40345 0.53815299 -0.073130317
12.386595 0.59253055 -0.072314449
12.396135 0.58512086 -0.07251218
12.380423 0.60528082 -0.069096066
12.377754 0.66760457 -0.070360355
15.906904 2.6905344 -0.090700135
15.870039 2.7814937 -0.084230617
15.869457 3.3490446 -0.079810977
15.554682 4.7077518 -0.05769385
15.564079 4.8422275 -0.056286793
16.129992 5.1598158 -0.057464525
16.038048 5.2660198 -0.059165522
15.98711 5.4148707 -0.059874903
16.194626 5.582324 -0.053462949
15.149572 5.8988557 -0.040391076
15.090704 6.0444169 -0.037042264
15.030907 6.1820292 -0.038772818
15.026468 6.279664 -0.032615826
14.883995 6.3546724 -0.029064605
15.046902 6.3529768 -0.039032698
15.969013 7.087441 -0.040758975
15.975 7.0952544 -0.039742123
14.40996 7.847959 -0.011523584
15.051924 7.8895035 -0.021730339
15.632565 8.1778507 -0.017413959
13.16502 9.5955544 0.024109622
15.268507 9.5801582 0.0037849252
2.0529354 -5.4041753 0.0014871398
2.0519361 -5.3864141 -0.0043010246
2.0738449 -5.3936872 -0.0046451646
2.1633315 -4.9616776 -0.00083361566
2.4385614 -5.0230465 -0.0058181351
2.2231083 -4.9481649 0.00060460996
2.4198775 -4.7431173 -0.0034317449
2.4450746 -4.7408919 -0.0037078413
2.8570111 -4.8327723 -0.0056710839
2.6243958 -4.7650981 -0.0011248701
2.4826541 -4.7128687 0.0011601107
2.9303107 -4.818337 -0.0083846888
3.0050609 -4.6470189 -0.0043422561
2.9475322 -4.6169124 0.00068636902
3.0616512 -4.5689888 -0.005137316
3.1862772 -4.5246181 -0.0081264023
3.282114 -4.5022316 -0.0050187628
3.3680394 -4.4435267 -0.005382861
3.3680274 -4.4219317 -0.0061388365
3.4922135 -4.4483657 -0.011922929
3.6182175 -4.4372392 -0.012303717
3.6560524 -4.429853 -0.0056717154
3.6751444 -4.4312544 -0.012916833
3.8572111 -4.3830786 -0.016549679
3.7968071 -4.3307424 -0.007234944
3.9451275 -4.3721323 -0.017477188
3.8501794 -4.3392701 -0.014970459
3.9635725 -4.3508344 -0.016456936
3.9953506 -4.3430424 -0.0087477583
5.1940265 -4.5706482 -0.031653024
4.1063323 -4.2994862 -0.017583715
4.1187325 -4.2952938 -0.011183749
4.1751208 -4.291183 -0.0183124
4.1860518 -4.2927575 -0.018460916
5.233521 -4.5471478 -0.03285988
4.0772905 -4.2535825 -0.0087167174
4.1825781 -4.2816873 -0.014293698
5.2715769 -4.5387783 -0.027219476
5.2993684 -4.5515623 -0.027696274
5.342361 -4.5432253 -0.035117079
4.1071296 -4.2400651 -0.015921667
4.2236638 -4.2688489 -0.014639888
4.2119794 -4.2485523 -0.019271551
4.2558017 -4.2630901 -0.019959822
5.1928477 -4.4675746 -0.031474378
4.2580242 -4.2410398 -0.015736707
4.185761 -4.1991792 -0.014399599
4.2251916 -4.2065454 -0.0099536087
4.3445153 -4.2358999 -0.019713176
4.2898035 -4.215744 -0.011830263
4.2642078 -4.1849709 -0.013176716
4.4305725 -4.2245669 -0.013613121
4.4306927 -4.2194171 -0.018557101
4.3154969 -4.17659 -0.01669571
4.4496994 -4.2084961 -0.021661328
4.4372497 -4.1963243 -0.016374255
4.3571939 -4.1566749 -0.019969659
4.4639449 -4.179009 -0.01949824
4.5102625 -4.174643 -0.016002165
6.0715694 -4.4855156 -0.037183382
6.123518 -4.4741845 -0.043677304
6.0697494 -4.4583168 -0.041854911
6.1288314 -4.4477258 -0.040441412
4.6031933 -4.0693073 -0.014922898
6.1950159 -4.4419117 -0.038166694
4.6369371 -4.0567288 -0.021185106
4.7046828 -4.0574827 -0.016002811
6.1023955 -4.3777461 -0.034333859
6.1494155 -4.3570342 -0.038662601
6.2025537 -4.3408713 -0.04211583
4.1488128 -2.7657595 0.0052397847
4.1527724 -2.7276597 0.0076232138
4.1596723 -2.6768444 0.0041143778
4.2705197 -2.6950288 0.0065840199
4.3507376 -2.7120538 0.0044323197
4.1851344 -2.6561706 0.0030433701
4.3801155 -2.6923258 0.0053041182
4.1993418 -2.6266515 0.0022068941
4.4273052 -2.6840186 0.0038336201
4.2460728 -2.620286 0.00071989704
4.3052492 -2.6220129 -0.0020074383
4.1737952 -2.3800616 0.0072990567
4.1622281 -2.3423703 0.0088633578
4.1492252 -2.3063908 0.01042547
4.1408372 -2.2725308 0.010908427
4.1263528 -2.2341444 0.01251551
4.1133451 -2.1981664 0.014077745
3.9092369 -2.0878501 0.0087635582
3.9150991 -2.0676756 0.010921667
2.8836026 -1.4439662 0.029302904
3.0342879 -1.4675193 0.03123551
2.8865564 -1.4271872 0.028457038
2.8680387 -1.3970916 0.030018657
2.9135134 -1.3873458 0.028584925
2.8917589 -1.362716 0.03812452
3.0534048 -1.4001081 0.030768532
2.9110754 -1.3549769 0.037981041
2.9403825 -1.3526907 0.03665629
3.3862207 -1.4268785 0.026486559
3.4050617 -1.3994887 0.02557065
3.3199711 -1.3340476 0.031328067
3.3363206 -1.3214924 0.031274449
3.2987781 -1.3022974 0.033940524
3.3517003 -1.3087053 0.031235037
3.3695338 -1.298558 0.031136462
3.3931921 -1.2897887 0.029952547
3.4166186 -1.2819917 0.028760394
3.4505243 -1.277725 0.028403208
3.4685771 -1.2665942 0.027313016
3.3913138 -1.2327914 0.028618794
3.2957435 -1.2069921 0.033053402
2.8590157 -1.0855932 0.03864703
3.3993855 -1.2162189 0.029709691
2.789175 -1.063843 0.040728029
2.8321486 -1.0689209 0.039156668
3.4184222 -1.2053297 0.029605085
3.4488919 -1.1981802 0.028321395
3.4764521 -1.1903479 0.02808038
2.8269382 -1.0348053 0.041604735
3.5605459 -1.2082856 0.024871891
3.623425 -1.2160358 0.022032226
3.4947484 -1.1782556 0.027998259
3.6224658 -1.1942301 0.023290239
2.8065307 -0.99495059 0.03629826
2.7800958 -0.96814531 0.041917931
2.8189907 -0.98146909 0.036301639
3.6166275 -1.1712549 0.023619642
2.8196414 -0.97035104 0.04042004
3.6144617 -1.1501906 0.024883714
2.8468897 -0.95525753 0.041264907
3.5954487 -1.1179292 0.027475849
3.6047347 -1.1262898 0.025270078
3.6127946 -1.1097059 0.025361056
3.5886512 -1.0947359 0.028819339
3.6145072 -1.089556 0.025568275
3.016397 -0.93797934 0.033432528
3.5950084 -1.0767269 0.029946947
3.6103981 -1.0680285 0.026860822
3.5823736 -1.0521429 0.03137596
3.6194291 -1.0516753 0.026937617
3.5689986 -1.026355 0.032827396
3.6021647 -1.0249624 0.028446028
3.5697513 -1.0059853 0.034048721
3.5627115 -0.98375219 0.03438412
2.1873064 -0.47448549 0.049583461
2.3004663 -0.46543595 0.048332654
2.3005602 -0.45209563 0.048482239
2.3055272 -0.43992361 0.049560573
2.2785022 -0.4242928 0.056061119
2.283967 -0.41428617 0.05610887
2.3036754 -0.42612028 0.049738675
2.3064661 -0.4144583 0.050837237
2.3114214 -0.40227509 0.050915621
2.3017979 -0.38663119 0.052207619
2.297039 -0.37214467 0.053428333
2.3010242 -0.3597303 0.05352094
2.2818644 -0.34484226 0.047917459
2.2972353 -0.34547484 0.05472751
2.284646 -0.33316883 0.048016127
2.2902994 -0.33149818 0.055968497
2.2779298 -0.31820813 0.048265468
2.2942839 -0.31908342 0.056061115
2.2758446 -0.30537748 0.048435405
2.2951295 -0.30695862 0.057188161
2.2737727 -0.29255798 0.049605165
2.2903581 -0.29246089 0.057409015
2.2707152 -0.27949601 0.049789291
2.2686305 -0.26666522 0.049959239
2.2655737 -0.25360316 0.050143369
2.2644713 -0.24101509 0.051298928
2.2565515 -0.22679572 0.051554311
2.253494 -0.21373375 0.051738448
2.2523818 -0.20113429 0.051894125
2.24739 -0.18762052 0.05310664
2.2538183 -0.17783464 0.05214021
2.2534475 -0.16643962 0.052273411
2.2542825 -0.15430355 0.052400559
2.2580321 -0.14286152 0.052485008
2.2547443 -0.13077213 0.052660923
2.2526588 -0.11794144 0.052830867
2.2591197 -0.11226667 0.050817464
2.2513154 -0.10631496 0.052978285
2.2626398 -0.10179747 0.050893679
2.2540936 -0.094641581 0.053076971
2.2593517 -0.089708194 0.05106961
2.2569594 -0.080414757 0.052703422
2.2487209 -0.069721624 0.05342279
2.2544992 -0.066976428 0.052384607
2.2553921 -0.058974102 0.053464495
2.2571161 -0.051666904 0.05252631
2.259825 -0.044602416 0.05257377
2.2563064 -0.033486024 0.05274142
2.2658005 -0.036773384 0.052590735
2.2559342 -0.02209097 0.052874655
2.2683375 -0.026061442 0.051681347
2.2565355 -0.010927293 0.052993614
2.2650468 -0.013972064 0.051857285
2.2520552 0.00040935227 0.054175403
2.2546024 0.011109903 0.054265838
2.2520568 0.02199482 0.054419275
2.2477951 0.034315709 0.054609481
2.2532601 0.044321951 0.054657172
4.8476167 -0.27491456 0.021029277
4.9568639 -0.26491633 0.01783571
4.9745622 -0.24240197 0.017878493
5.8274808 -0.29532126 0.012082852
5.6594024 -0.18952598 0.01328778
5.8145776 -0.23258252 0.0069452482
5.5882273 -0.15616155 0.016516078
5.8016996 -0.20488328 0.011412744
5.8003922 -0.17578222 0.010757077
5.5274205 -0.078965709 0.01511505
5.5794492 -0.093376376 0.011329633
5.8022313 -0.14640316 0.010066923
5.8163123 -0.14769794 0.0098838964
5.5233054 -0.061515566 0.012361001
5.7999487 -0.11707065 0.0094255581
5.8067808 -0.11871353 0.011325575
5.6428652 -0.060154516 0.010946776
5.7966952 -0.087506965 0.0087984055
5.8074408 -0.090098165 0.012641163
5.8151312 -0.062119015 0.012865392
5.8065748 -0.033365969 0.014292706
5.9317074 -0.012757809 0.011029112
5.9020281 0.017937161 0.012730953
5.8723598 0.048621077 0.015432658
5.9533186 0.073565684 0.013746402
6.0395937 0.099298157 0.012005357
2.0976675 1.5193758 0.071184941
2.1049404 1.5237775 0.075148247
2.1925788 1.576967 0.070700832
2.4873788 1.506778 0.071383469
2.206012 1.5835009 0.074614562
2.449827 2.0224442 0.079659641
2.4394493 2.0568111 0.076171458
2.4391489 2.0640633 0.078257278
2.3859475 2.1990571 0.078418508
2.4051926 2.2109396 0.076322392
2.3964043 2.2212119 0.081544265
15.948923 -1.0025437 -0.11393046
2.4038279 2.2266676 0.07851667
2.4023011 2.2372768 0.082655385
2.3963478 2.2510097 0.084882028
15.980539 -0.92576194 -0.11544115
2.3575854 2.3260756 0.079192765
16.243471 -0.96984196 -0.11708266
2.3612783 2.3416529 0.078324534
2.3544576 2.3648691 0.077668242
15.850334 -0.85052365 -0.12003511
2.3404934 2.383559 0.084047265
2.3477793 2.3838742 0.084963799
2.3242109 2.4018764 0.078448094
2.3243644 2.3976526 0.087399766
2.3424964 2.3964708 0.081168793
2.338443 2.4138644 0.08341407
15.842646 -0.76649588 -0.11499301
12.542242 0.028086348 -0.068551913
2.3083553 2.4991615 0.082737342
16.057543 -0.77032095 -0.12060633
16.301994 -0.80999333 -0.12297734
12.555414 0.091724135 -0.062989578
12.561901 0.089209996 -0.070096433
15.8248 -0.6862123 -0.11087226
2.286665 2.550585 0.082577653
12.560163 0.10291118 -0.060919691
12.540833 0.15586391 -0.06509088
12.543184 0.165558 -0.062009033
12.516811 0.21915835 -0.066088736
12.523283 0.22889836 -0.063055612
12.497314 0.29265636 -0.064024881
12.48641 0.35488614 -0.065191604
15.859365 2.8744471 -0.078052059
15.800495 2.9593375 -0.071388297
15.734974 3.1373134 -0.066593602
15.776218 3.2375364 -0.071954995
15.364082 4.8866491 -0.044392139
15.635214 4.8252115 -0.047328137
16.052595 5.2182302 -0.04487735
16.171389 5.3637557 -0.053654838
16.183535 5.4533315 -0.047786906
15.131559 5.9349256 -0.030766848
15.108494 6.0236726 -0.029488284
15.072779 6.1761117 -0.03133918
15.014034 6.2918243 -0.026328783
15.6488 6.5447488 -0.032061055
15.983564 6.798121 -0.032200545
15.929461 7.0627923 -0.024562405
15.930033 7.1778316 -0.029270252
15.91618 7.3096237 -0.028615434
14.482952 7.7348738 0.0013279583
14.587057 8.068882 -0.0021434296
14.352356 9.0343981 0.013573121
12.719444 9.6963549 0.040577702
15.202414 9.8589535 0.015726551
15.060371 10.039804 0.013467551
14.968407 10.330922 0.024857746
2.0215533 -5.4152288 0.0037377921
2.0182765 -5.4031487 0.0049136141
2.1562223 -5.3614826 0.0077354908
2.1919804 -5.3602285 0.0073221107
2.4036155 -5.0282111 0.0085432781
2.1891503 -4.9535732 0.015951585
2.1988666 -4.9558778 0.014809211
2.4124639 -4.9265318 0.013586974
2.7009122 -4.8502097 0.0080000134
2.4070036 -4.7504334 0.0086411405
2.8165648 -4.8479137 0.0056429319
2.4340894 -4.7188711 0.011674319
3.0653641 -4.8258853 -8.348866e-05
2.9555602 -4.7864118 0.0036757707
2.6800067 -4.6786761 0.005187517
3.0832989 -4.5608892 0.0076971143
3.2220964 -4.5085511 0.00062810909
3.2682235 -4.5051932 0.0071154516
3.3159099 -4.4990511 0.0046144356
3.3260188 -4.4520898 0.0020237933
3.343354 -4.439775 0.0029557911
3.5147152 -4.4538121 -0.0012520498
3.702641 -4.4286318 -0.0032145337
3.6901917 -4.4164619 0.0020725403
3.8638699 -4.3816686 -0.0056118802
3.764097 -4.3476877 -3.4345852e-05
3.9548445 -4.3622007 -0.0064796805
4.0322728 -4.3395619 -0.0011488335
5.1306596 -4.5916853 -0.015130872
5.1617398 -4.5815368 -0.023388922
4.1024833 -4.2904425 -0.0064340145
4.1130815 -4.2981615 0.00035302551
5.1646008 -4.5483561 -0.016047256
5.2607636 -4.562983 -0.021362834
4.0386147 -4.2567844 -0.00028930252
4.1451917 -4.2882991 -0.0029198644
4.1636233 -4.292655 -0.0071900948
4.1743245 -4.2952008 -0.0073467884
4.0970864 -4.2573404 5.3879048e-06
4.1860418 -4.2805119 -0.007320886
4.1974754 -4.2760983 -0.00040677947
4.1481314 -4.2499256 -0.0045216233
4.2060885 -4.2698951 -0.0044401465
5.3083973 -4.5270424 -0.020526232
4.2445688 -4.2677007 -0.0098762363
4.1658945 -4.2140422 -0.0063289446
4.1805286 -4.2216406 -0.0065897629
4.3641696 -4.2272892 -0.010849616
4.4057932 -4.2341599 -0.0054241582
4.9048457 -4.3529348 -0.0097330092
4.336307 -4.2062831 -0.008278871
4.3847995 -4.2189083 -0.0020003633
4.4065766 -4.2219796 -0.00929642
4.3835459 -4.1980238 -0.0057499413
4.4243913 -4.1820693 -0.0030576359
4.4709601 -4.1889877 -0.0096934373
4.7489977 -4.2562146 -0.0087769646
4.5090742 -4.184752 -0.0031004138
4.6649218 -4.2248716 -0.011417982
5.9896445 -4.5236559 -0.027633488
4.545064 -4.1583004 -0.011232923
6.0369725 -4.5102096 -0.033048112
4.5125017 -4.1012807 -0.0021981318
4.5552239 -4.0857263 -0.0055336226
4.5687213 -4.0806956 -0.0076385075
4.6013651 -4.0730352 -0.0089423694
5.9933925 -4.4042921 -0.026329568
4.6457982 -4.0589147 -0.012314491
6.0443468 -4.3886266 -0.030762328
6.2438283 -4.4227099 -0.035532951
4.6874323 -4.0442076 -0.0056451983
4.1642642 -2.7057917 0.015733982
4.1660314 -2.6979303 0.008800731
4.1825476 -2.693687 0.014652042
4.1875167 -2.681515 0.01573028
4.201283 -2.6837039 0.0085399682
4.418776 -2.7334747 0.014378267
4.2070174 -2.6686821 0.015642118
4.2056274 -2.6529336 0.01583668
4.2314858 -2.6436746 0.016632212
4.2342515 -2.6319902 0.015731107
4.2886796 -2.6408298 0.014980407
4.3818192 -2.6640115 0.012604658
4.2883115 -2.6294355 0.015113534
4.3814392 -2.6526055 0.011737959
4.4189811 -2.6461351 0.013362442
4.4369173 -2.6483231 0.010122819
4.4597921 -2.6301494 0.013055112
4.4650459 -2.6252155 0.011047727
4.1671305 -2.4649208 0.018421495
4.1378803 -2.4065824 0.021430699
4.1118298 -2.1700606 0.015413566
4.0934496 -2.1307468 0.017077697
2.9481585 -1.428642 0.046706628
2.8859105 -1.3572373 0.041256819
2.893641 -1.3508842 0.044736668
2.9349995 -1.3668549 0.039561033
2.9231999 -1.3517199 0.040873278
2.8929765 -1.3322449 0.047455553
2.9284339 -1.3426874 0.040912744
2.9398472 -1.3423307 0.042280547
2.9699264 -1.3412781 0.043432962
3.1069176 -1.1847601 0.045563851
3.3198442 -1.2312715 0.037491623
3.3676469 -1.2333951 0.036896039
3.3730371 -1.2131221 0.040561173
3.4069259 -1.2108757 0.036680851
3.4169569 -1.2122867 0.042545788
3.4354599 -1.2032759 0.036425527
3.4111202 -1.1893122 0.042875178
2.782032 -1.0292766 0.04420444
3.4510708 -1.1895161 0.03639435
3.4535363 -1.1705813 0.03757897
2.8654695 -1.0204253 0.052308034
2.9998894 -1.0513496 0.046350788
3.0312159 -1.0536716 0.046950135
3.4161112 -1.0733113 0.043126117
3.4222233 -1.0562634 0.043245673
2.7238846 -0.88081264 0.049577735
2.7392979 -0.87213719 0.04849131
3.4236946 -1.0370755 0.04244478
3.4322531 -1.0401654 0.045307942
2.7642074 -0.86674899 0.047254223
2.7150962 -0.85303295 0.050996859
3.4232302 -1.0174353 0.042672258
2.7249043 -0.84199572 0.050004195
2.7398376 -0.83321023 0.049424823
3.4011011 -0.98956418 0.04425193
2.7328706 -0.81716657 0.050189462
2.7467089 -0.81942266 0.048998363
3.3986917 -0.96946096 0.044507895
2.724174 -0.79763085 0.051514335
2.7674599 -0.80996954 0.048857056
2.738626 -0.78873545 0.051442046
3.3792477 -0.94325763 0.046036616
2.7710848 -0.78617156 0.050082777
3.5642049 -0.96458632 0.03558296
3.5312486 -0.94339901 0.038216721
3.3279347 -0.88685793 0.048287574
3.5554614 -0.94092888 0.036954954
3.5615768 -0.92388135 0.037074465
3.5365403 -0.89532763 0.03969676
2.283659 -0.53246236 0.059777882
2.3022683 -0.52763075 0.058609843
2.2777753 -0.50536495 0.060154427
2.3002768 -0.50145942 0.058929406
2.2982016 -0.48863968 0.060099173
2.3124106 -0.48070541 0.059018806
2.2857189 -0.45485008 0.062630497
2.3103373 -0.46788609 0.060188591
2.3092258 -0.45528716 0.060344245
2.2666016 -0.43591899 0.064073153
2.301537 -0.44009498 0.060607839
2.2740107 -0.42637533 0.064092383
2.3050559 -0.42962581 0.06068407
2.2692542 -0.41188908 0.065313093
2.2845726 -0.42063144 0.060030468
2.2718015 -0.40118858 0.065403551
2.3014669 -0.41436401 0.058899157
2.3039575 -0.41703793 0.06183954
2.2750845 -0.39984679 0.057378367
2.2947495 -0.39940304 0.059148531
2.3018713 -0.40420711 0.062009517
2.2737961 -0.38827124 0.062025197
2.2922487 -0.38856319 0.063301459
2.2992432 -0.38916555 0.059210464
2.2748189 -0.37512243 0.058661051
2.2952881 -0.37866175 0.063043579
2.2678711 -0.36113489 0.058902193
2.2975757 -0.36618948 0.063490584
2.2628803 -0.34762093 0.060114719
2.2826955 -0.35547906 0.066789903
2.299948 -0.3646726 0.060478959
2.2663999 -0.33715186 0.06019092
2.2945182 -0.3531276 0.063674755
2.2968893 -0.35161087 0.060663126
2.2930179 -0.33990923 0.062341839
2.2613969 -0.32362673 0.060403563
2.2806337 -0.32516295 0.065156862
2.2849517 -0.32410929 0.062116753
2.2661223 -0.31241637 0.060473714
2.2830241 -0.31287012 0.063767008
2.2599144 -0.29963255 0.060692426
2.2842302 -0.30133635 0.06388288
2.2588146 -0.28704464 0.061847962
2.2885079 -0.29208818 0.065436453
2.2535806 -0.27449241 0.062052388
2.2821271 -0.28848848 0.062553003
2.2485781 -0.26096737 0.062265012
2.281014 -0.27588925 0.062708668
2.2854075 -0.27898645 0.062121123
2.275049 -0.26214382 0.063935466
2.2799246 -0.2653513 0.06284079
2.2462738 -0.24912076 0.063426584
2.2737074 -0.25051758 0.064082891
2.27967 -0.25347 0.062978081
2.2672913 -0.24280678 0.062246468
2.2764981 -0.24021463 0.063832544
2.2640154 -0.22665127 0.067468867
2.271251 -0.22629188 0.064385995
2.2769597 -0.23019445 0.061273232
2.2578189 -0.2138786 0.068687432
2.2711418 -0.21802996 0.062980443
2.2615716 -0.20243673 0.068771817
2.2727566 -0.21121469 0.062538095
2.267628 -0.19972363 0.063729413
2.2568858 -0.18742418 0.066497177
2.2635627 -0.189514 0.064893499
2.2851093 -0.18947661 0.061635904
2.2549009 -0.17409055 0.065171324
2.2608867 -0.17706537 0.066066258
2.2668509 -0.18001759 0.064961471
2.2624269 -0.16697882 0.06582845
2.2785342 -0.16529834 0.061987694
2.261431 -0.15097503 0.065354489
2.2624905 -0.15740731 0.066769347
2.2589293 -0.14421265 0.065460764
2.2678521 -0.14993751 0.065789461
2.2556405 -0.13212314 0.065636702
2.2639785 -0.14027441 0.065444931
2.2690561 -0.13840324 0.065905429
2.2441423 -0.1242393 0.064863123
2.2552705 -0.12072847 0.065769874
2.2691834 -0.12713529 0.067031361
2.2488554 -0.11097873 0.065956764
2.2666178 -0.11623334 0.065685011
2.2722123 -0.11450622 0.068638019
2.2402513 -0.10172755 0.065164044
2.2516098 -0.097243965 0.066079028
2.2623701 -0.10392407 0.066875018
2.271842 -0.10311119 0.068771258
2.2408526 -0.090564027 0.065283
2.2632022 -0.091787666 0.0670022
2.2695258 -0.091253273 0.068932928
2.2365899 -0.078243308 0.065473206
2.2643185 -0.082804896 0.067423768
2.2371919 -0.067079708 0.065592118
2.2576778 -0.076074235 0.066245668
2.2368202 -0.055684678 0.065725371
2.2602248 -0.065373532 0.066336125
2.2641633 -0.068383329 0.068255298
2.2362194 -0.045262549 0.065850303
2.2606013 -0.055188499 0.066946812
2.2652504 -0.057335563 0.068367153
2.2309844 -0.032710288 0.066054724
2.262183 -0.044262148 0.067551427
2.2325583 -0.021778202 0.06615945
2.2591012 -0.031177469 0.065735847
2.262193 -0.033480536 0.068673268
2.2341342 -0.010846122 0.066264115
2.2575424 -0.020540658 0.067374863
2.2619612 -0.02366038 0.068787016
2.2335315 -0.00042406272 0.066389047
2.252291 -0.0079715652 0.06607949
2.259397 -0.010719713 0.069463953
2.260896 0.0023244265 0.065092817
2.2728469 0.00047453522 0.068929538
2.2901008 -0.0046419525 0.066665165
2.2312162 0.011433917 0.066550754
2.2515988 0.014773211 0.070345342
2.2624702 0.013256591 0.065197527
2.2298591 0.023071785 0.065698393
2.2579765 0.024604565 0.065379493
2.2263389 0.034188382 0.065866098
2.2553501 0.026215155 0.070429765
2.2269428 0.045351643 0.065984972
2.253715 0.036925312 0.065569662
2.2649372 0.036268443 0.070428737
2.2214751 0.05693128 0.066181228
2.2559211 0.048199832 0.068171017
2.2318041 0.06578017 0.066157691
2.2457004 0.059390023 0.06591934
2.2353706 0.072126746 0.066186741
4.9716477 -0.24698314 0.033863805
5.0043974 -0.22599496 0.033709373
4.9774094 -0.18354708 0.028510919
4.9783258 -0.17149003 0.035637114
4.9861069 -0.15991074 0.027673837
4.9761066 -0.14629206 0.035948344
5.0085273 -0.13961656 0.035636112
5.5605903 -0.23802565 0.020922186
5.5580788 -0.20966616 0.020272518
2.1583743 1.5449336 0.080749243
2.1906133 1.5680981 0.080625512
2.399199 1.5327895 0.08573354
2.1990206 1.581466 0.086676814
2.2182205 1.5933943 0.080581225
2.4850299 1.5484092 0.076882675
2.4703934 1.5600824 0.081190117
2.4697316 1.5787156 0.084408984
15.633005 -1.134037 -0.10463785
2.4451499 2.0543597 0.08407671
2.4494901 2.05072 0.08848431
2.4392447 2.0639722 0.086256199
2.4433224 2.0722182 0.090301163
16.24128 -1.1348612 -0.1129206
2.3797772 2.2158837 0.085683405
2.4034843 2.2030237 0.088255003
2.3717086 2.2290502 0.092929624
16.170891 -1.0461326 -0.11407657
2.391036 2.2542884 0.08998327
2.3912773 2.2768328 0.09123528
2.371453 2.2969356 0.095700033
2.3632054 2.3102741 0.087948248
2.3554564 2.3511839 0.087503031
2.3527853 2.3609948 0.096647099
2.3405206 2.3701048 0.09389624
2.3214271 2.389015 0.097338691
2.3348744 2.3961332 0.092757665
2.3290906 2.4345264 0.091760457
2.2699029 2.4794357 0.093975767
12.597288 0.03855383 -0.060090467
2.2812269 2.5702972 0.092866786
15.649837 2.9344318 -0.056866534
15.694462 3.0359008 -0.062254425
15.7286 3.0411432 -0.062603153
15.670488 3.1248136 -0.054962181
15.410475 4.8518538 -0.031338111
15.430986 4.8562636 -0.036534321
15.374348 4.9941335 -0.036299471
15.903072 5.0646014 -0.035824172
15.879829 5.2561789 -0.033381782
15.877346 5.297936 -0.038880799
15.131041 5.9534249 -0.015549583
15.116154 5.9991608 -0.020855593
15.068792 6.1152592 -0.016977116
15.065016 6.1942596 -0.014039065
15.011997 6.3168378 -0.010019641
14.928902 6.3952084 -0.0081406217
14.983385 6.395647 -0.014787881
15.476824 6.6071095 -0.012297717
15.937975 7.1717548 -0.020432541
14.515739 7.6088004 0.006512179
15.853178 7.2947083 -0.016029093
14.381672 7.9480457 0.010948477
15.640175 7.6475711 -0.0074946941
14.534891 8.2589922 0.015630588
14.578245 9.9652624 0.033392258
2.0413256 -5.3932962 0.014750683
2.0600846 -5.4008493 0.014441049
2.0661323 -5.3930845 0.020457268
2.8355756 -5.1228814 0.015310355
2.4442763 -4.9269352 0.016202461
2.7488713 -4.8740673 0.020158766
2.7726336 -4.8560424 0.016077731
2.4845638 -4.7710867 0.024482718
2.7056975 -4.7958856 0.013557302
3.0404339 -4.8621922 0.010805897
2.4558752 -4.7097077 0.016518092
2.9980628 -4.7811933 0.013227885
2.9557581 -4.6004891 0.014775518
3.1120563 -4.561655 0.018346133
3.250613 -4.4805393 0.018606145
3.3057461 -4.4905481 0.014833405
3.3420625 -4.4848013 0.014464096
3.2847476 -4.4618711 0.010407863
3.3120217 -4.4467969 0.013252484
3.5465808 -4.4717669 0.0091655543
3.7247167 -4.4185495 0.0066367942
3.7250752 -4.4042706 0.0097942734
3.7355521 -4.368711 0.0070704115
3.8744843 -4.385325 0.0062215556
3.9751253 -4.3640399 0.0042586303
3.97192 -4.308857 0.011921451
4.0598235 -4.3235631 0.0057034632
5.0147009 -4.556982 -0.0033508323
5.1830773 -4.5836859 -0.0056658573
4.0170836 -4.2959261 0.00752693
5.0163155 -4.5367408 -0.011142517
4.0210538 -4.2835035 0.0066197258
5.2238951 -4.5758605 -0.013066493
4.1121087 -4.2938504 0.0044139144
4.1536803 -4.3047571 0.0017932937
5.1534863 -4.5437255 -0.0078609753
4.0583072 -4.2779455 0.0032366607
4.1730223 -4.2970395 0.0036495291
4.1717019 -4.2854347 0.005796697
5.2120352 -4.5350084 -0.012463039
4.1963673 -4.2810097 0.0035515435
4.1993074 -4.2817235 0.005508611
5.2047453 -4.5271549 -0.0062863347
4.2111206 -4.2712083 0.0094867088
4.2318568 -4.2698965 0.00025231484
5.2587314 -4.520453 -0.0088564279
4.1548395 -4.2351322 0.0025661457
5.3513112 -4.5198283 -0.014957034
4.942832 -4.4011006 -0.0027303689
5.3907986 -4.509747 -0.0093144346
4.7530165 -4.3436079 0.0011889728
4.380517 -4.2415814 0.0037954606
4.384171 -4.2259717 -7.2403913e-05
4.4098272 -4.213634 0.0067612347
4.6677957 -4.252377 0.00023848249
5.8893547 -4.5440865 -0.015663695
5.9396472 -4.5354562 -0.02116813
4.5714483 -4.2037563 0.0019399053
4.4686742 -4.1689968 0.000561108
4.5411401 -4.1842022 0.0015231393
4.4224 -4.1261559 0.0055990522
4.4700141 -4.1158648 0.0011454492
4.5021615 -4.101965 0.0049186926
5.7871451 -4.4036374 -0.010854225
5.8865852 -4.4303379 -0.0173456
4.5346994 -4.0901256 -0.0013374009
5.9434166 -4.4201841 -0.021910975
4.6031547 -4.0663829 0.0051133339
4.6422348 -4.0530281 -0.0002037517
4.2577643 -2.7281249 0.024365015
4.3306866 -2.7454507 0.020296913
4.3769379 -2.7410212 0.017793648
4.4789686 -2.6193972 0.024948956
4.1851907 -2.5319767 0.024448803
4.1410422 -2.4669957 0.025710916
4.125248 -2.4210939 0.026418446
4.1698294 -2.393687 0.02819537
4.1165276 -2.3799503 0.025987485
4.1728988 -2.3892508 0.025208389
4.1223302 -2.3597186 0.023146311
4.1002679 -2.3359933 0.026678648
4.1638312 -2.354244 0.030713059
4.1566529 -2.3453064 0.026899301
4.1077466 -2.313087 0.024847748
4.0916047 -2.2989848 0.027200362
4.1472139 -2.3117361 0.030391941
4.082006 -2.2658544 0.026689408
4.0958538 -2.2681224 0.026498146
4.1347766 -2.2733152 0.03097477
4.0721827 -2.2337093 0.02717009
4.0825715 -2.2289937 0.028099259
4.1319971 -2.2418151 0.031363953
4.0695672 -2.1930172 0.029661424
4.1182566 -2.2046351 0.03294852
2.8969986 -1.470964 0.048840374
2.8723681 -1.436331 0.050526377
2.8975556 -1.4340923 0.049250364
2.9273727 -1.4339843 0.047894921
3.1116958 -1.316541 0.056019299
3.1358631 -1.3099477 0.054804664
3.1610034 -1.303586 0.05357578
3.1851714 -1.2969933 0.052361187
3.195688 -1.2830501 0.052392982
3.3006005 -1.2565856 0.047437001
2.8611889 -1.1294413 0.057128187
3.3067153 -1.2395384 0.047556549
3.3284268 -1.2303057 0.046401132
2.900316 -1.1161301 0.055810634
3.346482 -1.2191751 0.045310877
2.7944179 -1.0775945 0.060512695
2.819346 -1.0115488 0.057960521
2.8456724 -1.0178542 0.062575184
2.8330569 -1.0014484 0.057910714
2.828553 -0.99009007 0.057092763
2.8175046 -0.98024809 0.055335816
2.7969394 -0.95894259 0.059823014
3.3140078 -1.0490408 0.047621623
3.349407 -1.0256097 0.048463285
3.4196186 -1.0155818 0.046736956
3.4145348 -0.99382347 0.048043706
2.7661469 -0.82930511 0.062656194
3.400188 -0.96780425 0.049509406
2.7303226 -0.80075836 0.065907426
2.7298181 -0.78779459 0.066560037
2.7553186 -0.79281706 0.064198084
2.7535355 -0.78315878 0.066328816
2.7968099 -0.79548597 0.062671676
3.3741777 -0.93901855 0.052145977
2.8242319 -0.79687124 0.062328156
3.2553394 -0.87680483 0.052269619
3.2624524 -0.87751967 0.058177311
3.0723953 -0.75623256 0.061820317
2.3104572 -0.46799934 0.070187218
2.3322158 -0.46288908 0.068984665
2.2931573 -0.43717456 0.072742641
2.3034873 -0.42832553 0.072719119
2.3062649 -0.41665214 0.07281784
2.3080711 -0.40474766 0.072930716
2.2984478 -0.38910335 0.074222714
2.2927153 -0.3743856 0.075457714
2.2636244 -0.36225632 0.067941494
2.2886984 -0.36110353 0.076655969
2.2633469 -0.33752075 0.068224341
2.2951374 -0.35132876 0.076689437
2.291105 -0.33803466 0.076887891
2.2612724 -0.32470119 0.069394149
2.2869225 -0.32051709 0.068134606
2.2807138 -0.30773339 0.068353266
2.2786431 -0.29491425 0.069523022
2.2811902 -0.28421348 0.069613487
2.2732813 -0.27000523 0.07086876
2.2702253 -0.25694308 0.071052857
2.2708278 -0.24577977 0.07117179
2.2772651 -0.23600502 0.071205273
2.2829614 -0.22502595 0.071261249
2.2864814 -0.21455683 0.071337454
2.2793138 -0.20155282 0.072570249
2.2906024 -0.19292402 0.071532607
2.2902334 -0.18152928 0.071665749
2.2918079 -0.17059711 0.071770504
2.2856116 -0.15782477 0.072989047
2.2852423 -0.14642975 0.073122181
2.2790353 -0.13364607 0.073340878
2.2728393 -0.12087375 0.07455942
2.2753868 -0.11017298 0.074649885
2.2750182 -0.098778084 0.07478305
2.274646 -0.087383084 0.074916251
2.2674658 -0.074367873 0.075149201
2.2700124 -0.063667312 0.075239621
2.2764535 -0.053892642 0.075273082
2.2692721 -0.040877286 0.075506039
2.2689011 -0.029482272 0.075639218
2.2673271 -0.018828709 0.075778395
2.2679279 -0.0076651825 0.075897366
2.2714493 0.0028038416 0.075973533
2.2662261 0.015344903 0.077177845
2.2687621 0.026056796 0.076268435
2.2652404 0.037173338 0.076436147
2.2668171 0.04810546 0.07654088
2.2632957 0.059221994 0.076708563
4.97019 -0.30119973 0.04326997
4.9980655 -0.27904269 0.042186864
4.9646387 -0.16002688 0.037930585
2.3956113 1.5130346 0.091554068
2.1856267 1.5722587 0.093733899
2.2015169 1.5653608 0.097466499
2.2226951 1.5552065 0.094098151
2.1960626 1.5769281 0.098662622
2.170536 1.6169901 0.091419347
2.4738464 1.5437574 0.09096574
2.4875596 1.5363491 0.094718635
2.4520192 1.564378 0.0904596
2.4490767 1.5866804 0.088746518
2.4383204 1.601516 0.096043721
2.4628811 1.5926132 0.09264905
2.4602277 1.6117549 0.091896951
15.551067 -1.3705182 -0.10232977
15.541973 -1.2923057 -0.099336952
15.250753 -1.1860411 -0.090653576
14.862318 -0.98666579 -0.089756891
15.555819 -1.1393964 -0.09377405
2.4363556 2.0337038 0.099950694
15.550592 -1.0620975 -0.091837801
2.3781528 2.0742948 0.099104971
2.4432564 2.0649705 0.098221183
2.44402 2.1007988 0.094616361
2.4113657 2.1228921 0.10325754
2.4370494 2.1229651 0.10095101
2.4169564 2.1637135 0.10265185
2.4062657 2.1796813 0.095959119
2.370368 2.2488306 0.10117024
2.3768294 2.2801714 0.10344744
2.3855135 2.2781556 0.097320005
2.3706355 2.2929425 0.10466598
2.3835788 2.3001907 0.098592266
2.3787394 2.3269887 0.10495378
2.3439162 2.3579161 0.10271917
2.3462694 2.36761 0.105801
2.3324304 2.3914509 0.10723601
2.336158 2.3988373 0.10127405
16.336683 -0.93360019 -0.097785302
2.3277388 2.4152224 0.10256006
2.3276558 2.4625509 0.1000954
16.355877 -0.85282558 -0.10010235
2.2971423 2.5242834 0.10215793
2.2908752 2.6059563 0.10215562
15.728062 -0.28607714 -0.091192223
15.593201 2.7391706 -0.049394619
15.639799 2.8401549 -0.052811041
15.621593 3.2083488 -0.047432851
15.452461 4.7688313 -0.026777325
15.580727 4.8626513 -0.023250414
15.168617 5.3163862 -0.01619629
15.937195 5.2938728 -0.027640723
15.839813 5.3509402 -0.022831045
15.130829 5.9821792 -0.0062209498
15.133488 5.9846225 -0.0052249786
15.102882 6.0936799 -0.0056268051
15.086458 6.1027889 -0.012328616
15.015409 6.30056 -0.0042435555
15.436041 6.6990304 -0.0087710833
15.93675 7.0578322 -0.0077032861
15.923138 7.082654 -0.0072601801
15.869295 7.2537751 -0.0056827273
14.398685 7.8246875 0.01835241
14.481575 7.8964362 0.019172136
15.012281 10.159966 0.042404197
2.0189669 -5.4014187 0.02392751
2.0255575 -5.4040232 0.024819395
2.1358709 -5.3768344 0.025807837
2.1648548 -5.3672781 0.024569154
2.1841016 -5.351316 0.026519638
2.160161 -4.9683957 0.032132909
2.2306349 -4.9399223 0.02961169
2.3870158 -4.9781585 0.027309818
2.423389 -4.9765449 0.027893333
2.7902055 -4.9857087 0.0234037
2.3858566 -4.8278437 0.033022687
2.4335423 -4.7137713 0.03174125
2.961417 -4.789011 0.024579281
2.9736805 -4.6686063 0.028793547
2.9735622 -4.5955825 0.027619885
3.2080941 -4.4869356 0.027043346
3.2863407 -4.4603004 0.02340834
3.3442304 -4.4761233 0.021537207
3.3701582 -4.471014 0.024285357
3.5550132 -4.4543443 0.021263273
3.6597688 -4.3857498 0.022786036
3.7477641 -4.4087029 0.016473822
3.7650759 -4.3963637 0.015406124
3.6912751 -4.3695455 0.015591477
3.798707 -4.3807969 0.023181025
