# .PCD v0.7 - Point Cloud Data file format
VERSION 0.7
FIELDS x y z
SIZE 4 4 4
TYPE F F F
COUNT 1 1 1
WIDTH 1456
HEIGHT 1
VIEWPOINT 0 0 0 1 0 0 0
POINTS 1456
DATA ascii
3.0261164 -8.5566759 -0.48732793
0.74765587 -1.9130315 -0.98291755
0.80314267 -2.0756087 -0.99015647
3.0618939 -8.6437817 -0.056458786
0.82387733 -2.1345804 -0.94909817
5.6555495 -16.213032 0.34682807
0.91033369 -2.3885262 -0.9758147
5.6696105 -16.237711 0.7510035
0.93792093 -2.4674325 -0.9321233
5.9446669 -17.023218 1.2167267
1.0379971 -2.7608347 -0.94955337
6.499341 -18.62174 1.7999203
1.2008659 -3.239398 -1.0041418
1.3278677 -3.6109974 -1.0080049
1.4777488 -4.0493488 -1.0078785
6.8078604 -19.46064 3.3587141
1.6057345 -4.4222937 -0.97409528
10.202098 -29.287853 5.8140364
1.8496188 -5.1358838 -0.98151529
5.9813476 -17.024788 3.8146286
0.53877306 -1.3132356 -0.94599223
0.57520044 -1.421204 -0.95851672
3.0488915 -8.7264061 -1.1562123
0.60251707 -1.5014877 -0.9512316
0.80267483 -2.0645099 -0.27933487
0.65056086 -1.6440306 -0.97128153
1.0411837 -2.7679174 -0.27518845
0.68548971 -1.7468073 -0.96491867
2.9942875 -8.5379658 -0.48571044
0.74396735 -1.9201363 -0.98515373
0.79728013 -2.0776045 -0.99007511
3.0516133 -8.6895361 -0.056132376
0.81369311 -2.1241498 -0.94422865
5.6190076 -16.246595 0.34789124
0.90124935 -2.3836129 -0.97316235
5.6252661 -16.248587 0.75141472
0.92739522 -2.4589155 -0.92845303
6.1782613 -17.858374 1.2780178
1.0242337 -2.7452106 -0.94393748
6.5404367 -18.904356 1.826838
1.1507586 -3.1195145 -0.97010356
1.319844 -3.6198967 -1.0092511
5.960031 -17.163864 2.5215526
1.4766871 -4.0827765 -1.0143738
5.8851986 -16.92701 2.9161782
1.6131461 -4.4841337 -0.98539853
10.118803 -29.297525 5.8117814
1.7513804 -4.8899713 -0.93786913
5.9581785 -17.105003 3.8298192
0.53901154 -1.3297162 -0.95474446
1.9216936 -5.4484148 -0.89133722
0.57021821 -1.4228841 -0.95844805
3.0159411 -8.720747 -1.153972
0.59059274 -1.4828739 -0.94039172
0.79813963 -2.0744455 -0.27998057
0.64431512 -1.6442288 -0.97034758
0.67206007 -1.7262681 -0.95426583
2.975152 -8.5718279 -0.48653924
0.73799723 -1.9240972 -0.98583376
1.0117033 -2.7047894 -0.12825927
0.78673667 -2.0693634 -0.98561358
3.0428042 -8.755826 -0.05573684
0.80001789 -2.1069429 -0.93660939
5.550787 -16.214741 0.34738743
0.89205486 -2.3827138 -0.97177225
5.5722823 -16.262239 0.75194144
0.94014704 -2.5251346 -0.94918841
6.3562498 -18.575277 1.3304105
0.99997205 -2.702668 -0.93003947
6.4987278 -18.979364 1.833065
1.1849118 -3.2570584 -1.0069072
5.813498 -16.927845 2.0548115
1.3036647 -3.6109765 -1.0058599
1.4676669 -4.1002707 -1.0170978
5.6227098 -16.328247 2.8098145
1.579304 -4.4312453 -0.97372979
5.8884091 -17.096832 3.3802872
1.1941031 -3.2700891 -0.65624428
5.9342628 -17.214226 3.8509641
0.5335021 -1.327879 -0.9527247
1.9174526 -5.4915919 -0.89666671
0.56441748 -1.4210969 -0.95650661
2.9895911 -8.7295437 -1.1536111
0.57741612 -1.4590075 -0.92686617
0.78894091 -2.0691192 -0.27914608
0.62608308 -1.606482 -0.95059735
0.95791227 -2.5769951 -0.26047802
0.66644931 -1.7281412 -0.954189
2.9535928 -8.5937691 -0.48683256
0.73523611 -1.9366935 -0.99037123
0.77548307 -2.0574076 -0.97970414
0.79152381 -2.1038344 -0.93446636
5.5033445 -16.234795 0.34814841
0.85855889 -2.3059978 -0.94351912
5.5227752 -16.276665 0.75251794
0.88995022 -2.3989832 -0.90679049
0.97887564 -2.6671453 -0.91835594
5.7227941 -16.843048 1.6213857
1.1741593 -3.2586088 -1.0062622
5.8179054 -17.110668 2.0759583
1.2821317 -3.5832863 -0.99786949
6.3991046 -18.831877 2.7652569
1.4409484 -4.0617523 -1.0073713
9.9020414 -29.282419 5.0547767
1.6056492 -4.557138 -0.99758261
9.9139118 -29.287506 5.8001976
1.1857426 -3.2791221 -0.65707666
0.52959466 -1.3291713 -0.95267147
2.0307856 -5.8880205 -0.95425177
0.56297082 -1.4308764 -0.96114212
2.9811635 -8.782548 -1.1588569
0.57590401 -1.4689208 -0.9312942
0.78118479 -2.065392 -0.27850899
0.60646248 -1.561561 -0.92743719
0.94197422 -2.552846 -0.2584337
0.66486341 -1.7402135 -0.95899922
2.9406109 -8.6317329 -0.48800236
0.73030525 -1.9402682 -0.99106663
0.76794618 -2.054014 -0.97744316
9.7469482 -29.282991 -0.04957813
0.78384507 -2.100435 -0.93233496
5.4728398 -16.287003 0.34967282
0.86320215 -2.3423834 -0.95558536
5.4827433 -16.300421 0.75357211
0.91508836 -2.4992609 -0.93885869
13.364492 -40.146065 2.9234481
0.97145951 -2.6695979 -0.91825497
6.8420482 -20.378214 1.9688352
1.0406091 -2.8788743 -0.90089834
6.4053655 -19.037937 2.3122702
1.2705134 -3.5809791 -0.99635327
6.1572757 -18.269379 2.6800599
1.4298873 -4.0654106 -1.0072207
9.808382 -29.259352 5.047389
1.5322675 -4.3743873 -0.96043694
5.6173029 -16.604959 3.2775235
1.1803862 -3.2933657 -0.658898
5.7821536 -17.083382 3.8156676
0.52278751 -1.3240615 -0.94869035
2.0514278 -6.0167294 -0.97204745
0.55742204 -1.4308355 -0.96013594
2.2289944 -6.5580959 -0.88460916
0.57891095 -1.4961495 -0.94468117
0.77535057 -2.0714939 -0.27878445
0.61202818 -1.5977843 -0.94447118
0.93461019 -2.5594573 -0.25859511
0.661659 -1.7508774 -0.96298254
0.98914558 -2.724385 -0.199359
0.72031963 -1.9318861 -0.98635572
0.76097631 -2.0562968 -0.9773488
9.6568155 -29.320934 -0.04832232
0.77672565 -2.1027672 -0.93223858
5.4129744 -16.279261 0.34976292
0.85300738 -2.3377471 -0.95292026
5.4252825 -16.300325 0.75343382
0.9248268 -2.5583525 -0.957205
5.5741043 -16.73889 1.1929791
0.96137261 -2.6688557 -0.91703302
6.7568216 -20.336979 1.9635626
1.1615579 -3.2871983 -1.0120652
5.7803259 -17.33424 2.1008005
1.2712898 -3.6237309 -1.0058718
6.0669689 -18.190592 2.6663446
1.3895537 -3.9859812 -0.98835605
5.6783524 -16.987448 2.9176717
1.5494331 -4.4763145 -0.97946805
9.7272034 -29.295143 5.792882
0.51286936 -1.3071131 -0.93786186
1.8605474 -5.4810481 -0.89212382
0.55243587 -1.4305955 -0.95913768
0.57427239 -1.4976536 -0.94461876
0.76905638 -2.073535 -0.27869982
0.61418909 -1.6217903 -0.95552409
0.92878503 -2.5676386 -0.25890869
0.65300214 -1.7421583 -0.9580338
0.9712224 -2.6965926 -0.19776973
0.70331663 -1.8985931 -0.97087353
0.75421244 -2.0565317 -0.97653824
5.3426638 -16.235615 -0.051756561
0.76982307 -2.1030293 -0.93146998
5.3614254 -16.277061 0.34995809
0.83568275 -2.3075073 -0.94131428
9.6232815 -29.438997 1.3993658
0.92475218 -2.58447 -0.96484303
5.8935733 -17.887417 1.2772912
0.95345706 -2.6714225 -0.91692656
5.6152825 -17.010258 1.6351084
1.1395712 -3.2516105 -1.0013133
6.2037964 -18.806965 2.2807879
1.2257775 -3.5177786 -0.97854346
1.3988198 -4.0549612 -1.0027304
9.6174765 -29.269699 5.0416384
1.1410052 -3.2450044 -0.73534054
5.4969974 -16.575964 3.2666469
1.7349306 -5.0949693 -0.96795273
0.51550585 -1.3300761 -0.95053744
1.8909508 -5.6314659 -0.91328824
0.55061281 -1.4404565 -0.96376926
4.9975939 -15.394066 -1.963393
0.56109411 -1.4718469 -0.93020517
0.76275527 -2.0755589 -0.27861559
0.60487872 -1.6095899 -0.94861537
0.92110246 -2.5701058 -0.25880599
0.63674533 -1.7089936 -0.94170773
0.94738841 -2.6496897 -0.195259
0.70197648 -1.9145323 -0.97695732
0.9331404 -2.6021826 -0.1248899
0.7496857 -2.0638559 -0.97863656
5.2998347 -16.259876 -0.051139683
0.76517981 -2.1104434 -0.93343526
9.6350985 -29.79163 0.68480605
0.82023829 -2.2826128 -0.9316296
9.5184832 -29.397118 1.3971059
0.90846235 -2.5596213 -0.95581037
13.032143 -40.325214 2.9329658
0.94321787 -2.6666334 -0.91461849
5.536694 -16.930925 1.6264273
1.1451919 -3.3026459 -1.0143355
5.9397225 -18.167814 2.2007656
1.2466052 -3.6194272 -1.0028237
5.2532005 -16.014267 2.3406844
1.3740429 -4.0177121 -0.99344116
9.5154696 -29.236132 5.0323448
1.1374058 -3.2668049 -0.73890859
5.467412 -16.64533 3.2780252
1.7351661 -5.1467161 -0.97585237
5.4411716 -16.546207 3.6865106
0.50747079 -1.3198222 -0.94362402
0.54063594 -1.4250952 -0.95432436
4.9276485 -15.332927 -1.9535214
0.55887866 -1.4819304 -0.93462515
0.75485849 -2.0738909 -0.27815595
0.58409691 -1.5611826 -0.92374516
0.91473413 -2.5784123 -0.25911358
0.62901914 -1.7037804 -0.93838328
0.93717384 -2.6466489 -0.19487022
0.68869138 -1.8935782 -0.96686494
0.9098013 -2.5571516 -0.12363095
0.74584162 -2.0748539 -0.98218369
5.2558551 -16.290649 -0.050484955
0.75898635 -2.1143854 -0.9340288
9.5334053 -29.779909 0.68499678
0.77801132 -2.1727538 -0.89188898
9.4179039 -29.385075 1.3963076
0.90436059 -2.5749505 -0.95986986
12.92618 -40.409157 2.937933
0.93424052 -2.6674705 -0.91395646
5.6075544 -17.330481 1.6647912
1.1366413 -3.3114567 -1.0157161
1.1923474 -3.4855552 -0.9685874
5.3587289 -16.512712 2.4127803
1.1129392 -3.2282214 -0.81690043
9.4259663 -29.258385 5.0325351
5.4434843 -16.743683 3.2950039
1.7223651 -5.1611423 -0.9772619
5.4019356 -16.595634 3.6946721
0.49644342 -1.2995263 -0.93083709
1.8118031 -5.4986238 -0.89174616
0.53901839 -1.4367146 -0.95989078
4.9006491 -15.408071 -1.9603209
0.5581789 -1.4971431 -0.94173539
0.74638504 -2.0702949 -0.27751189
0.58109379 -1.5697094 -0.92709804
0.90356797 -2.5714684 -0.25831231
0.626692 -1.7160078 -0.94318569
0.92758119 -2.6454794 -0.1945748
0.68421221 -1.9007932 -0.96909422
0.92613453 -2.6379538 -0.12540486
0.73426628 -2.0609176 -0.97555369
5.2015796 -16.288864 -0.049847543
0.75000846 -2.109329 -0.93120682
5.2198882 -16.330448 0.35205874
0.79900157 -2.2654808 -0.92376488
9.3126955 -29.357456 1.3947502
0.89341503 -2.5683875 -0.95678651
5.4274726 -16.95747 1.2070966
0.92413008 -2.6646056 -0.91219437
1.1143163 -3.275883 -1.0049622
5.6049595 -17.486183 2.1142111
1.1815178 -3.4889636 -0.96844447
5.5160856 -17.185707 2.5105972
1.3271903 -3.9545581 -0.97734511
9.3138561 -29.208849 5.0203652
5.6095505 -17.445513 3.4313817
1.7065642 -5.1661158 -0.97705334
5.5593505 -17.267942 3.8419948
0.5039624 -1.3391954 -0.95330226
1.8350601 -5.6303744 -0.91012335
0.53403425 -1.4364176 -0.95889401
4.7360144 -15.028651 -1.911864
0.55664891 -1.5088543 -0.94705522
0.74126816 -2.0760608 -0.2777997
0.5862273 -1.60409 -0.94328046
0.89646393 -2.5757718 -0.25834998
0.6198439 -1.7123992 -0.94067907
0.92262948 -2.6574855 -0.19493218
0.68059444 -1.909654 -0.97209823
0.91824585 -2.6404119 -0.12530139
0.72750878 -2.0610719 -0.97474539
0.74584973 -2.1185 -0.93385595
0.79664081 -2.2820959 -0.92879015
9.223546 -29.362217 1.3948025
0.88801539 -2.5780699 -0.95906699
12.716062 -40.560692 2.9467759
0.91341043 -2.6578763 -0.90933913
1.096205 -3.2511244 -0.99725282
5.5755301 -17.566099 2.1227784
1.1262133 -3.3451519 -0.93193132
6.2205877 -19.615091 2.8678575
1.3145381 -3.9544027 -0.97636455
9.2260818 -29.2176 5.0185204
1.4609407 -4.4260755 -0.96454924
9.2382927 -29.225794 5.7581024
1.6852897 -5.1500058 -0.97329819
0.50076258 -1.3438327 -0.95520556
1.7841909 -5.5217013 -0.89327347
0.52956283 -1.4377971 -0.95883578
4.6605744 -14.933424 -1.8981295
0.55094641 -1.5068719 -0.94520092
0.73204893 -2.068485 -0.27679196
0.57972503 -1.6004199 -0.94065106
0.89401418 -2.5953195 -0.25949594
0.61512715 -1.715767 -0.9414233
0.91235036 -2.6522934 -0.19446015
0.6689437 -1.8919996 -0.96355444
0.91093677 -2.6447594 -0.12524426
0.7207557 -2.0612054 -0.97393757
5.1077352 -16.311676 -0.048646718
0.74055856 -2.1240668 -0.93513888
0.79145104 -2.2896469 -0.93061876
5.1345778 -16.365061 0.75596207
0.8847819 -2.595053 -0.96372771
12.597331 -40.580616 2.9471378
0.89827275 -2.6363873 -0.90208298
5.7088499 -18.193687 1.7468942
1.1175729 -3.3559098 -1.0249298
1.1701537 -3.52509 -0.97554451
5.2625432 -16.71072 2.4372892
1.3058816 -3.9673111 -0.97828865
9.1313343 -29.203463 5.0127659
1.4589969 -4.4657583 -0.97139829
9.1498985 -29.2325 5.7554688
1.589892 -4.890276 -0.92780709
0.49305329 -1.3352457 -0.94927049
1.7651767 -5.5233636 -0.89248765
0.52151668 -1.4291724 -0.95314312
4.5437226 -14.717768 -1.8695419
0.54518545 -1.5067616 -0.94423616
0.72728199 -2.0782688 -0.27744049
0.5777843 -1.6142452 -0.94656372
0.90204567 -2.6533647 -0.26339671
0.61338848 -1.7315842 -0.94784611
0.90517527 -2.6607509 -0.19462094
0.65932047 -1.8833576 -0.95885205
0.90378255 -2.6532152 -0.12526608
0.71323168 -2.0615544 -0.97312033
5.0582199 -16.335161 -0.0479711
0.73820817 -2.1424727 -0.94119239
5.0702596 -16.357754 0.35351244
0.78536719 -2.2974482 -0.93243629
0.8728267 -2.5867243 -0.96004552
12.481781 -40.661785 2.9518929
0.88394785 -2.6206565 -0.89646721
1.1104112 -3.3722591 -1.0283246
6.3399897 -20.450279 2.4739261
1.1440052 -3.4801641 -0.96342516
1.2957193 -3.9806411 -0.98019421
5.5374994 -17.7827 3.0403776
1.4042211 -4.3365626 -0.94499695
1.5802729 -4.9159126 -0.93115973
5.1514931 -16.484858 3.6589055
0.48372847 -1.3180226 -0.93845206
1.7587887 -5.5563312 -0.89645356
0.51983249 -1.4389076 -0.95777875
4.5651784 -14.931267 -1.8935411
0.54131353 -1.509799 -0.94507658
0.72079247 -2.0781496 -0.27717942
0.57874364 -1.6347318 -0.95590729
0.90894437 -2.703388 -0.26675975
0.60842389 -1.7330842 -0.94778222
0.93390459 -2.7835565 -0.20032105
0.65866208 -1.9009119 -0.96571058
0.89692378 -2.6573765 -0.12521605
0.70740503 -2.0633149 -0.97304541
8.8998461 -29.266735 -0.039577544
0.73003429 -2.1370878 -0.93838304
0.78753185 -2.3284702 -0.94257873
8.6641808 -28.423855 1.3481836
0.85259509 -2.5449643 -0.94567448
12.389035 -40.741909 2.9567881
0.88431382 -2.6486678 -0.90407497
1.0934385 -3.3490868 -1.0211308
6.1507139 -20.019827 2.4198465
1.1439003 -3.51476 -0.97112739
5.3437471 -17.331816 2.5257478
1.2770493 -3.9576681 -0.97424936
8.9612026 -29.255157 5.0149627
1.4469228 -4.5228405 -0.98065144
5.1635094 -16.700497 3.2748065
1.6273793 -5.1222906 -0.96559393
0.47906834 -1.3194157 -0.93839252
1.7441744 -5.5731049 -0.8978864
0.51282442 -1.4336281 -0.95396316
4.5166941 -14.941615 -1.8924737
0.53605139 -1.5113724 -0.94500929
0.71481967 -2.0840921 -0.27745837
0.57561606 -1.6451027 -0.96010894
0.6009264 -1.7296034 -0.94526905
0.6490705 -1.8922194 -0.9610098
0.88741857 -2.6581311 -0.1250563
0.70406324 -2.0779276 -0.97804201
8.7930403 -29.246485 -0.038425386
0.72754961 -2.1554887 -0.94443601
0.77064323 -2.2998929 -0.93161529
8.6443176 -28.686268 1.3609022
0.82581645 -2.4852097 -0.92534059
12.270435 -40.814846 2.960968
0.88954902 -2.6992834 -0.91826302
5.1590095 -16.951565 1.6224054
1.0774934 -3.335676 -1.0164423
5.8549504 -19.262373 2.3255286
1.1477193 -3.5704985 -0.98386574
5.3355937 -17.505814 2.5496569
1.2624397 -3.95591 -0.97284001
8.8399582 -29.188425 4.9998784
1.4049604 -4.4348574 -0.96237922
5.2772198 -17.273657 3.3853493
1.5426123 -4.8963141 -0.92593431
0.47684681 -1.327348 -0.94225496
1.798192 -5.8173842 -0.93258882
0.50299627 -1.4162716 -0.94359159
4.4784856 -14.96742 -1.8935558
0.53087628 -1.5110388 -0.94405329
0.70569044 -2.0764091 -0.27645391
0.56956196 -1.6431224 -0.9583354
0.87439841 -2.6491342 -0.26225725
0.59310395 -1.7223877 -0.94114083
0.97426242 -2.9862449 -0.20955752
0.64998502 -1.9169739 -0.97094142
0.87778342 -2.6547263 -0.12481905
0.69676757 -2.0761995 -0.97650951
4.9105663 -16.356333 -0.046177745
0.72107005 -2.1574054 -0.9443537
4.9251428 -16.388613 0.35503742
0.76164925 -2.2946482 -0.92897218
8.6279955 -28.928596 1.3726567
0.82905668 -2.5240762 -0.93714243
8.7380056 -29.270712 2.1104064
0.89066774 -2.7330408 -0.92751104
5.2639432 -17.483263 1.6737112
1.068804 -3.3422821 -1.0173285
5.7863746 -19.230871 2.3203897
1.1536131 -3.6296453 -0.99753779
6.1018729 -20.275721 2.9560146
1.2585993 -3.9856102 -0.97849715
8.7474556 -29.178741 4.9950657
1.4279051 -4.5613103 -0.98620075
8.7588625 -29.185883 5.7302132
1.5168566 -4.8607101 -0.91896611
4.9967933 -16.490269 3.6523986
0.47649023 -1.3419908 -0.95003217
1.8040609 -5.9002848 -0.94373357
0.49761468 -1.4141656 -0.94166058
4.4291115 -14.954964 -1.8900216
0.52619624 -1.5124086 -0.94399422
0.6988278 -2.0763426 -0.27618957
0.56352282 -1.6411221 -0.95656228
0.82143116 -2.4962447 -0.25096878
0.59636086 -1.7538079 -0.95488101
0.97042692 -3.006103 -0.21027188
0.63250685 -1.8778511 -0.95316905
0.6899991 -2.0762391 -0.97570407
0.71303189 -2.1538823 -0.94222379
0.75164479 -2.2857285 -0.92505217
8.6143045 -29.184484 1.3850805
0.83472282 -2.5721586 -0.95191586
4.901021 -16.443396 1.1660426
0.88576186 -2.7464991 -0.93070841
5.0657911 -16.989374 1.6245565
1.017803 -3.2019534 -0.97830963
6.1566892 -20.697514 2.4986196
1.1451764 -3.6402278 -0.99924457
5.0570049 -16.923084 2.4608541
1.2291164 -3.9269645 -0.96467423
8.6500769 -29.151737 4.9873147
1.3950779 -4.4971867 -0.97275293
8.6747484 -29.204365 5.7301393
1.5674988 -5.0885563 -0.95692724
4.9162889 -16.389513 3.6275444
0.46966183 -1.3348894 -0.94508278
1.6607134 -5.4675107 -0.87982225
0.50105625 -1.4444344 -0.95754105
2.0041842 -6.6603131 -0.88526911
0.52170318 -1.5155714 -0.94482827
0.69212472 -2.078284 -0.27610555
0.5601266 -1.6496356 -0.95991355
0.78815198 -2.4103305 -0.24451834
0.59563243 -1.7730464 -0.96293056
0.96040756 -3.0069246 -0.21006148
0.63498026 -1.9098066 -0.96617395
0.68284357 -2.0763714 -0.97489434
8.5111904 -29.216436 -0.035324931
0.70512593 -2.1522579 -0.94077229
8.5236063 -29.228714 0.67544234
0.74281955 -2.2823648 -0.9230445
4.8402081 -16.435955 0.75890255
0.82086313 -2.5543048 -0.94527274
11.950345 -41.027012 2.9734383
0.87922448 -2.7564001 -0.93279952
1.0401289 -3.3183827 -1.0089935
6.1016917 -20.740326 2.5024328
1.1333554 -3.6416245 -0.9986431
5.0192599 -16.983498 2.4682074
1.2395178 -4.0095053 -0.98192602
8.571413 -29.207386 4.9936213
1.218235 -3.9303725 -0.86118484
8.5870714 -29.229755 5.7312384
1.5128485 -4.9564362 -0.93346608
4.8826442 -16.458311 3.640264
0.46241283 -1.3260796 -0.93915582
1.6871458 -5.6247716 -0.9017601
0.49628234 -1.4458016 -0.95748156
4.3292012 -14.944458 -1.8845171
0.51719666 -1.5187218 -0.94566244
0.68541682 -2.0802052 -0.27602202
0.55474406 -1.6511772 -0.95984656
0.77609712 -2.3971798 -0.24331862
0.58693618 -1.7641301 -0.95798689
0.94547719 -2.9904184 -0.20902716
0.6347881 -1.9329048 -0.97533
0.67468983 -2.072892 -0.97263259
8.3981953 -29.151018 -0.034309924
0.69571501 -2.1451757 -0.93727386
4.7780633 -16.422867 0.35666153
0.71866763 -2.224225 -0.90187532
8.4632645 -29.317381 1.391318
0.79679245 -2.4996228 -0.92673993
0.87315792 -2.7681386 -0.93544048
1.0381873 -3.3511467 -1.0169449
5.0639901 -17.351444 2.0867429
1.095145 -3.5493124 -0.9750452
5.0843334 -17.403629 2.5284472
1.2154491 -3.9716237 -0.97265685
8.4560423 -29.135746 4.9781013
1.3620608 -4.4862399 -0.96871924
8.4776306 -29.179333 5.717474
1.5395316 -5.1089339 -0.95847589
0.46102113 -1.3373512 -0.9449755
1.6293211 -5.4805741 -0.87997293
0.4913179 -1.4453721 -0.95648849
4.3492832 -15.178288 -1.9107586
0.51344556 -1.5235008 -0.94739676
0.67748541 -2.0762432 -0.27539027
0.54871345 -1.6491269 -0.95807493
0.76943201 -2.4011416 -0.24336742
0.581065 -1.7638937 -0.95710826
0.92255211 -2.9429235 -0.20653646
0.63385248 -1.9523572 -0.98295087
0.85910082 -2.7142057 -0.12558442
0.66595852 -2.0656817 -0.96892399
4.7257113 -16.432467 -0.043776363
0.68926489 -2.1470029 -0.93719411
0.7266897 -2.2790778 -0.92031473
8.3970661 -29.398424 1.3951701
0.76686221 -2.4207747 -0.90048867
0.88557917 -2.8445647 -0.95732772
1.0278568 -3.3520615 -1.0163186
5.0159445 -17.369183 2.0878177
1.0826867 -3.5447497 -0.97307736
5.0128751 -17.339483 2.5175819
1.2323034 -4.0766635 -0.9948833
8.3759565 -29.166639 4.9804215
8.390378 -29.185667 5.7151499
1.4673917 -4.9078188 -0.92340982
5.0596976 -17.44714 3.854723
0.45630035 -1.3386734 -0.94491756
1.5313041 -5.195365 -0.8376987
0.48347956 -1.4365596 -0.95080185
4.2910719 -15.155393 -1.9057851
0.50813997 -1.5249869 -0.94733155
0.67198318 -2.083988 -0.27585647
0.54016232 -1.6402551 -0.95287842
0.7618435 -2.405339 -0.24340551
0.56682807 -1.7356141 -0.94323146
0.87208015 -2.7993762 -0.19946137
0.62525654 -1.9470962 -0.97979206
0.85587853 -2.7379489 -0.12596866
0.65993387 -2.071239 -0.9702903
8.2240009 -29.200069 -0.032163143
0.68249553 -2.1508512 -0.93778723
0.71399683 -2.2629509 -0.91383415
0.75873291 -2.4230514 -0.90038884
0.85166705 -2.7582085 -0.93082869
1.0234832 -3.3794124 -1.0227462
1.0870521 -3.6061876 -0.98718834
4.9826918 -17.444595 2.5314198
1.2179381 -4.0766239 -0.9938913
8.2720976 -29.152695 4.9747171
1.3046387 -4.3860064 -0.94736594
8.2901516 -29.185165 5.7110882
1.5029659 -5.0987258 -0.95486087
4.7514658 -16.564575 3.6563005
0.45172146 -1.3363221 -0.9429158
0.48186252 -1.446174 -0.955441
4.1895871 -14.93201 -1.8771981
0.50354612 -1.5244046 -0.94638503
0.66591817 -2.0836024 -0.27560449
0.53481025 -1.637985 -0.95111579
0.75657642 -2.4109392 -0.24360389
0.56742841 -1.7563106 -0.9521051
0.60660028 -1.8986262 -0.95819122
0.82058823 -2.6377616 -0.12349365
0.64131802 -2.0241876 -0.95061737
4.6360221 -16.469929 -0.042628288
0.67831326 -2.1578627 -0.93976533
4.636569 -16.454218 0.35818177
0.71004945 -2.2719114 -0.91631603
0.75891924 -2.4487603 -0.90803885
0.86623919 -2.8399749 -0.95437378
4.8683238 -17.237825 1.6450471
0.98175913 -3.2604444 -0.98982787
1.0819391 -3.6237628 -0.99075401
5.0803213 -17.964151 2.6064339
1.1704634 -3.9435914 -0.96394849
5.1715384 -18.272831 3.1071486
1.2618968 -4.2734222 -0.92474604
1.4776006 -5.0565991 -0.94695497
4.7165909 -16.598597 3.6618128
0.4402937 -1.3123244 -0.92818332
1.5561922 -5.4062891 -0.86664921
0.47181049 -1.4287783 -0.94506919
4.0710597 -14.682284 -1.8450445
0.50053841 -1.5344985 -0.9508009
0.65775645 -2.0817096 -0.27514946
0.5296126 -1.6412846 -0.95190144
0.75156325 -2.4247265 -0.24433136
0.56610596 -1.7756252 -0.96014988
0.60631388 -1.9235896 -0.96811152
0.80594063 -2.6189704 -0.1228913
0.63540459 -2.0296731 -0.95198625
4.5721226 -16.441818 -0.042032987
0.66907001 -2.1525984 -0.93694758
4.5868807 -16.478205 0.35905728
0.70386446 -2.2795019 -0.91813868
8.1156836 -29.387251 1.3942608
0.76011389 -2.4860535 -0.91923165
4.6053562 -16.51013 1.1685055
0.85679984 -2.8425617 -0.95425934
0.98106062 -3.3007679 -0.99979222
1.071053 -3.6307824 -0.99152899
5.0125999 -17.941643 2.6015263
1.1555196 -3.9395726 -0.96213567
4.9127293 -17.558088 2.9826775
1.2981751 -4.4632263 -0.96069199
4.9106913 -17.531286 3.4182591
1.4627422 -5.0668111 -0.94772446
4.6749582 -16.654625 3.6716423
0.4361676 -1.3134423 -0.92813361
0.46466598 -1.4197313 -0.93939221
3.9905872 -14.547655 -1.827032
0.49761388 -1.5427008 -0.95432776
0.65246582 -2.0872693 -0.27544188
0.5259521 -1.647897 -0.95440346
0.74583292 -2.4324801 -0.24465659
0.55975562 -1.773558 -0.95846105
0.81335032 -2.6808162 -0.19322306
0.60755819 -1.9519435 -0.97957748
0.79810661 -2.6210928 -0.12279695
0.6392861 -2.0691659 -0.96715897
0.66019124 -2.1452653 -0.93345839
0.69509345 -2.2740235 -0.91550267
4.5504398 -16.510487 0.76214838
0.75516003 -2.497288 -0.92211378
11.251493 -41.285965 2.986577
0.83605093 -2.7983742 -0.94042182
0.97188503 -3.3052585 -1.0001804
1.0534412 -3.6073213 -0.98496664
1.1400248 -3.9275525 -0.95868582
7.9976025 -29.119442 4.9604316
1.2578634 -4.3641696 -0.94063967
8.0147905 -29.15056 5.6940136
1.4547611 -5.0955572 -0.95174408
4.5249624 -16.289976 3.5886898
0.43291467 -1.3179255 -0.93004072
0.4571301 -1.4089464 -0.93277889
3.9424453 -14.531756 -1.8233157
0.49239606 -1.5422473 -0.95337468
0.64510661 -2.0851173 -0.27499762
0.51587474 -1.6300029 -0.94494689
0.74262542 -2.4498644 -0.24566993
0.55157489 -1.7643957 -0.95352644
0.59978294 -1.9463812 -0.97643077
0.63210618 -2.0672309 -0.96563244
4.4781809 -16.462984 -0.040921539
0.65612137 -2.1560869 -0.93679219
4.4926748 -16.499441 0.36007902
0.68635768 -2.2685151 -0.91286761
0.76275891 -2.5565393 -0.94044536
11.122577 -41.268867 2.9844298
0.80479676 -2.7131767 -0.91450125
0.96121401 -3.3041101 -0.99905527
4.5306444 -16.569239 1.9849483
1.0488622 -3.6327293 -0.99035549
1.104642 -3.8397982 -0.93868107
7.9072094 -29.110975 4.9561968
1.2642897 -4.4397817 -0.95448732
1.3987026 -4.943017 -0.92510939
4.460896 -16.236267 3.574625
0.43327808 -1.3376791 -0.94074851
0.45509446 -1.4204518 -0.93834627
3.8938627 -14.524072 -1.820495
0.48688486 -1.5418571 -0.95241868
0.63635671 -2.0791936 -0.27418107
0.51190031 -1.6366676 -0.94744587
0.73886138 -2.4673734 -0.24667725
0.55041277 -1.7836124 -0.96157438
0.59582663 -1.9569784 -0.98020113
4.4242158 -16.476942 -0.44337702
0.63201195 -2.0942454 -0.97571641
0.65111643 -2.1651919 -0.93943882
0.64965749 -2.1566699 -0.87320662
7.8494692 -29.406841 1.3949227
0.77865869 -2.651104 -0.97005683
10.978413 -41.222431 2.9800944
0.81752402 -2.7973378 -0.9385702
3.987896 -14.736515 1.3981721
0.95968932 -3.3405499 -1.0080149
1.0317098 -3.6131084 -0.98470753
1.1095349 -3.9073236 -0.95261085
7.8137884 -29.111217 4.9533215
1.2540983 -4.4567151 -0.9569034
7.818624 -29.097054 5.6767015
1.3710693 -4.8992887 -0.91686404
4.3711629 -16.096142 3.5413713
0.43026942 -1.3456787 -0.94460529
1.4934162 -5.4332442 -0.86725318
0.45141581 -1.4268928 -0.94109863
3.8418236 -14.513039 -1.8171889
0.47976422 -1.5363265 -0.94877219
0.63074809 -2.0868363 -0.27464944
0.50802279 -1.6451588 -0.95079535
0.73153502 -2.4734144 -0.24685395
0.54564536 -1.7905276 -0.96393687
4.361567 -16.468954 -0.84213585
0.58825189 -1.9551429 -0.97858477
10.838479 -41.40052 -1.0182261
0.62261373 -2.0870717 -0.97200352
0.64798433 -2.183501 -0.94549102
0.66161609 -2.2338672 -0.89928842
7.7311988 -29.334528 1.3912774
0.77976382 -2.6922681 -0.98242813
4.2242465 -15.851854 1.1187472
0.83018917 -2.8854625 -0.9637264
0.94964463 -3.3471782 -1.008894
1.0188754 -3.6124408 -0.98364884
7.7487926 -29.27276 4.2540178
1.1172216 -3.9902594 -0.96983886
7.7153292 -29.112494 4.9504967
1.2238884 -4.3995948 -0.94494784
7.7271466 -29.125042 5.6785364
1.3660016 -4.9454989 -0.9237721
0.42207879 -1.3297775 -0.93477821
1.4679726 -5.3948097 -0.86100423
0.44853768 -1.4331117 -0.94386083
3.8059206 -14.53258 -1.8178902
0.47531116 -1.5374775 -0.94872004
0.62480736 -2.0883718 -0.27457985
0.50152123 -1.6393677 -0.94732386
0.74241066 -2.5447936 -0.25171855
0.54142034 -1.7953955 -0.96549988
0.87065721 -3.041733 -0.20940213
0.57548416 -1.9279314 -0.96621829
10.749567 -41.506111 -1.0187374
0.61124766 -2.066911 -0.96322495
4.3292589 -16.48749 -0.039220005
0.63861239 -2.1723299 -0.94064498
4.3453336 -16.531805 0.36165464
0.65393883 -2.2299788 -0.8973003
7.6642818 -29.395153 1.3941776
0.72867161 -2.5220327 -0.92709643
4.1712146 -15.82023 1.1161246
0.81747741 -2.8688855 -0.95814085
0.94093162 -3.3514292 -1.0092907
1.0056325 -3.6017907 -0.98031735
1.1179299 -4.0385809 -0.97964072
7.6268997 -29.088476 4.9438944
1.2332981 -4.4865012 -0.96100867
4.7259355 -17.87088 3.4744906
1.3301781 -4.8609786 -0.90878147
4.7123084 -17.797964 3.9127111
0.4122006 -1.3088945 -0.92201239
0.4365775 -1.4051651 -0.92787743
3.7594638 -14.532147 -1.8160028
0.46681803 -1.5248824 -0.94149578
0.61758167 -2.0881622 -0.2743175
0.4961684 -1.6407354 -0.94726157
0.76026392 -2.6493793 -0.25890264
0.5329597 -1.7862372 -0.96056366
7.1609077 -27.907915 -1.3772825
0.56660044 -1.9187676 -0.96153331
4.2763119 -16.50486 -0.44144979
0.59831703 -2.0432858 -0.95298791
4.2797818 -16.500132 -0.038644224
0.63440949 -2.1850471 -0.9446559
0.64866793 -2.2391508 -0.89977008
7.5724549 -29.402121 1.3944403
0.62613678 -2.1461277 -0.80583584
0.81735641 -2.9066288 -0.96846974
3.8606691 -14.783809 1.401019
0.93003321 -3.3522165 -1.008665
7.558773 -29.250998 3.5237212
0.986875 -3.5744386 -0.97283858
1.0911493 -3.9848359 -0.96708584
4.5923743 -17.59342 2.9784975
1.2171001 -4.4804945 -0.95900738
7.5440049 -29.094992 5.6663189
1.3663841 -5.0676751 -0.9427833
7.5759902 -29.186419 6.4226065
0.40559876 -1.2997652 -0.91609699
1.398073 -5.2511101 -0.8388204
0.43429103 -1.414854 -0.93251121
3.7160769 -14.532853 -1.8143791
0.46294978 -1.5295476 -0.94323242
0.60930908 -2.0820343 -0.27350873
0.48595452 -1.6209308 -0.93695658
0.7542904 -2.6591184 -0.25936025
0.52489495 -1.7769607 -0.95563233
0.74384457 -2.61426 -0.18891209
0.55990034 -1.9166504 -0.95992869
4.2316642 -16.52438 -0.44108933
0.56897098 -1.9507421 -0.91518205
0.6264959 -2.1812272 -0.94253439
0.6396783 -2.2316453 -0.89650202
4.2585368 -16.576107 0.76507723
0.75627762 -2.7002378 -0.98274344
4.1026654 -15.938499 1.1241421
0.80739367 -2.9031937 -0.9667235
3.8304286 -14.840729 1.4060156
0.91881853 -3.3490591 -1.0070388
0.98205972 -3.599745 -0.97822875
1.064464 -3.9269917 -0.95371675
7.4443893 -29.079868 4.9370461
1.1946374 -4.4456148 -0.95149595
7.4516726 -29.075739 5.6594539
1.3522476 -5.0732794 -0.94293684
7.4877071 -29.184498 6.4185438
0.40820542 -1.3296813 -0.93267155
1.3947793 -5.3070517 -0.84608895
0.43416718 -1.4349169 -0.94276273
3.6715865 -14.539852 -1.8134195
0.45539963 -1.5203724 -0.93780124
0.60354429 -2.0875773 -0.27379921
0.47767493 -1.609948 -0.93091887
0.7190659 -2.5527446 -0.25158048
0.51913452 -1.7783972 -0.95556623
7.3277283 -29.277046 -1.4376535
0.5554691 -1.925367 -0.96293247
4.1830697 -16.540619 -0.44060957
0.55608505 -1.9251438 -0.90422595
0.61553097 -2.1665218 -0.9363181
4.1948857 -16.551224 0.36290467
0.63480949 -2.2426271 -0.89961052
4.2092147 -16.590462 0.76574385
0.69342571 -2.4797189 -0.91138536
0.78870296 -2.8662319 -0.95508963
3.7924576 -14.878928 1.4091618
0.90931797 -3.3554177 -1.0079274
0.96996647 -3.5987482 -0.97718221
1.0383385 -3.8730061 -0.94117135
7.347599 -29.063334 4.9315166
1.1570467 -4.3516612 -0.93257046
7.3591576 -29.076532 5.6563611
1.2415061 -4.6899667 -0.87765718
7.3981547 -29.198767 6.4178772
0.40740672 -1.3460482 -0.94142163
1.3794702 -5.3149018 -0.84645581
0.42941988 -1.4360857 -0.94270861
3.6270809 -14.546719 -1.8124633
0.44915223 -1.5163856 -0.9350577
0.59633666 -2.0873008 -0.27353871
0.47282803 -1.613004 -0.93171269
0.72040153 -2.5935133 -0.25423059
0.51209188 -1.7744836 -0.95306695
0.54668468 -1.9161206 -0.95825022
4.1287117 -16.533409 -0.43960044
0.55205572 -1.935733 -0.90778303
4.1364059 -16.546177 -0.036960036
0.60289854 -2.14446 -0.92737627
0.62677479 -2.2407014 -0.89825314
4.163168 -16.618259 0.76707339
0.70079046 -2.5447781 -0.93148434
0.78061169 -2.872185 -0.95608509
3.7471576 -14.888031 1.4094843
0.89660418 -3.3485816 -1.0052878
0.95651251 -3.5920374 -0.97475946
1.0337259 -3.9063847 -0.94765037
4.7576141 -18.93503 3.202354
1.17468 -4.4829645 -0.95707011
7.2624531 -29.059866 5.64991
1.2140573 -4.6398067 -0.86847097
0.40052879 -1.3369474 -0.93550414
0.42426503 -1.4355202 -0.94171822
3.5825729 -14.55345 -1.8115104
0.44662514 -1.5280422 -0.94037408
0.58820575 -2.0831287 -0.27291149
0.47004527 -1.6248481 -0.93677533
0.71356469 -2.6013355 -0.25454867
0.50675917 -1.7776611 -0.95381296
0.73623013 -2.6922653 -0.19198468
0.54221284 -1.9248084 -0.96125454
0.75110763 -2.7507167 -0.12446565
0.54410142 -1.9299947 -0.90481055
0.78396356 -2.8834534 -0.053585701
0.59387499 -2.1369784 -0.92389029
0.61700487 -2.2313719 -0.8943451
4.1137109 -16.632339 0.76773334
0.68258345 -2.503999 -0.91773796
3.7590494 -15.149932 1.0654564
0.78006923 -2.9099216 -0.96641219
3.9215426 -15.802573 1.4978834
0.84442866 -3.1760304 -0.95828784
0.93858707 -3.5663457 -0.96774763
1.0143673 -3.8788702 -0.94089925
7.165236 -29.073414 4.9279442
1.1595186 -4.4805813 -0.95581061
1.2839687 -4.9945493 -0.92726392
0.39738637 -1.3412905 -0.93741548
1.361184 -5.3743448 -0.85355854
0.41687211 -1.4227571 -0.93417764
3.5431867 -14.55882 -1.8106188
0.43854117 -1.5134308 -0.93226558
0.58319581 -2.088428 -0.27321213
0.46535978 -1.6259732 -0.9367227
0.70766169 -2.6089089 -0.25487778
0.50125897 -1.7771019 -0.95294482
0.72777313 -2.6901867 -0.19171876
0.5350613 -1.9189299 -0.95811915
0.53861487 -1.9313122 -0.90474892
0.76895565 -2.8562043 -0.053532898
0.57453662 -2.0816782 -0.90269148
0.77555078 -2.8803923 0.019747406
0.60942852 -2.2273426 -0.8923611
0.81662518 -3.0486107 0.10134095
0.69483244 -2.5874794 -0.94378042
0.74866015 -2.8126364 -0.93723333
0.86099774 -3.2855067 -0.98692065
0.93016303 -3.574374 -0.96901494
1.005132 -3.8871248 -0.94202042
1.1351385 -4.431848 -0.94574267
4.2543154 -17.295424 3.3507247
1.2909348 -5.0842266 -0.94160664
0.39213768 -1.3389492 -0.93541026
1.3560271 -5.4264641 -0.8602699
0.41255647 -1.4255968 -0.93506169
3.5013838 -14.576902 -1.8110514
0.43316025 -1.5128691 -0.93131477
0.57509381 -2.0842092 -0.27258626
0.462075 -1.6360463 -0.9409315
0.7021153 -2.6225283 -0.25560707
0.49385518 -1.7713424 -0.9496361
0.73341811 -2.7525022 -0.1944322
0.52431113 -1.9006051 -0.94959742
0.73332512 -2.7487919 -0.12414941
0.53281254 -1.9346033 -0.90540481
0.75074929 -2.8194129 -0.053483441
0.54666698 -1.9916674 -0.86853766
0.76827681 -2.890337 0.020044968
0.60104311 -2.2234871 -0.89036858
0.79415363 -2.9964526 0.098777711
0.69271094 -2.6154621 -0.95199978
0.75810736 -2.8934119 -0.96018338
0.85865813 -3.321866 -0.99587834
0.92216223 -3.5902762 -0.97210383
1.0011094 -3.9242785 -0.9493255
4.1915555 -17.283222 2.9163308
1.1134554 -4.4006228 -0.9389708
6.9922442 -29.041897 5.637465
1.2614336 -5.0283356 -0.93144989
7.0247183 -29.144156 6.3916016
0.38767463 -1.339994 -0.93536079
0.40744594 -1.4249781 -0.93407291
3.4545755 -14.573575 -1.8089601
0.42699403 -1.5088023 -0.92857367
0.56971467 -2.0916045 -0.27306232
0.45713139 -1.6390609 -0.94172585
0.69333988 -2.6225333 -0.25537801
0.48648828 -1.7655566 -0.94632852
0.71793061 -2.7253478 -0.19297767
0.52023292 -1.9110419 -0.95337141
0.7291382 -2.7703073 -0.12449436
0.52699405 -1.9378797 -0.90606117
0.73050159 -2.7728009 -0.053450339
0.54696018 -2.0224965 -0.87937123
0.74327153 -2.8243194 0.018429533
0.59183902 -2.2159073 -0.88710159
0.78015769 -2.9792109 0.097928077
0.70961106 -2.7272348 -0.98692721
3.7571592 -15.736734 1.1075712
0.73743004 -2.8449206 -0.94526756
0.84052193 -3.2903314 -0.98669308
0.90448159 -3.5644257 -0.96509725
4.136559 -17.303051 2.4911799
0.99073106 -3.9347475 -0.95084411
6.8929896 -29.044661 4.9157152
1.0473912 -4.1758218 -0.89506459
6.8992281 -29.037432 5.6335874
1.2682028 -5.1281142 -0.94737774
14.74464 -62.401524 13.696064
0.38309109 -1.3392618 -0.93433708
1.478783 -6.1137981 -0.95694923
0.40531874 -1.4363515 -0.9396432
3.4081736 -14.559825 -1.8057529
0.42427269 -1.5186085 -0.93299848
0.5620327 -2.0872469 -0.27244216
0.45051026 -1.633165 -0.93825644
0.68416983 -2.6185079 -0.25488138
0.47869384 -1.7560991 -0.94140339
0.69909877 -2.6804845 -0.19071691
0.51767695 -1.9267932 -0.9594543
0.70926201 -2.7215426 -0.12325753
0.52070934 -1.9374186 -0.90527129
0.71238756 -2.7318265 -0.053418584
0.54580951 -2.0459201 -0.88748169
0.72231388 -2.7717035 0.017147079
0.58685571 -2.2248404 -0.889579
0.75427926 -2.9072766 0.094396502
0.70237947 -2.7328258 -0.98802537
3.6731939 -15.575953 1.0955485
0.72690183 -2.8374832 -0.94243187
0.82274812 -3.2566943 -0.97701353
0.88631505 -3.53266 -0.95672417
0.98101634 -3.9450247 -0.95237094
6.8047571 -29.03669 4.9120407
1.003002 -4.036767 -0.86772591
6.8114247 -29.031496 5.6296453
1.239835 -5.0718637 -0.93723607
0.37900302 -1.3419837 -0.93526584
1.4084398 -5.8880572 -0.923949
0.40018731 -1.435709 -0.93865496
3.3636823 -14.565893 -1.8048176
0.42004856 -1.52324 -0.93473428
0.5544228 -2.0848966 -0.27200192
0.4471283 -1.6432118 -0.94246542
0.67629743 -2.6223495 -0.25492746
0.47418046 -1.7627535 -0.94377387
0.5102731 -1.9227992 -0.95708174
0.68166733 -2.6396484 -0.12127064
0.51244867 -1.9297432 -0.90157723
0.69268191 -2.6850362 -0.053392842
0.56700248 -2.1722302 -0.93374628
0.70468581 -2.7347083 0.016259573
0.57728952 -2.2153561 -0.88567603
0.73005092 -2.8431351 0.091247767
0.69170779 -2.7254641 -0.98496455
0.72260368 -2.8601618 -0.94836926
3.5760837 -15.347653 1.4510365
0.81302178 -3.2608972 -0.9774065
0.87662154 -3.5408597 -0.95798069
0.95769936 -3.8981569 -0.94149703
6.7101979 -29.023846 4.907433
1.046904 -4.2909021 -0.91574264
6.7181621 -29.024546 5.6253796
1.220405 -5.058073 -0.93416983
0.37231046 -1.3327581 -0.92935258
1.3218595 -5.582665 -0.87966746
0.39431167 -1.431596 -0.93579429
3.3170319 -14.562126 -1.8027385
0.41580063 -1.5278615 -0.93647045
0.54769564 -2.0864091 -0.27192909
0.44214937 -1.6461854 -0.94326079
0.66580719 -2.6144819 -0.25415382
0.47197241 -1.7801147 -0.95100963
0.680354 -2.6765347 -0.19017062
0.50052953 -1.9079565 -0.9501009
0.50782609 -1.9384247 -0.90441048
0.67587525 -2.6498666 -0.053353988
0.55966514 -2.171953 -0.93298984
0.68292105 -2.678123 0.014876574
0.56168514 -2.1780622 -0.87221146
0.71624589 -2.8237159 0.090293407
0.67206192 -2.6770258 -0.96885091
3.6426964 -15.879444 1.1172032
0.71528333 -2.869693 -0.95046616
3.5582051 -15.484324 1.4637942
0.80286074 -3.2631817 -0.97729647
0.86059397 -3.5205202 -0.95235735
0.94986707 -3.9199755 -0.94549698
6.6192436 -29.026094 4.9054327
1.0128734 -4.1998181 -0.89759105
6.626729 -29.024963 5.6225958
1.2143002 -5.1039562 -0.94108129
0.36802334 -1.3319222 -0.92833298
1.2966377 -5.5395632 -0.87289387
0.38790575 -1.4221565 -0.93013114
1.691164 -7.3319221 -0.94651985
0.41324934 -1.5375875 -0.94089824
0.54261029 -2.0916176 -0.2722317
0.43436167 -1.6330912 -0.93638307
0.6584841 -2.616107 -0.25407508
0.46880898 -1.7901802 -0.95500892
0.63937116 -2.5259972 -0.18304706
0.49198508 -1.8947207 -0.94389731
0.65942651 -2.6138861 -0.12044174
0.50074142 -1.9323593 -0.90145081
0.65595287 -2.594877 -0.053357311
0.54160649 -2.1181779 -0.91248488
0.66377228 -2.6270752 0.013626538
0.56639498 -2.229445 -0.88935727
0.69584537 -2.7688999 0.087603599
0.71060932 -2.8864911 -0.9547686
0.78977215 -3.2462604 -0.97216308
3.4314671 -15.089357 1.7924786
0.867531 -3.5987427 -0.97059929
0.94877124 -3.9663217 -0.95488083
6.5411434 -29.037365 4.9052777
6.5426078 -29.009415 5.6170855
1.1650715 -4.9450359 -0.91390723
3.5566716 -15.578911 3.4002466
0.36285976 -1.3294805 -0.92633092
1.314412 -5.7039852 -0.89557368
0.38063425 -1.411085 -0.92352682
3.2365694 -14.587996 -1.8027763
0.40560171 -1.5264461 -0.93457896
0.53502059 -2.0892022 -0.27179328
0.4282755 -1.6307207 -0.93461949
0.6446861 -2.5925753 -0.25221086
0.46338984 -1.7932388 -0.9557578
0.64149517 -2.57462 -0.18512678
0.48472095 -1.8906404 -0.94152772
0.64687401 -2.5961661 -0.11991467
0.49645951 -1.9428378 -0.90500951
0.64429569 -2.5810506 -0.05329261
0.53600848 -2.1251781 -0.91445625
0.64478099 -2.5800653 0.01248204
0.56245792 -2.245832 -0.89438087
0.67514831 -2.716171 0.085016638
0.61500967 -2.4881532 -0.90757591
3.4481354 -15.419795 1.0831289
0.62940186 -2.551842 -0.85650367
3.5286546 -15.77016 1.4905853
0.78940195 -3.293895 -0.98414236
3.3838754 -15.089616 1.7917899
0.84696054 -3.5574126 -0.95993268
0.93733895 -3.9728324 -0.95557588
3.1605945 -14.035159 2.3566675
0.98268867 -4.1782866 -0.89218616
6.4513283 -29.009289 5.6142869
1.1782082 -5.0795684 -0.93561912
3.4516916 -15.325621 3.3429732
0.36091512 -1.3423961 -0.93312508
1.3448317 -5.9325013 -0.92733175
0.37956586 -1.4293957 -0.93283969
3.1903768 -14.585773 -1.8009372
0.40021655 -1.525779 -0.93363088
0.52786416 -2.0887098 -0.27153873
0.42405826 -1.6371827 -0.93712276
0.60935736 -2.4675176 -0.24324983
0.45683056 -1.7909139 -0.95407492
0.64249939 -2.6193709 -0.18702382
0.48127645 -1.9046084 -0.94683951
0.62898856 -2.552979 -0.11882035
0.49326903 -1.9587816 -0.91074312
0.63565904 -2.5808692 -0.053208545
0.52301538 -2.0972042 -0.90348524
0.64243484 -2.6092081 0.013260879
0.55764604 -2.258507 -0.89812917
0.6577065 -2.6770186 0.083096206
0.60398006 -2.4749026 -0.90274692
0.68096882 -2.8358567 -0.93867344
0.77994323 -3.2998979 -0.98504084
3.3421655 -15.116906 1.7943858
0.83147985 -3.5388474 -0.954772
3.0910287 -13.935361 1.9951612
0.93236965 -4.0099406 -0.96287745
6.3531308 -29.011616 4.8963342
0.98123056 -4.2349167 -0.90233529
6.3592625 -29.005045 5.6107349
1.1593624 -5.067482 -0.93288141
3.3722644 -15.18271 3.3099656
0.35670504 -1.3432924 -0.93308079
1.256577 -5.5968547 -0.87897331
0.37475654 -1.4286126 -0.93185663
3.1492462 -14.59453 -1.8005047
0.39405036 -1.5197772 -0.93000144
0.52234143 -2.0939579 -0.27183819
0.41939083 -1.6400259 -0.93792301
0.45025921 -1.7867051 -0.95158547
0.63343114 -2.6151731 -0.18667112
0.48036286 -1.9293472 -0.95676249
0.61761934 -2.5370004 -0.11834642
0.4949019 -1.9965488 -0.92517912
0.62006474 -2.5453374 -0.053185172
0.52739501 -2.1501033 -0.92249066
0.62219512 -2.552191 0.011859022
0.55434668 -2.2766538 -0.90379375
0.63271284 -2.5985985 0.079250187
0.59777242 -2.4820826 -0.90444893
3.2752175 -15.048823 1.0555705
0.68161243 -2.8809485 -0.95119649
3.3317938 -15.297182 1.4437892
0.77066559 -3.3038516 -0.98544258
3.2997003 -15.127977 1.7950718
0.82591432 -3.5639164 -0.96016479
3.0489612 -13.93217 1.9938895
0.91951019 -4.0066762 -0.96151638
6.2654619 -29.002037 4.8926144
0.96450746 -4.2163663 -0.89816576
6.2715759 -28.995584 5.6063752
1.1467748 -5.0802526 -0.93433553
3.4488492 -15.752255 3.4331226
0.35369572 -1.3528383 -0.93791741
1.2633301 -5.7209311 -0.89584976
0.36974987 -1.4296627 -0.93180442
3.1033559 -14.606187 -1.8002511
0.39160171 -1.534911 -0.93710518
0.51559412 -2.0974085 -0.27194658
0.41516098 -1.648306 -0.94127631
0.57092845 -2.3614314 -0.23544674
0.44303575 -1.7826161 -0.94908977
0.61976051 -2.5935435 -0.18549874
0.47452268 -1.9343461 -0.95822978
0.60987765 -2.5427108 -0.11834446
0.50077987 -2.0600715 -0.94975364
0.6082167 -2.5314746 -0.053120494
0.52614379 -2.1811073 -0.93331194
0.61113334 -2.542254 0.01165171
0.55351317 -2.3116944 -0.9151842
0.61905068 -2.5769699 0.07819055
0.58983755 -2.4856982 -0.90495509
3.2329721 -15.086222 1.0580673
0.67436397 -2.8942602 -0.95438612
3.3074822 -15.424346 1.4556307
0.69902384 -3.0103579 -0.90678865
3.2595754 -15.176981 1.8002759
0.82479018 -3.6178584 -0.97241944
0.91785288 -4.0650101 -0.97334969
6.1701136 -29.005909 4.8909564
0.94716811 -4.2019243 -0.89471716
6.1749864 -28.993763 5.6032333
1.1227155 -5.046978 -0.92805535
3.3570094 -15.565705 3.3905072
0.34706953 -1.341735 -0.93103343
1.19745 -5.4816928 -0.86128068
0.36771914 -1.4427156 -0.93831104
3.0629697 -14.618592 -1.8002831
0.38685513 -1.5358921 -0.93705606
0.50683647 -2.0870163 -0.27078289
0.40725622 -1.6351628 -0.93439931
0.55742562 -2.3316219 -0.23319167
0.43400282 -1.7658131 -0.94092816
0.59997916 -2.5364263 -0.1827186
0.47048065 -1.94461 -0.96200854
0.59783977 -2.5227394 -0.11778599
0.49456784 -2.0613556 -0.94968933
0.59901404 -2.525208 -0.053054564
0.51476538 -2.1584966 -0.92439079
0.59626019 -2.5085788 0.010838076
0.54884499 -2.3242743 -0.91893584
0.60447609 -2.5453043 0.076638907
0.58281189 -2.4891012 -0.9054715
3.1970835 -15.128269 1.060935
0.66467941 -2.8903699 -0.95265317
3.2541261 -15.386579 1.4515487
0.72319299 -3.1753423 -0.94999003
3.216135 -15.183933 1.8004866
0.79952997 -3.5475392 -0.95489293
0.90292978 -4.0521078 -0.96992582
6.0850358 -29.00738 4.8891859
0.92909735 -4.1755466 -0.88908339
6.0871086 -28.981831 5.5984855
1.1026504 -5.0229058 -0.9234044
6.0947614 -28.982653 6.3241262
0.34252474 -1.34088 -0.93001306
1.1902581 -5.5276351 -0.86717153
0.36527702 -1.4540354 -0.94388109
0.38383448 -1.5456347 -0.94148111
0.5012846 -2.0922127 -0.27108359
0.40117767 -1.6308632 -0.93178868
0.55119032 -2.3369648 -0.23339206
0.43073857 -1.7776741 -0.94573575
0.58486807 -2.5007637 -0.18093169
0.46100426 -1.9276947 -0.95426977
0.58670866 -2.5066419 -0.11731636
0.48726359 -2.0571365 -0.94745117
0.58627969 -2.5012686 -0.053018652
0.50681078 -2.1524413 -0.92160022
0.58673906 -2.5003164 0.010667287
0.54928553 -2.3628795 -0.93160719
0.59524399 -2.5390301 0.076333284
0.57539755 -2.490612 -0.90539533
3.1903558 -15.314908 1.0743635
0.65577179 -2.8902221 -0.95201737
3.2259917 -15.471559 1.4593673
0.704014 -3.1278901 -0.93680698
3.1508837 -15.08372 1.7877609
0.78649247 -3.5362885 -0.95157832
2.9722552 -14.188656 2.0286732
0.88501078 -4.0238047 -0.96320254
2.9683681 -14.15211 2.3712716
0.92237973 -4.2050047 -0.8940984
6.0020847 -28.983114 5.5963421
1.0702995 -4.9368277 -0.90847188
3.3543282 -16.003464 3.4831719
0.33732417 -1.336585 -0.92703891
1.1501197 -5.4084029 -0.84967923
0.35840118 -1.4427977 -0.9372831
1.4572085 -6.9506764 -0.89637846
0.37189579 -1.5097204 -0.9226433
0.49415752 -2.0895815 -0.27065313
0.39789 -1.6407491 -0.93600237
0.55776405 -2.4068773 -0.23808837
0.42496511 -1.7769687 -0.94486988
0.44313756 -1.8672403 -0.92810571
0.48177457 -2.0620418 -0.94883734
0.5025056 -2.1648145 -0.92561978
0.57374614 -2.474376 0.010048084
0.53420687 -2.3233674 -0.91751915
0.56908345 -2.4977248 -0.90709841
0.6431632 -2.8711743 -0.94590133
0.66866511 -2.9967906 -0.90148211
0.77201992 -3.5173531 -0.94643235
2.9327393 -14.200632 2.0296469
0.87028712 -4.0107937 -0.95978254
5.9095383 -28.982494 4.8810387
0.91093659 -4.2113142 -0.89470804
5.9159517 -28.978371 5.5930719
1.0652421 -4.986166 -0.91603845
5.9258375 -28.990892 6.3203568
0.32999408 -1.3238039 -0.91917509
0.35169408 -1.4351159 -0.93255222
2.9325614 -14.636657 -1.7980533
0.36831108 -1.5195463 -0.92706335
0.48816374 -2.0968575 -0.27112925
0.39323637 -1.6472015 -0.93850362
0.54426718 -2.3810704 -0.23609966
0.41645575 -1.7656049 -0.93913555
0.56355453 -2.4764891 -0.17951231
0.44406065 -1.9065908 -0.9441632
0.56187952 -2.4646959 -0.11615527
0.46774286 -2.0268135 -0.93427354
0.56685007 -2.4867861 -0.052886613
0.49482942 -2.1644156 -0.92486477
0.52136481 -2.2988522 -0.90852165
0.56670028 -2.4795349 0.073420942
0.56216288 -2.506882 -0.9093852
3.0850549 -15.266727 1.070443
0.62705624 -2.8390677 -0.93594027
3.0711899 -15.177574 1.4300568
0.67932022 -3.1051788 -0.92956299
3.0353332 -14.977135 1.7736274
0.72897661 -3.3571835 -0.90736997
2.899261 -14.269825 2.0388374
0.83331704 -3.8904335 -0.93324792
5.8125057 -28.975542 4.8777122
0.89231032 -4.1889448 -0.88979793
5.8185053 -28.969604 5.588779
1.0177771 -4.8285365 -0.88920939
5.8294525 -28.988028 6.31668
0.32873115 -1.3400506 -0.92792606
1.0770872 -5.2067294 -0.81992447
0.34624675 -1.4307745 -0.92969972
2.8920465 -14.648595 -1.7980969
0.36856851 -1.5468309 -0.94043547
0.48067075 -2.0922294 -0.27051717
0.38616619 -1.6375204 -0.93333572
0.53031504 -2.3471961 -0.23357776
0.4120827 -1.7720448 -0.94151247
0.44102105 -1.9222344 -0.95024651
0.56016141 -2.4955869 -0.11673149
0.46543667 -2.0481529 -0.94218278
0.49077624 -2.1786158 -0.92956519
0.56059051 -2.4912214 0.010556214
0.52509105 -2.3560698 -0.927562
0.55327356 -2.500829 -0.90693903
3.0353608 -15.241854 1.0684477
0.61615038 -2.8274744 -0.93202025
3.0296955 -15.193769 1.4312451
0.66583943 -3.0841396 -0.92343318
2.906034 -14.538949 1.7201654
0.74943405 -3.5178199 -0.94529581
2.8504128 -14.234959 2.0330467
0.83889204 -3.9810598 -0.95210814
5.7307138 -28.991468 4.8785334
0.91229802 -4.3593106 -0.92159998
5.7310309 -28.95661 5.5840011
1.0216616 -4.9243131 -0.90448773
3.2774129 -16.36554 3.557539
0.32458198 -1.3426229 -0.92885852
0.34311822 -1.4403728 -0.93433172
1.403054 -7.0118308 -0.90146363
0.36186191 -1.5390099 -0.93591201
0.47429246 -2.0954802 -0.27063262
0.38015857 -1.6349884 -0.93157685
0.51166201 -2.2898211 -0.2294213
0.40600243 -1.7713486 -0.94064492
0.69682604 -3.262675 -0.2151524
0.42334786 -1.8616883 -0.92408592
0.46160206 -2.0640724 -0.94791377
0.48175368 -2.1688569 -0.92541146
0.51238918 -2.3295493 -0.91793358
0.52042651 -2.3690379 -0.86477488
3.0085759 -15.350581 1.0761952
0.6051473 -2.8178327 -0.9286443
3.0594554 -15.597575 1.4699229
0.64335304 -3.0174975 -0.90522444
2.8763909 -14.62148 1.7295461
0.70185483 -3.3247492 -0.89846379
2.7988901 -14.198464 2.0269938
0.81574231 -3.925719 -0.93961304
5.6482234 -29.031389 4.8833313
0.89523631 -4.3425632 -0.91779739
5.6404204 -28.953976 5.5811329
1.0091209 -4.9407868 -0.9065854
5.6585717 -29.011076 6.3162737
0.31782368 -1.3279152 -0.92002761
1.0553979 -5.2572393 -0.8259483
0.34366691 -1.4672506 -0.94832718
1.3842622 -7.015379 -0.9012779
0.35900605 -1.5486511 -0.94034058
0.46613684 -2.0848594 -0.2694779
0.37446994 -1.6305393 -0.92897195
0.48320335 -2.173357 -0.22119698
0.40126234 -1.7741047 -0.94140512
0.68596584 -3.254559 -0.21461494
0.43269303 -1.9426194 -0.95780653
0.4493714 -2.0303373 -0.93409055
0.47564265 -2.1700106 -0.92535108
0.50448382 -2.3233244 -0.91532159
2.9370184 -15.213873 0.6981771
0.52625525 -2.4379175 -0.88604665
3.0689077 -15.895447 1.1157819
0.56311405 -2.6339376 -0.87487543
2.9678826 -15.339301 1.4445916
0.65226144 -3.1123402 -0.92979318
0.72850776 -3.5198219 -0.9446336
0.80146587 -3.9084985 -0.93538356
2.7806993 -14.291197 2.3900561
0.88379282 -4.3467255 -0.91804767
5.5589848 -28.943363 5.5770369
0.99719453 -4.9510756 -0.90773779
0.31185693 -1.3201492 -0.91509998
1.0510728 -5.3245378 -0.83485883
0.33851352 -1.466411 -0.94734401
1.3300072 -6.8395424 -0.88002419
0.35107875 -1.5337501 -0.93224037
0.45940992 -2.0861104 -0.26941195
0.37170255 -1.6457746 -0.93574148
0.39648169 -1.780573 -0.94377923
3.1085644 -16.481037 -0.81752181
0.42709726 -1.9474171 -0.95928031
8.003314 -43.034443 -1.0070459
0.43888351 -2.0095341 -0.92533332
0.46804512 -2.1675973 -0.92392176
3.1825061 -16.818861 0.37492236
0.50081569 -2.3452184 -0.9222542
0.50114799 -2.3434982 -0.85574573
