# .PCD v0.7 - Point Cloud Data file format
VERSION 0.7
FIELDS x y z
SIZE 4 4 4
TYPE F F F
COUNT 1 1 1
WIDTH 2471
HEIGHT 1
VIEWPOINT 0 0 0 1 0 0 0
POINTS 2471
DATA ascii
6.888 0.621 1.1
6.137 0.569 1.184
5.555 0.531 1.268
7.293 0.68 1.037
6.482 0.62 1.145
5.824 0.572 1.228
6.878 0.669 1.1
6.132 0.612 1.185
5.552 0.571 1.269
7.28 0.729 1.037
6.474 0.665 1.145
5.812 0.612 1.227
6.843 0.713 1.096
6.126 0.655 1.185
5.547 0.61 1.27
7.279 0.78 1.038
6.469 0.711 1.146
5.807 0.654 1.228
6.847 0.762 1.098
6.114 0.697 1.185
5.542 0.65 1.27
7.278 0.83 1.04
6.464 0.756 1.147
5.796 0.694 1.228
6.841001 0.809 1.099
6.106 0.74 1.185
5.534 0.689 1.271
7.264 0.879 1.04
6.458 0.801 1.148
5.792 0.735 1.229
6.838 0.856 1.101
6.105 0.783 1.187
5.527 0.729 1.271
7.255 0.929 1.04
6.453 0.846 1.149
5.784 0.776 1.229
6.832 0.904 1.102
6.1 0.826 1.188
5.525 0.768 1.273
7.242001 0.978 1.041
6.443 0.891 1.15
5.779 0.817 1.23
6.822001 0.951 1.102
6.093 0.869 1.189
5.518 0.808 1.274
7.238 1.028 1.042
6.435 0.935 1.15
5.776 0.858 1.232
6.818 0.999 1.104
6.087 0.912 1.191
5.508 0.847 1.274
7.23 1.078 1.044
6.431 0.981 1.152
5.768 0.899 1.233
6.805 1.045 1.104
6.079 0.955 1.192
5.505 0.887 1.276
7.219 1.127 1.044
6.431 1.027 1.155
5.766 0.941 1.235
6.798 1.093 1.106
6.081 1.0 1.194
5.504 0.927 1.279
7.213 1.177 1.046
6.423 1.072 1.156
5.759 0.982 1.236
6.794 1.141 1.108
6.075 1.043 1.196
5.484 0.965 1.277
7.202 1.227 1.047
6.405 1.115 1.155
5.755 1.024 1.238
6.783 1.187 1.108
6.068 1.086 1.197
5.471 1.003 1.277
7.204 1.278 1.05
6.404 1.162 1.158
5.75 1.066 1.24
6.777 1.235 1.11
6.057 1.128 1.198
5.465 1.043 1.278
7.191 1.327 1.051
6.383 1.204 1.157
5.737 1.105 1.24
6.782001 1.285 1.114
6.055 1.172 1.201
5.448 1.081 1.278
7.201 1.381 1.055
6.397 1.253 1.162
5.728 1.146 1.242
6.041 1.214 1.201
5.442 1.12 1.279
7.317 1.455 1.075
6.388 1.298 1.164
5.712 1.186 1.241
6.704 1.367 1.107
6.031 1.256 1.202
5.431 1.159 1.28
7.318 1.508 1.078
6.366 1.34 1.163
5.7 1.226 1.242
6.695 1.414 1.108
6.018 1.298 1.203
5.426 1.199 1.282
7.301 1.558 1.079
6.366 1.387 1.166
5.695 1.267 1.244
6.690001 1.461 1.111
6.007 1.34 1.204
5.417 1.238 1.284
7.301 1.611 1.082
6.35 1.431 1.166
5.684 1.308 1.245
6.68 1.509 1.112
5.999 1.384 1.205
5.402 1.276 1.284
7.283 1.659 1.082
6.34 1.475 1.168
5.674 1.348 1.246
6.668 1.555 1.114
5.986 1.425 1.206
5.398 1.317 1.286
7.356 1.731 1.096
6.33 1.52 1.169
5.664 1.389 1.248
6.695 1.61 1.121
5.977 1.468 1.208
5.388 1.355 1.288
7.341001 1.78 1.098
6.318 1.565 1.171
5.659 1.431 1.25
6.644001 1.648 1.116
5.972 1.512 1.211
5.38 1.395 1.29
7.304 1.825 1.095
6.312 1.61 1.173
5.653 1.473 1.253
6.637 1.695 1.118
5.967 1.556 1.213
5.365 1.433 1.29
7.238 1.862 1.089
6.304 1.655 1.175
5.642 1.513 1.254
6.621 1.74 1.119
5.957 1.599 1.215
5.364 1.474 1.294
7.236001 1.915 1.092
6.292 1.7 1.177
5.629 1.553 1.255
6.615 1.789 1.122
5.945 1.641 1.216
5.355 1.513 1.296
7.198 1.959 1.09
6.285 1.746 1.179
5.619 1.594 1.257
6.606 1.836 1.124
5.933 1.683 1.218
5.342 1.552 1.297
7.086 1.982 1.077
6.254 1.785 1.177
5.62 1.638 1.261
6.629 1.892 1.131
5.92 1.725 1.219
5.331 1.591 1.298
7.045001 2.023 1.074
6.255 1.833 1.181
5.599 1.676 1.261
6.614 1.939 1.132
5.906 1.767 1.22
5.318 1.629 1.299
7.026 2.07 1.074
6.238 1.876 1.181
5.587 1.716 1.262
6.601 1.985 1.134
5.891 1.809 1.221
5.304 1.668 1.3
7.01 2.119 1.076
6.223001 1.919 1.182
5.574 1.756 1.263
6.584 2.03 1.135
5.874 1.849 1.221
5.291 1.706 1.301
6.992 2.166 1.076
6.207 1.963 1.183
5.556 1.794 1.263
6.569 2.076 1.136
5.855 1.889 1.221
5.277 1.743 1.302
6.972 2.213 1.077
6.192 2.007 1.185
5.545 1.835 1.265
6.555 2.123 1.137
5.844 1.932 1.223
5.273 1.785 1.306
6.957 2.262 1.078
6.176 2.05 1.185
5.533 1.875 1.267
6.543 2.169 1.139
5.829 1.973 1.224
5.263 1.824 1.307
6.940001 2.31 1.079
6.161 2.094 1.187
5.519 1.916 1.268
6.518 2.212 1.138
5.818 2.016 1.226
5.248 1.862 1.308
6.927001 2.36 1.081
6.151 2.139 1.189
5.51 1.957 1.27
6.508 2.26 1.141
5.806 2.058 1.228
5.237 1.902 1.31
6.91 2.407 1.082
6.138 2.183 1.19
5.498 1.997 1.272
6.495 2.306 1.142
5.794 2.101 1.229
5.226 1.941 1.312
6.9 2.458 1.084
6.125 2.228 1.192
5.491 2.04 1.274
6.478 2.351 1.143
5.782 2.143 1.231
5.214 1.979 1.313
6.889 2.508 1.086
6.115 2.273 1.194
5.475 2.079 1.275
6.461 2.398 1.144
5.777 2.189 1.234
5.199 2.018 1.315
6.896 2.565 1.091
6.107 2.319 1.196
5.472 2.123 1.279
6.432 2.438 1.143
5.768 2.232 1.236
5.189 2.058 1.317
6.862 2.608 1.089
6.077 2.358 1.195
5.464 2.166 1.281
6.439 2.492 1.148
5.747 2.272 1.236
5.18 2.098 1.319
6.846 2.656 1.09
6.123 2.426 1.208
5.448 2.205 1.282
6.425 2.539 1.149
5.744 2.318 1.24
5.148 2.129 1.316
6.841001 2.709 1.093
6.103 2.468 1.208
5.437 2.246 1.284
6.435 2.596 1.155
5.733 2.362 1.242
5.165 2.181 1.325
6.827 2.759 1.095
6.097 2.516 1.211
5.425 2.288 1.286
6.419 2.641 1.156
5.713 2.401 1.242
5.152 2.219 1.326
6.816 2.81 1.096
6.058 2.55 1.207
5.407 2.326 1.286
6.415 2.693 1.159
5.701 2.445 1.243
5.133 2.256 1.326
6.81 2.863 1.099
6.05 2.597 1.209
5.405 2.372 1.29
6.39 2.735 1.158
5.69 2.488 1.245
5.12 2.295 1.327
6.808 2.919 1.102
6.05 2.649 1.213
5.386 2.41 1.29
6.379 2.784 1.16
5.679 2.532 1.247
5.096 2.329 1.325
6.793 2.968 1.103
6.06 2.704 1.219
5.373 2.451 1.291
6.387 2.841 1.165
5.667 2.576 1.248
5.08 2.367 1.326
6.795001 3.025 1.107
6.018 2.736 1.215
5.368 2.496 1.294
6.382 2.892 1.168
5.663 2.623 1.252
5.07 2.407 1.328
6.785 3.078 1.108
6.001 2.781 1.215
5.362 2.54 1.297
6.364 2.938 1.168
5.653 2.667 1.253
5.059 2.448 1.33
6.772 3.129 1.11
6.057 2.859 1.231
5.344 2.579 1.297
6.353 2.988 1.17
5.646 2.713 1.256
5.049 2.488 1.332
6.772 3.186 1.113
6.013 2.89 1.225
5.335 2.622 1.299
6.346 3.039 1.172
5.639 2.76 1.258
5.04 2.53 1.334
6.765 3.24 1.115
5.982 2.927 1.223
5.328 2.667 1.302
6.349 3.095 1.176
5.632 2.806 1.261
5.029 2.57 1.336
6.751 3.292 1.115
5.973 2.975 1.224
5.32 2.711 1.304
6.339 3.145 1.177
5.622 2.851 1.262
5.014 2.609 1.336
6.736001 3.342 1.116
5.956 3.019 1.225
5.309 2.753 1.305
6.325 3.193 1.178
5.607 2.894 1.263
5.015 2.656 1.341
6.73 3.397 1.118
5.939 3.064 1.225
5.293 2.794 1.306
6.323 3.247 1.18
5.6 2.941 1.265
4.992 2.69 1.339
6.716001 3.449 1.118
5.93 3.112 1.226
5.278 2.834 1.306
6.303 3.294 1.18
5.585 2.984 1.265
4.984 2.733 1.341
6.708 3.503 1.119
5.923 3.161 1.228
5.266 2.877 1.307
6.3 3.348 1.182
5.575 3.029 1.266
4.973 2.775 1.343
6.696 3.556 1.12
5.909 3.208 1.229
5.251 2.918 1.307
6.288 3.397 1.183
5.554 3.069 1.265
4.959 2.813 1.343
6.692 3.613 1.121
5.903 3.258 1.23
5.243 2.962 1.309
6.267 3.443 1.181
5.547 3.116 1.267
4.949 2.855 1.344
6.678 3.665 1.121
5.885 3.302 1.229
5.229 3.004 1.309
6.26 3.495 1.182
5.536 3.162 1.268
4.939 2.898 1.345
6.674 3.723 1.123
5.885 3.356 1.232
5.224 3.05 1.311
6.256001 3.55 1.184
5.53 3.21 1.269
4.929 2.939 1.347
6.675 3.783 1.125
5.873 3.404 1.232
5.219 3.097 1.313
6.257 3.608 1.186
5.526 3.259 1.272
4.886 2.961 1.339
6.665 3.838 1.125
5.873 3.458 1.235
5.198 3.135 1.311
6.254 3.664 1.188
5.523 3.31 1.274
4.793 2.952 1.317
6.659 3.895 1.125
5.855 3.502 1.234
5.19 3.18 1.313
6.239 3.712 1.187
5.509 3.354 1.273
4.889 3.059 1.346
6.663 3.958 1.127
5.862 3.562 1.237
5.186 3.228 1.314
6.228 3.764 1.187
5.503 3.403 1.274
4.899 3.115 1.353
6.655 4.015 1.127
5.851 3.61 1.237
5.185 3.278 1.317
6.22 3.817 1.187
5.513 3.463 1.279
4.896 3.162 1.355
6.649 4.073 1.127
5.834 3.655 1.235
5.181 3.326 1.319
6.221 3.876 1.188
5.495 3.504 1.277
4.888 3.205 1.356
6.651 4.136 1.128
5.831 3.709 1.236
5.185 3.381 1.322
6.218 3.933 1.189
5.485 3.551 1.277
4.886 3.253 1.358
6.651 4.198 1.129
5.827 3.762 1.237
5.171 3.423 1.321
6.217 3.991 1.19
5.484 3.605 1.278
4.87 3.293 1.357
6.652 4.261 1.129
5.824 3.817 1.238
5.165 3.47 1.322
6.22 4.052 1.191
5.476 3.653 1.278
4.875 3.346 1.361
6.649 4.322 1.129
5.812 3.865 1.236
5.157 3.517 1.322
6.223001 4.114 1.192
5.475 3.706 1.28
4.865 3.389 1.36
6.667 4.396 1.131
5.822001 3.929 1.239
5.149 3.563 1.322
6.22 4.171 1.192
5.473 3.759 1.28
4.858 3.434 1.361
6.663 4.457 1.131
5.819 3.984 1.24
5.139 3.608 1.321
6.222 4.233 1.192
5.476 3.815 1.282
4.836 3.468 1.356
6.659 4.518 1.129
5.822001 4.043 1.24
5.132 3.656 1.321
6.224 4.294 1.193
5.472 3.867 1.282
4.834 3.517 1.358
6.667 4.587 1.129
5.833 4.107 1.243
5.133 3.708 1.322
6.219 4.351 1.191
5.477 3.926 1.283
4.829 3.564 1.358
6.671 4.654 1.129
5.842 4.172 1.245
5.127 3.756 1.321
6.222 4.414 1.19
5.472 3.976 1.282
4.832 3.616 1.36
6.674 4.72 1.127
5.831 4.222 1.242
5.125 3.808 1.321
6.229 4.48 1.191
5.472 4.032 1.283
4.838 3.671 1.363
6.685 4.792 1.127
5.832 4.28 1.241
5.128 3.862 1.322
6.232 4.543 1.19
5.485 4.097 1.285
4.838 3.722 1.363
6.689 4.86 1.126
5.838 4.343 1.242
5.137 3.921 1.325
6.236 4.606 1.189
5.478 4.147 1.283
4.841 3.776 1.365
6.710001 4.94 1.126
5.847 4.407 1.242
5.149 3.984 1.328
6.242 4.672 1.188
5.485 4.207 1.284
4.846 3.83 1.367
6.737 5.025 1.127
5.846 4.465 1.24
5.141 4.031 1.325
6.257 4.745 1.188
5.489 4.266 1.283
4.848 3.883 1.367
6.732 5.087 1.123
5.864 4.537 1.242
5.141 4.083 1.324
6.271 4.817 1.188
5.49 4.322 1.282
4.849 3.935 1.367
6.748 5.164 1.122
5.864 4.595 1.239
5.141 4.136 1.324
6.294 4.896 1.189
5.488 4.376 1.28
4.862 3.996 1.37
6.756001 5.236 1.119
5.879 4.666 1.239
5.15 4.196 1.324
6.302001 4.965 1.186
5.499 4.441 1.28
4.866 4.051 1.37
6.774 5.316 1.117
5.893 4.735 1.24
5.156 4.254 1.323
6.315001 5.036 1.185
5.509 4.503 1.279
4.863 4.099 1.368
6.801 5.403 1.116
5.914001 4.811 1.24
5.154 4.305 1.321
6.326 5.107 1.183
5.522 4.569 1.279
4.873 4.158 1.368
6.827 5.488 1.115
5.909 4.864 1.235
5.161 4.363 1.32
6.347 5.185 1.181
5.537 4.637 1.279
4.876 4.211 1.367
6.853 5.575 1.113
5.934 4.943 1.235
5.177 4.428 1.321
6.364 5.261 1.179
5.543 4.697 1.276
4.881 4.266 1.366
6.887001 5.669 1.111
5.946 5.012 1.233
5.198 4.499 1.323
6.389 5.343 1.178
5.607 4.806 1.287
4.885 4.319 1.364
6.926 5.767 1.11
5.956 5.078 1.23
5.219 4.57 1.324
6.409 5.421 1.174
5.587 4.844 1.277
4.9 4.382 1.365
6.934 5.839 1.104
5.98 5.156 1.228
5.221 4.623 1.32
6.43 5.5 1.171
5.598 4.908 1.274
4.905 4.436 1.362
6.967 5.932 1.1
5.991 5.223 1.224
5.242 4.693 1.32
6.47 5.596 1.171
5.671 5.027 1.285
4.918 4.496 1.361
6.993001 6.02 1.096
6.007 5.294 1.22
5.253 4.754 1.317
6.504 5.686 1.169
5.638 5.051 1.271
4.936 4.561 1.361
7.016 6.105 1.09
6.038 5.378 1.219
5.26 4.81 1.313
6.52 5.76 1.163
5.628 5.095 1.261
4.946 4.619 1.358
7.067 6.213 1.087
6.065 5.458 1.217
5.286 4.884 1.313
6.548 5.844 1.159
5.678 5.192 1.265
4.962 4.68 1.356
7.108 6.313 1.082
6.092 5.538 1.213
5.352 4.995 1.322
6.58 5.932 1.154
5.715 5.279 1.266
4.977 4.741 1.354
7.14 6.406 1.076
6.122 5.62 1.21
5.332 5.024 1.309
6.627 6.033 1.151
5.717 5.332 1.257
4.995 4.804 1.352
7.193 6.517 1.071
6.15 5.7 1.206
5.339 5.079 1.303
6.663 6.124 1.147
5.743001 5.406 1.253
5.014 4.867 1.349
7.247 6.628 1.067
6.178 5.779 1.2
5.417 5.2 1.313
6.708 6.223001 1.142
5.766 5.478 1.249
5.029 4.926 1.345
7.288001 6.727 1.059
6.22 5.871 1.197
5.432 5.261 1.307
6.746 6.315001 1.136
5.808 5.567 1.247
5.06 4.999 1.344
7.344 6.84 1.052
6.262 5.962 1.193
5.429 5.303 1.297
6.784 6.406 1.129
5.833 5.638 1.241
5.082 5.062 1.34
7.397 6.949 1.045
6.324 6.073 1.192
5.453 5.37 1.291
6.834 6.508 1.123
5.871 5.721 1.237
5.115 5.136 1.339
7.466001 7.073 1.039
6.36 6.157 1.186
5.481 5.439 1.286
6.885 6.609 1.116
5.908 5.803 1.232
5.137 5.197 1.333
7.525001 7.187 1.029
6.392 6.237 1.178
5.511 5.511 1.282
6.935 6.709 1.109
5.948 5.885 1.227
5.171 5.269 1.33
7.592 7.307 1.021
6.448 6.338 1.173
5.549 5.588 1.277
6.988 6.811 1.101
6.002 5.982 1.225
5.206 5.341 1.327
7.663001 7.43 1.012
6.497 6.431 1.166
5.595 5.672 1.274
7.061 6.932 1.095
6.05 6.07 1.219
5.237 5.408 1.321
7.826 7.642 1.014
6.549 6.527 1.159
5.645 5.76 1.272
7.114 7.031 1.086
6.102 6.162 1.214
5.263 5.467 1.314
8.037001 7.902 1.02
6.621 6.641 1.154
5.69 5.841 1.266
7.191 7.152 1.078
6.153 6.25 1.208
5.301 5.538 1.31
7.974 7.891 0.991
6.679 6.739 1.146
5.739 5.923 1.261
7.259 7.264 1.068
6.204 6.337 1.2
5.336 5.603 1.303
2.344 2.333 0.285
6.748 6.847 1.14
5.79 6.008 1.257
7.354001 7.401 1.062
6.259 6.428 1.193
5.387 5.684 1.299
2.35 2.353 0.278
6.787 6.923 1.126
5.841 6.089 1.25
7.664001 7.753 1.085
6.301 6.502 1.183
5.441 5.765 1.296
2.355 2.371 0.272
6.849 7.02 1.116
5.883 6.159 1.241
7.749001 7.878 1.073
6.368001 6.6 1.176
5.487 5.836 1.289
2.354 2.381 0.265
6.928 7.132 1.109
5.943 6.246 1.235
7.747 7.911 1.05
6.449 6.710001 1.17
5.541 5.914001 1.284
2.349 2.387 0.257
7.033 7.269001 1.103
6.008 6.336 1.229
7.739 7.936 1.025
6.516 6.804 1.162
5.605 5.999 1.28
2.349 2.397 0.25
7.122 7.387001 1.094
6.06 6.409 1.219
7.731 7.957 0.998
6.586 6.899 1.152
5.656 6.069 1.272
2.344 2.401 0.242
7.648 7.957 1.15
6.136 6.506001 1.214
2.262 2.335 0.284
6.653 6.987 1.142
5.714 6.144 1.265
2.34 2.404 0.234
7.673 8.005 1.127
6.187 6.574 1.202
2.327 2.409 0.285
6.716001 7.069 1.13
5.779 6.223001 1.258
2.34 2.411 0.226
7.665 8.015 1.1
6.266 6.669 1.195
2.326 2.414 0.277
6.813 7.184 1.122
5.834 6.288 1.249
2.34 2.417 0.218
7.664001 8.028001 1.074
6.35 6.765 1.188
2.34 2.433 0.27
6.893 7.278 1.111
5.894 6.357 1.239
2.329 2.411 0.209
7.661 8.036 1.046
6.417 6.841001 1.177
2.333 2.43 0.262
6.964 7.359 1.097
5.967 6.437 1.232
2.328 2.414 0.201
7.671 8.054001 1.02
6.486001 6.916 1.165
2.336 2.436 0.253
7.434 7.858 1.143
6.043 6.515 1.224
2.33 2.419 0.193
7.667 8.053 0.992
6.58 7.016 1.158
2.325 2.425 0.244
7.678 8.115001 1.153
6.127 6.601 1.217
2.33 2.421 0.184
7.669 8.056001 0.964
6.657001 7.092 1.146
2.334 2.436 0.237
7.685 8.119 1.126
6.205 6.676 1.208
2.331 2.422 0.176
2.318 2.434 0.282
6.737 7.168 1.133
2.326 2.427 0.227
7.684 8.110001 1.096
6.284 6.749001 1.198
2.332 2.423 0.168
2.322 2.436 0.275
6.822001 7.248 1.122
2.329 2.428 0.219
7.671 8.085 1.065
6.356 6.811 1.186
2.326 2.415 0.159
2.332 2.443 0.267
6.91 7.326 1.109
2.325 2.421 0.21
7.666 8.065001 1.036
6.429 6.871 1.174
2.326 2.412 0.151
2.333 2.44 0.258
7.069 7.476 1.107
2.322 2.414 0.201
7.657001 8.036 1.005
6.521 6.947001 1.165
2.33 2.413 0.143
2.333 2.435 0.25
7.495 7.903 1.144
2.322 2.409 0.193
7.645 8.0 0.974
6.605 7.011 1.153
2.328 2.406 0.134
2.331 2.426 0.241
7.697001 8.087001 1.145
2.331 2.412 0.185
7.684 8.016001 0.951
6.673 7.055 1.138
2.327 2.4 0.126
2.333 2.42 0.232
7.685 8.044001 1.113
2.327 2.401 0.176
2.325 2.417 0.278
6.769001 7.125 1.127
2.328 2.394 0.118
2.332 2.411 0.224
7.675 8.0 1.082
2.333 2.4 0.169
2.338 2.421 0.271
6.861001 7.188 1.115
2.331 2.389 0.109
2.335 2.405 0.216
7.703001 7.993001 1.057
2.332 2.389 0.16
2.34 2.413 0.263
6.967 7.261 1.105
2.331 2.381 0.101
2.333 2.393 0.207
7.728 7.979001 1.03
2.326 2.374 0.151
2.339 2.4 0.254
7.07 7.329 1.093
2.33 2.371 0.093
2.328 2.377 0.198
7.735 7.943 1.002
2.329 2.366 0.143
2.335 2.384 0.245
7.196001 7.416 1.084
2.333 2.364 0.085
2.326 2.363 0.19
7.735 7.898 0.973
2.331 2.357 0.136
2.34 2.375 0.237
7.507 7.688 1.103
2.337 2.357 0.077
2.333 2.357 0.182
2.297 2.331 0.28
2.336 2.35 0.128
2.346 2.368 0.229
7.651 7.784 1.095
2.337 2.345 0.07
2.346 2.357 0.175
2.337 2.357 0.276
2.331 2.332 0.119
2.351 2.358 0.221
7.715 7.796 1.074
2.334 2.328 0.062
2.35 2.347 0.167
2.354 2.358 0.27
2.335 2.322 0.112
2.349 2.341 0.213
7.814001 7.839 1.06
2.334 2.315 0.054
2.335 2.317 0.158
2.354 2.341 0.262
2.333 2.305 0.104
2.349 2.325 0.205
7.912 7.878 1.045
2.334 2.301 0.047
2.338 2.304 0.15
2.358 2.329 0.254
2.335 2.293 0.097
2.347 2.306 0.197
8.003 7.906 1.027
2.338 2.29 0.039
2.335 2.284 0.143
2.361 2.314 0.246
2.343 2.284 0.09
2.35 2.292 0.189
8.070001 7.909 1.008
2.342 2.278 0.032
2.342 2.275 0.135
2.367 2.301 0.239
2.339 2.264 0.082
2.357 2.281 0.182
8.162001 7.932 0.992
2.341 2.261 0.025
2.347 2.262 0.129
2.363 2.279 0.231
2.348 2.255 0.075
2.354 2.26 0.175
2.364 2.277 0.279
2.34 2.243 0.019
2.352 2.249 0.122
2.37 2.266 0.224
2.346 2.236 0.069
2.359 2.246 0.168
2.367 2.26 0.271
2.344 2.23 0.012
2.355 2.234 0.115
2.376 2.252 0.217
2.348 2.221 0.062
2.357 2.225 0.161
2.376 2.248 0.265
2.343 2.212 0.005
2.353 2.212 0.108
2.375 2.231 0.209
2.353 2.207 0.055
2.362 2.21 0.154
2.377 2.228 0.257
2.35 2.199 0.0
2.362 2.202 0.102
2.378 2.214 0.203
2.352 2.187 0.049
2.375 2.202 0.148
2.386 2.215 0.251
2.352 2.183 -0.006
2.366 2.186 0.095
2.382 2.196 0.196
2.358 2.173 0.043
2.385 2.191 0.142
2.383 2.191 0.244
2.355 2.167 -0.012
2.366 2.166 0.089
2.383 2.177 0.189
2.364 2.159 0.037
2.371 2.157 0.134
2.392 2.177 0.238
2.359 2.151 -0.018
2.368 2.147 0.083
2.386 2.157 0.183
2.363 2.138 0.031
2.372 2.137 0.128
2.391 2.154 0.231
2.365 2.136 -0.024
2.375 2.133 0.077
2.391 2.14 0.177
2.368 2.122 0.025
2.379 2.123 0.123
2.401 2.142 0.225
2.369 2.12 -0.029
2.378 2.115 0.071
2.388 2.116 0.17
2.374 2.106 0.02
2.384 2.106 0.117
2.395 2.113 0.218
2.382 2.11 -0.035
2.384 2.098 0.066
2.392 2.097 0.165
2.381 2.092 0.014
2.403 2.101 0.112
2.402 2.097 0.213
2.39 2.096 -0.04
2.4 2.091 0.061
2.398 2.08 0.159
2.386 2.075 0.009
2.411 2.086 0.107
2.403 2.076 0.207
2.379 2.066 -0.045
2.398 2.068 0.055
2.414 2.071 0.155
2.374 2.043 0.004
2.394 2.049 0.101
2.415 2.063 0.202
2.371 2.037 -0.049
2.337 1.994 0.049
9.868 8.376 0.611
9.823001 8.364 0.0
9.885 8.369 0.396
9.837001 8.309 0.801
9.875 8.398001 -0.227
9.955001 8.401 0.189
9.992001 8.388 0.597
9.994 8.419001 -0.02
10.053 8.418 0.381
9.935 8.296 0.787
10.035001 8.442 -0.249
10.120001 8.447001 0.172
10.178 8.447001 0.585
10.169001 8.473001 -0.04
10.234 8.473001 0.367
9.922001 8.190001 0.765
10.21 8.496 -0.271
10.27 8.477 0.155
10.329 8.475 0.573
10.252001 8.448 -0.059
10.317 8.445001 0.35
10.006001 8.163 0.749
10.233001 8.421 -0.29
10.294001 8.400001 0.136
10.360001 8.403001 0.555
10.27 8.368 -0.077
10.329 8.359 0.331
9.98 8.047 0.727
10.268001 8.355 -0.307
10.312 8.318001 0.118
10.371 8.313001 0.534
10.297001 8.294001 -0.095
10.356001 8.283 0.312
10.074 8.026 0.715
10.280001 8.27 -0.324
10.339001 8.244 0.101
10.388 8.228001 0.517
10.306001 8.205 -0.111
10.371 8.197001 0.295
10.160001 7.997 0.701
10.301001 8.190001 -0.34
10.358001 8.162001 0.083
10.407001 8.145 0.499
10.335 8.132 -0.127
10.392 8.116 0.278
10.285001 7.997 0.691
10.320001 8.109 -0.355
10.434001 8.123 0.068
10.517 8.131001 0.486
10.464001 8.136001 -0.145
10.570001 8.156 0.265
10.361 7.957 0.678
10.503 8.156 -0.376
10.628 8.176001 0.054
10.704 8.174001 0.477
10.661 8.190001 -0.162
10.761001 8.201 0.254
10.478001 7.948 0.667
10.701 8.21 -0.398
10.827001 8.226001 0.038
2.132 1.608 0.091
10.851001 8.235001 -0.18
10.947001 8.241 0.242
2.127 1.593 0.132
10.852 8.224 -0.416
12.170001 9.134001 0.027
2.148 1.6 0.089
12.22 9.159 -0.219
2.129 1.583 0.044
2.115 1.564 0.128
12.237 9.160001 -0.484
2.171 1.609 0.002
12.396001 9.116 0.496
2.183 1.616 -0.041
12.378 9.086 0.24
10.742001 7.842 0.634
2.133 1.576 -0.086
12.372001 9.056001 -0.003
12.401001 9.005 0.479
2.211 1.616 -0.044
12.481001 9.046 0.226
10.811001 7.791 0.623
2.226 1.625 -0.092
12.56 9.075001 -0.019
12.384001 8.876 0.462
12.580001 9.078 -0.269
12.719001 9.101001 0.214
10.889001 7.746 0.612
12.643001 9.111 -0.54
12.809001 9.137 -0.033
12.215 8.641001 0.44
12.846001 9.151 -0.288
12.977 9.165 0.203
10.966001 7.698 0.601
12.899 9.176001 -0.564
13.068001 9.201 -0.048
12.303 8.59 0.429
13.109 9.218 -0.307
13.243001 9.23 0.193
11.022 7.635 0.591
13.153001 9.235001 -0.586
13.323001 9.257 -0.064
12.382001 8.530001 0.416
13.355 9.268001 -0.326
13.503 9.288 0.182
11.097 7.585001 0.582
13.413001 9.294001 -0.609
14.361001 9.846001 -0.082
12.472 8.478001 0.406
13.972001 9.567 -0.353
13.8 9.365001 0.171
11.184001 7.54 0.573
14.325001 9.795 -0.663
14.386001 9.732 -0.095
12.568001 8.428 0.396
14.283001 9.650001 -0.372
14.433001 9.662001 0.166
11.253 7.484 0.564
2.408 1.624 -0.113
14.426001 9.628 -0.109
12.666 8.378 0.386
2.393 1.595 -0.064
14.427001 9.528001 0.153
11.320001 7.426 0.556
2.404 1.599 -0.114
14.376 9.464001 -0.12
12.742001 8.313001 0.376
2.398 1.576 -0.066
14.721001 9.589001 0.142
11.359 7.348001 0.546
14.071001 9.235001 -0.68
2.377 1.543 -0.021
12.708 8.176001 0.364
14.369 9.318001 -0.407
2.411 1.548 0.021
11.371 7.254 0.536
2.404 1.556 -0.117
2.405 1.54 -0.023
2.424 1.538 0.067
2.418 1.546 -0.07
2.417 1.531 0.019
11.381001 7.158 0.526
2.404 1.534 -0.118
2.396 1.512 -0.025
2.441 1.526 0.065
2.388 1.505 -0.07
2.434 1.52 0.017
11.459001 7.105 0.52
2.383 1.5 -0.119
15.359001 9.56 -0.172
12.995001 8.014 0.34
2.44 1.517 -0.073
14.849001 9.141001 0.099
11.597 7.087 0.517
2.477 1.536 -0.124
15.39 9.443001 -0.182
13.072001 7.945 0.332
14.557001 8.92 -0.446
14.927001 9.058001 0.09
11.631001 7.006001 0.509
6.11 3.736 -0.31
15.425001 9.328 -0.19
13.144001 7.873 0.326
15.189001 9.173 -0.473
15.056001 9.004001 0.081
11.679001 6.932 0.502
6.143 3.703 -0.315
15.409 9.184 -0.198
13.175 7.777 0.318
15.362 9.143001 -0.485
15.135001 8.919001 0.073
11.738001 6.865 0.497
6.132 3.642 -0.316
14.451 8.486 -0.194
13.242001 7.702 0.311
15.374001 9.016001 -0.492
15.173 8.81 0.066
11.773001 6.784 0.491
6.146 3.597 -0.319
14.481001 8.378 -0.2
13.254001 7.594 0.304
15.421 8.909 -0.499
14.614 8.359 0.055
11.837001 6.719 0.486
6.198 3.573 -0.323
14.392001 8.203 -0.205
13.299001 7.506001 0.298
15.450001 8.793 -0.506
15.275001 8.606 0.051
11.88 6.642 0.481
6.183 3.51 -0.324
14.511001 8.146001 -0.213
13.348001 7.420001 0.292
14.936001 8.373 -0.493
15.071001 8.363001 0.044
11.883 6.543 0.475
6.199 3.467 -0.327
14.673 8.112 -0.22
13.404 7.337 0.287
15.523001 8.568001 -0.517
15.341001 8.383 0.038
11.928 6.466 0.47
6.235 3.433 -0.33
14.657001 7.979001 -0.224
13.411 7.228 0.282
15.481001 8.414001 -0.52
15.388 8.278001 0.033
11.975 6.391 0.467
6.225 3.374 -0.33
14.68 7.867001 -0.229
13.551001 7.190001 0.278
15.509001 8.299001 -0.524
14.866001 7.874001 0.027
11.973001 6.29 0.461
6.246 3.333 -0.332
14.742001 7.777 -0.233
13.424001 7.01 0.271
15.606001 8.218 -0.53
14.801001 7.715 0.022
11.995001 6.203 0.457
6.24 3.278 -0.333
14.585001 7.573 -0.234
13.657001 7.02 0.271
15.546 8.058001 -0.531
14.876 7.631001 0.019
11.991 6.101 0.452
6.256001 3.233 -0.334
14.582001 7.451 -0.238
13.413001 6.784 0.262
15.497001 7.904 -0.531
14.876 7.509 0.015
12.007001 6.011 0.449
6.254 3.18 -0.334
14.585001 7.332 -0.24
13.734 6.833 0.264
15.56 7.806 -0.535
14.738001 7.318 0.011
12.033001 5.926 0.446
6.287 3.146 -0.336
14.614 7.227 -0.243
13.540001 6.627 0.257
15.711 7.754 -0.542
15.023001 7.338 0.009
12.038 5.831 0.442
6.256001 3.078 -0.335
14.706 7.152 -0.247
13.569 6.532001 0.254
14.626 7.1 -0.506
15.366001 7.381001 0.006
12.120001 5.774 0.442
6.293 3.045 -0.337
15.103001 7.223001 -0.255
13.588 6.431 0.252
15.174001 7.242001 -0.526
15.340001 7.245 0.003
12.1 5.667 0.438
6.321 3.007 -0.338
15.864 7.460001 -0.269
13.596001 6.327 0.249
15.711 7.371 -0.544
15.597001 7.241 0.002
12.102 5.571 0.435
6.298 2.945 -0.337
15.535001 7.18 -0.265
13.613001 6.227 0.247
15.739 7.259 -0.546
15.540001 7.092 0.0
12.09 5.471 0.432
6.292 2.891 -0.336
15.566001 7.07 -0.266
13.673 6.145 0.246
15.792001 7.157001 -0.548
15.539001 6.968 -0.001
12.082001 5.372 0.429
14.955001 6.754 -0.798
15.570001 6.949 -0.267
13.636001 6.022 0.244
15.123001 6.733 -0.524
15.548 6.85 -0.002
12.069 5.272 0.427
14.783001 6.559 -0.788
15.48 6.787 -0.266
13.655001 5.924 0.243
14.995001 6.559 -0.519
15.535001 6.723001 -0.003
12.089001 5.186 0.426
6.275 2.734 -0.333
15.164001 6.53 -0.26
13.669001 5.823 0.241
15.06 6.469 -0.521
15.603001 6.631001 -0.003
12.093 5.095 0.424
6.254 2.676 -0.332
15.182001 6.42 -0.26
13.676001 5.721 0.241
15.197001 6.409 -0.524
15.530001 6.479 -0.004
12.117001 5.011 0.424
6.210001 2.608 -0.329
15.233001 6.324 -0.26
13.688001 5.622 0.24
15.697001 6.498 -0.54
15.502001 6.349 -0.004
12.127001 4.923 0.423
6.153 2.537 -0.325
15.318001 6.24 -0.261
13.734 5.535 0.24
15.814001 6.424 -0.543
15.493001 6.227 -0.004
12.127001 4.832 0.422
6.098001 2.467 -0.321
14.960001 5.98 -0.254
13.700001 5.418 0.239
15.598001 6.217 -0.533
15.016001 5.92 -0.003
12.168 4.755 0.422
6.055 2.403 -0.318
15.454 6.061 -0.261
13.694 5.312 0.239
15.454 6.042 -0.526
15.522 6.003 -0.003
12.187 4.671 0.422
6.005 2.337 -0.314
16.040001 6.168 -0.27
13.682001 5.204 0.238
15.602001 5.981 -0.53
15.170001 5.753 -0.002
12.204 4.587 0.422
15.456 5.897 -0.805
15.151001 5.712 -0.254
13.698001 5.108 0.239
15.566001 5.849 -0.526
15.194001 5.647 -0.001
12.204 4.495 0.422
15.534 5.809 -0.807
15.170001 5.606 -0.252
13.686001 5.002 0.239
15.540001 5.723 -0.523
15.221001 5.545 0.0
12.214001 4.409 0.422
15.567 5.704 -0.805
15.197001 5.502 -0.251
13.712001 4.909 0.24
15.485001 5.587 -0.519
15.240001 5.439 0.0
12.206 4.319 0.422
15.012001 5.392 -0.773
15.218 5.405 -0.25
13.774001 4.843 0.241
15.477001 5.486 -0.516
15.27 5.359 0.001
12.196001 4.243 0.421
15.046 5.318 -0.772
15.242001 5.328 -0.249
13.823001 4.781 0.243
15.518001 5.413 -0.515
15.311001 5.286 0.002
12.189 4.173 0.421
15.074 5.242 -0.771
15.256001 5.245 -0.247
13.644001 4.643 0.24
15.473001 5.309 -0.512
15.317 5.201 0.003
12.187 4.104 0.421
15.109001 5.167 -0.77
15.269001 5.164 -0.246
13.677001 4.577 0.241
15.544001 5.245 -0.512
15.316001 5.115 0.004
12.204 4.041 0.422
15.126 5.087 -0.769
15.299001 5.088 -0.245
13.733001 4.518 0.243
15.467001 5.132 -0.507
15.335001 5.036 0.006
12.186001 3.967 0.422
15.161 5.014 -0.768
15.317 5.007 -0.243
13.653001 4.417 0.242
15.512001 5.06 -0.506
15.413001 4.975 0.007
12.23 3.914 0.424
15.186001 4.935 -0.766
16.405001 5.272 -0.259
13.755001 4.374 0.245
15.383 4.93 -0.5
15.407001 4.888 0.008
12.210001 3.841 0.424
15.214001 4.859 -0.765
15.253 4.817 -0.238
13.699 4.279 0.245
15.208001 4.79 -0.492
15.348001 4.785 0.01
12.192 3.767 0.423
15.228001 4.778 -0.763
16.029001 4.972 -0.249
13.666 4.194 0.245
15.508 4.799 -0.499
15.413001 4.719 0.011
12.168 3.694 0.423
15.261001 4.703 -0.762
16.486 5.023 -0.254
13.636001 4.111 0.246
15.878001 4.824 -0.508
15.406001 4.632 0.013
12.168 3.627 0.424
15.275001 4.622 -0.759
16.506001 4.938 -0.252
13.626 4.032 0.246
15.965001 4.763 -0.509
15.358001 4.534 0.015
12.159 3.558 0.424
15.280001 4.54 -0.756
16.527 4.853 -0.25
13.635 3.961 0.248
16.355001 4.789 -0.518
15.340001 4.444 0.016
12.154 3.491 0.424
15.311001 4.464 -0.755
15.382001 4.433 -0.23
13.606001 3.879 0.248
15.354001 4.411 -0.484
15.359001 4.366 0.018
12.145 3.423 0.425
15.725 4.497 -0.772
15.389001 4.351 -0.228
13.614 3.807 0.249
15.330001 4.32 -0.481
15.347001 4.28 0.02
12.139001 3.355 0.425
15.330001 4.301 -0.75
15.378 4.265 -0.226
13.625001 3.737 0.251
15.359001 4.245 -0.479
15.351001 4.197 0.021
12.148001 3.292 0.426
15.349001 4.222 -0.748
15.443001 4.198 -0.225
13.609 3.659 0.252
15.404 4.173 -0.478
15.35 4.114 0.023
12.152 3.229 0.427
15.351001 4.138 -0.745
15.500001 4.13 -0.224
13.522 3.564 0.251
15.428 4.096 -0.476
15.256001 4.008 0.025
12.129001 3.157 0.427
15.39 4.065 -0.744
15.530001 4.055 -0.222
13.532001 3.493 0.253
15.461 4.022 -0.475
15.302001 3.937 0.027
12.134001 3.094 0.429
15.420001 3.99 -0.742
15.548 3.975 -0.22
13.513 3.417 0.254
15.499001 3.949 -0.473
15.330001 3.862 0.029
12.102 3.022 0.428
16.356001 4.142 -0.784
15.565001 3.896 -0.218
13.493001 3.34 0.255
15.522 3.87 -0.472
15.236001 3.758 0.03
12.105 2.958 0.429
16.547001 4.102 -0.79
15.593 3.821 -0.216
13.458 3.259 0.255
15.508 3.784 -0.469
15.231001 3.675 0.032
12.109 2.895 0.43
16.655001 4.04 -0.792
13.473001 3.192 0.257
15.48 3.695 -0.465
15.239 3.596 0.034
12.105 2.831 0.431
15.475 3.67 -0.733
16.742001 3.924 -0.227
13.459001 3.118 0.258
16.129002 3.762 -0.482
15.174001 3.501 0.036
12.113001 2.768 0.432
16.668001 3.864 -0.787
15.379001 3.523 -0.207
13.458 3.046 0.259
15.699 3.579 -0.467
15.228001 3.434 0.038
12.113001 2.705 0.433
16.689001 3.78 -0.784
15.417001 3.449 -0.205
13.440001 2.972 0.26
15.509001 3.454 -0.458
15.142001 3.334 0.039
12.111001 2.642 0.434
16.712 3.695 -0.782
15.761001 3.444 -0.207
13.43 2.9 0.262
15.800001 3.434 -0.464
15.124001 3.251 0.041
12.103001 2.577 0.435
16.75 3.615 -0.781
15.692 3.347 -0.204
13.412001 2.825 0.263
16.803001 3.564 -0.491
15.067 3.161 0.043
12.121 2.517 0.437
16.779001 3.533 -0.779
15.543001 3.232 -0.2
13.402 2.754 0.264
16.054001 3.321 -0.467
15.108001 3.089 0.045
12.101001 2.451 0.437
15.942 3.274 -0.738
15.523001 3.147 -0.198
13.366 2.678 0.264
15.73 3.171 -0.455
15.029 2.995 0.046
12.078001 2.384 0.437
15.538001 3.07 -0.196
13.372001 2.609 0.266
15.765 3.096 -0.453
15.057001 2.923 0.048
12.052001 2.316 0.437
15.574 2.996 -0.194
13.367001 2.539 0.267
15.787001 3.018 -0.452
15.032001 2.839 0.05
12.082001 2.26 0.439
16.701 3.125 -0.206
13.344001 2.466 0.268
15.81 2.939 -0.45
14.999001 2.756 0.051
11.26 2.049 0.41
16.071001 2.962 -0.732
16.743 3.047 -0.204
13.341001 2.397 0.269
15.828001 2.861 -0.448
14.920001 2.665 0.053
12.056001 2.131 0.44
16.117001 2.886 -0.732
16.755001 2.963 -0.202
13.326 2.325 0.27
15.854001 2.784 -0.446
14.996 2.6 0.055
12.044001 2.068 0.441
15.787001 2.746 -0.714
16.831001 2.889 -0.201
13.278001 2.25 0.271
15.884001 2.706 -0.445
15.123001 2.545 0.057
12.02 2.002 0.441
16.871 2.845 -0.76
16.974001 2.826 -0.2
13.274 2.181 0.272
16.261002 2.687 -0.453
14.966001 2.443 0.058
12.051001 1.945 0.443
15.792001 2.582 -0.709
15.827001 2.554 -0.185
13.256001 2.11 0.273
15.885001 2.543 -0.44
14.979001 2.367 0.06
12.034 1.882 0.443
15.740001 2.493 -0.704
15.825001 2.472 -0.183
13.253 2.042 0.274
15.807001 2.449 -0.436
15.116001 2.312 0.062
12.021001 1.819 0.444
15.749001 2.412 -0.702
15.887001 2.401 -0.181
13.240001 1.974 0.275
15.833001 2.371 -0.435
15.127001 2.237 0.064
11.978001 1.751 0.443
15.745001 2.33 -0.7
15.948001 2.329 -0.18
13.238001 1.905 0.276
15.858001 2.294 -0.433
15.000001 2.142 0.065
11.98 1.691 0.444
15.799001 2.258 -0.7
15.973001 2.25 -0.179
13.231001 1.837 0.277
15.993001 2.233 -0.435
15.012001 2.067 0.066
11.954 1.628 0.444
15.807001 2.176 -0.698
16.004002 2.173 -0.177
13.227 1.77 0.278
15.984001 2.149 -0.433
14.931001 1.981 0.067
11.951 1.567 0.445
15.834001 2.099 -0.697
16.071001 2.101 -0.176
13.225 1.703 0.279
15.941001 2.062 -0.429
14.891001 1.901 0.069
11.938001 1.505 0.445
16.529001 2.108 -0.726
16.098001 2.022 -0.175
13.284 1.644 0.281
15.975 1.986 -0.429
14.870001 1.822 0.07
11.943001 1.446 0.446
17.053001 2.087 -0.746
16.150002 1.948 -0.174
13.211 1.569 0.281
15.986001 1.905 -0.427
14.888 1.749 0.071
11.940001 1.386 0.447
16.947001 1.987 -0.74
16.167 1.868 -0.172
13.209001 1.501 0.282
16.017 1.828 -0.426
14.876 1.674 0.073
11.952001 1.327 0.448
16.926001 1.899 -0.737
16.254002 1.796 -0.171
13.186001 1.433 0.283
16.006001 1.746 -0.424
14.863001 1.596 0.074
11.915001 1.264 0.448
16.908001 1.811 -0.734
16.300001 1.719 -0.17
13.179001 1.366 0.283
16.029001 1.666 -0.423
14.871 1.523 0.075
11.906 1.204 0.448
16.949001 1.729 -0.734
16.897001 1.697 -0.175
13.163001 1.298 0.284
17.283001 1.71 -0.454
14.849001 1.447 0.076
11.884001 1.141 0.448
17.001001 1.648 -0.734
16.691 1.592 -0.171
13.153001 1.232 0.285
17.280001 1.623 -0.452
14.843 1.371 0.077
11.88 1.082 0.449
16.687 1.534 -0.719
16.654001 1.505 -0.17
13.161 1.167 0.286
16.643002 1.478 -0.434
14.884001 1.301 0.079
11.889001 1.024 0.45
17.033001 1.478 -0.732
16.155001 1.379 -0.163
13.18 1.103 0.287
16.113001 1.35 -0.419
14.836 1.223 0.08
11.896001 0.965 0.451
16.925001 1.384 -0.725
16.690001 1.342 -0.167
13.167001 1.036 0.288
16.406 1.293 -0.425
14.881001 1.151 0.081
11.873 0.904 0.451
17.01 1.306 -0.728
16.744001 1.261 -0.166
13.169001 0.971 0.288
16.105001 1.188 -0.416
14.868001 1.077 0.082
11.894001 0.847 0.452
17.002001 1.218 -0.726
16.705 1.175 -0.165
13.143001 0.904 0.289
16.068001 1.104 -0.414
14.490001 0.978 0.081
11.894001 0.788 0.453
16.459002 1.097 -0.701
16.722 1.093 -0.164
13.146001 0.839 0.289
16.072001 1.025 -0.413
14.855 0.928 0.084
11.85 0.727 0.452
16.572001 1.022 -0.705
16.737001 1.01 -0.163
13.125001 0.773 0.29
16.096001 0.945 -0.412
14.805 0.851 0.084
11.904 0.671 0.454
16.479 0.932 -0.699
16.740002 0.927 -0.162
13.113001 0.707 0.29
16.118 0.866 -0.412
14.856001 0.781 0.085
11.891001 0.612 0.454
16.538 0.853 -0.701
16.786001 0.846 -0.161
13.116 0.642 0.291
16.120001 0.786 -0.411
14.783001 0.703 0.086
11.863001 0.552 0.454
16.586 0.772 -0.702
16.832001 0.764 -0.161
13.106001 0.577 0.291
16.145 0.707 -0.41
14.789001 0.63 0.086
11.857 0.493 0.454
16.489 0.684 -0.697
16.780001 0.678 -0.159
13.106001 0.513 0.292
16.107 0.624 -0.409
14.765 0.556 0.087
11.865001 0.435 0.455
16.033001 0.585 -0.676
16.722 0.594 -0.158
13.086 0.446 0.292
16.117001 0.544 -0.408
12.803 0.418 0.076
11.845 0.376 0.454
16.040001 0.506 -0.676
16.678001 0.508 -0.157
12.917001 0.377 0.288
16.574001 0.477 -0.419
12.740001 0.353 0.076
11.859 0.318 0.455
12.813001 0.34 -0.539
12.833 0.327 -0.12
12.561001 0.305 0.281
12.577001 0.299 -0.317
12.487 0.285 0.075
2.135 0.046 0.082
12.503 0.268 -0.526
12.540001 0.258 -0.117
12.499001 0.241 0.28
12.396001 0.233 -0.312
12.424001 0.222 0.075
2.146 0.036 0.082
12.226001 0.202 -0.514
12.285001 0.192 -0.114
2.116 0.03 0.047
12.264001 0.17 -0.308
12.325001 0.159 0.075
2.137 0.025 0.082
12.251 0.141 -0.514
12.290001 0.131 -0.114
2.126 0.02 0.047
12.287001 0.108 -0.309
12.277 0.098 0.075
2.131 0.015 0.082
12.264001 0.079 -0.514
12.295001 0.07 -0.114
2.137 0.009 0.048
12.31 0.047 -0.309
12.341001 0.038 0.075
2.136 0.004 0.082
12.287001 0.018 -0.515
12.322001 0.008 -0.114
2.136 0.0 0.048
12.316001 -0.014 -0.309
2.124 -0.004 0.013
2.136 -0.005 0.082
12.301001 -0.044 -0.515
5.99 -0.025 -0.055
2.153 -0.011 0.048
5.961 -0.036 -0.149
2.114 -0.014 0.013
2.137 -0.016 0.082
5.912 -0.05 -0.247
5.975 -0.055 -0.055
2.138 -0.021 0.048
5.969 -0.066 -0.149
2.123 -0.025 0.013
2.13 -0.026 0.082
5.79 -0.078 -0.242
5.796 -0.082 -0.053
2.14 -0.032 0.048
5.737 -0.092 -0.143
2.139 -0.036 0.013
2.141 -0.037 0.082
5.654 -0.104 -0.236
2.115 -0.04 -0.019
2.146 -0.043 0.048
5.696 -0.12 -0.142
2.125 -0.046 0.013
2.14 -0.047 0.082
5.556 -0.131 -0.232
2.172 -0.052 -0.019
2.145 -0.053 0.048
5.586 -0.145 -0.14
2.126 -0.056 0.013
2.145 -0.058 0.082
5.677 -0.162 -0.237
2.138 -0.062 -0.019
2.151 -0.064 0.048
5.569 -0.172 -0.139
2.133 -0.067 0.013
2.152 -0.069 0.083
5.878 -0.196 -0.246
2.133 -0.072 -0.019
2.154 -0.075 0.048
5.502 -0.198 -0.138
2.132 -0.078 0.013
2.146 -0.079 0.082
5.854 -0.225 -0.245
2.129 -0.082 -0.019
2.151 -0.085 0.048
5.404 -0.221 -0.135
2.142 -0.088 0.013
2.151 -0.09 0.083
2.067 -0.089 -0.086
2.141 -0.094 -0.019
2.154 -0.096 0.048
2.092 -0.096 -0.052
2.143 -0.099 0.013
2.152 -0.101 0.083
2.106 -0.102 -0.088
2.142 -0.104 -0.019
2.153 -0.107 0.048
2.082 -0.106 -0.052
2.143 -0.11 0.013
2.15 -0.111 0.083
2.08 -0.111 -0.087
2.137 -0.115 -0.019
2.156 -0.117 0.048
2.077 -0.116 -0.052
2.144 -0.12 0.013
2.15 -0.122 0.083
2.056 -0.12 -0.086
2.143 -0.125 -0.019
2.153 -0.128 0.048
2.105 -0.128 -0.053
2.142 -0.131 0.013
2.15 -0.132 0.083
4.806 -0.305 -0.202
2.136 -0.136 -0.019
2.151 -0.138 0.048
2.117 -0.139 -0.053
2.142 -0.141 0.013
2.152 -0.143 0.083
2.11 -0.144 -0.088
2.133 -0.146 -0.019
2.158 -0.149 0.048
2.144 -0.151 -0.054
2.141 -0.152 0.013
2.151 -0.153 0.083
2.063 -0.151 -0.087
2.139 -0.157 -0.02
2.16 -0.16 0.048
2.144 -0.162 -0.054
2.139 -0.162 0.013
2.155 -0.164 0.083
5.811 -0.456 -0.245
2.138 -0.168 -0.02
2.155 -0.17 0.048
2.146 -0.173 -0.054
2.138 -0.173 0.012
2.156 -0.175 0.083
5.811 -0.485 -0.245
2.139 -0.178 -0.02
2.158 -0.181 0.048
2.148 -0.184 -0.054
2.137 -0.183 0.012
2.156 -0.186 0.083
5.8 -0.513 -0.245
2.137 -0.189 -0.02
2.164 -0.193 0.048
2.143 -0.194 -0.054
2.142 -0.194 0.012
2.154 -0.196 0.082
5.806 -0.543 -0.246
2.141 -0.2 -0.02
2.16 -0.203 0.048
2.145 -0.205 -0.054
2.141 -0.205 0.012
2.155 -0.207 0.082
5.808 -0.572 -0.246
2.14 -0.211 -0.02
2.163 -0.214 0.048
2.149 -0.216 -0.054
2.145 -0.216 0.012
2.153 -0.217 0.082
5.802 -0.601 -0.246
2.142 -0.221 -0.02
2.149 -0.223 0.047
2.148 -0.227 -0.055
2.146 -0.227 0.012
2.158 -0.229 0.082
5.791 -0.629 -0.246
2.147 -0.233 -0.02
2.15 -0.234 0.047
2.137 -0.236 -0.054
2.15 -0.238 0.012
2.157 -0.239 0.082
5.742 -0.652 -0.245
2.145 -0.243 -0.02
2.15 -0.245 0.047
2.138 -0.247 -0.055
2.152 -0.249 0.012
2.159 -0.25 0.082
5.725 -0.68 -0.244
2.146 -0.254 -0.021
2.154 -0.256 0.047
2.144 -0.259 -0.055
2.15 -0.259 0.012
2.159 -0.261 0.082
5.654 -0.7 -0.242
2.145 -0.265 -0.021
2.152 -0.266 0.047
2.184 -0.274 -0.056
2.15 -0.27 0.012
2.154 -0.271 0.082
5.57 -0.717 -0.239
2.151 -0.276 -0.021
2.154 -0.277 0.047
2.12 -0.277 -0.055
2.147 -0.281 0.012
2.159 -0.282 0.082
5.484 -0.734 -0.235
2.154 -0.287 -0.021
2.159 -0.289 0.047
2.075 -0.282 -0.054
2.152 -0.292 0.011
2.162 -0.293 0.082
4.941 -0.686 -0.212
2.152 -0.298 -0.021
2.162 -0.3 0.047
4.974 -0.701 -0.129
2.151 -0.303 0.011
2.164 -0.304 0.082
4.935 -0.71 -0.213
2.149 -0.308 -0.021
2.159 -0.31 0.047
4.979 -0.727 -0.13
2.158 -0.314 0.011
2.165 -0.315 0.082
13.188001 -1.967 -0.57
2.159 -0.321 -0.021
2.158 -0.321 0.047
3.82 -0.577 -0.1
2.155 -0.325 0.011
2.171 -0.327 0.082
3.697 -0.57 -0.16
2.154 -0.331 -0.022
2.159 -0.332 0.047
3.707 -0.579 -0.097
2.153 -0.335 0.011
2.169 -0.338 0.082
3.682 -0.586 -0.16
2.165 -0.343 -0.022
2.162 -0.343 0.047
3.714 -0.599 -0.098
2.156 -0.347 0.011
2.171 -0.349 0.082
3.715 -0.61 -0.162
2.133 -0.349 -0.022
2.161 -0.354 0.047
3.838 -0.638 -0.101
2.157 -0.358 0.011
2.17 -0.36 0.082
5.011 -0.849 -0.219
3.936 -0.664 -0.041
2.162 -0.365 0.047
4.922 -0.843 -0.131
2.165 -0.37 0.011
2.172 -0.371 0.082
4.946 -0.863 -0.216
4.328 -0.753 -0.045
2.166 -0.377 0.047
4.941 -0.872 -0.132
2.151 -0.379 0.01
2.169 -0.381 0.082
4.94 -0.887 -0.217
4.336 -0.776 -0.046
2.165 -0.387 0.046
4.867 -0.884 -0.13
2.174 -0.394 0.01
2.169 -0.392 0.082
2.146 -0.396 -0.094
4.337 -0.798 -0.046
2.166 -0.398 0.046
2.183 -0.407 -0.058
2.124 -0.395 0.01
2.172 -0.404 0.082
2.143 -0.407 -0.094
2.05 -0.388 -0.022
2.175 -0.411 0.047
2.172 -0.416 -0.058
3.743 -0.716 0.018
2.175 -0.415 0.082
2.15 -0.419 -0.095
2.175 -0.422 -0.023
2.189 -0.425 0.047
2.181 -0.429 -0.059
2.183 -0.428 0.082
11.819 -2.367 -0.524
2.18 -0.434 -0.023
2.537 -0.505 0.054
4.632 -0.936 -0.126
2.173 -0.437 0.01
2.198 -0.442 0.083
2.133 -0.438 -0.094
2.182 -0.446 -0.024
2.183 -0.446 0.046
2.194 -0.454 -0.059
2.174 -0.449 0.01
2.176 -0.449 0.082
2.157 -0.454 -0.096
2.167 -0.454 -0.024
2.173 -0.455 0.046
2.197 -0.466 -0.06
2.158 -0.457 0.01
2.175 -0.459 0.082
2.16 -0.466 -0.096
2.171 -0.466 -0.024
2.188 -0.469 0.046
2.176 -0.473 -0.059
2.162 -0.469 0.009
2.197 -0.475 0.083
2.14 -0.473 -0.096
2.143 -0.471 -0.024
3.18 -0.699 0.067
2.149 -0.478 -0.059
2.161 -0.479 0.009
2.194 -0.486 0.082
2.126 -0.48 -0.095
2.121 -0.477 -0.024
3.152 -0.709 0.067
2.148 -0.489 -0.059
2.095 -0.476 0.009
2.257 -0.511 0.085
2.129 -0.492 -0.096
4.275 -0.984 -0.048
3.143 -0.723 0.066
10.925 -2.547 -0.303
3.795 -0.881 0.016
3.104 -0.72 0.117
4.391 -1.039 -0.198
4.123 -0.971 -0.047
3.228 -0.759 0.068
10.794001 -2.572 -0.301
3.801 -0.902 0.016
3.076 -0.729 0.116
4.367 -1.056 -0.198
3.819 -0.919 -0.044
3.341 -0.803 0.07
10.6 -2.581 -0.297
3.812 -0.925 0.016
3.05 -0.738 0.114
4.301 -1.063 -0.195
3.853 -0.947 -0.044
3.377 -0.829 0.071
3.822 -0.951 -0.107
3.811 -0.944 0.016
3.014 -0.745 0.113
4.258 -1.074 -0.194
4.176 -1.048 -0.048
3.39 -0.85 0.071
3.821 -0.97 -0.107
3.815 -0.965 0.015
2.984 -0.753 0.112
4.207 -1.083 -0.192
4.138 -1.061 -0.048
3.392 -0.868 0.071
3.801 -0.985 -0.107
3.817 -0.986 0.015
2.954 -0.761 0.111
4.141 -1.088 -0.189
4.093 -1.07 -0.048
3.402 -0.888 0.071
10.557 -2.792 -0.299
3.81 -1.004 0.015
2.917 -0.767 0.109
3.83 -1.027 -0.176
4.047 -1.079 -0.048
3.407 -0.907 0.071
10.079 -2.719 -0.287
3.808 -1.023 0.015
2.887 -0.774 0.108
3.82 -1.044 -0.176
3.999 -1.088 -0.048
3.409 -0.926 0.071
10.18 -2.8 -0.29
3.817 -1.046 0.015
2.862 -0.782 0.107
4.429 -1.234 -0.204
3.966 -1.1 -0.047
3.419 -0.946 0.071
9.974001 -2.796 -0.285
3.818 -1.066 0.015
2.841 -0.791 0.106
4.139 -1.176 -0.191
3.897 -1.101 -0.047
3.417 -0.964 0.071
3.822 -1.091 -0.109
3.828 -1.089 0.014
2.822 -0.801 0.106
3.861 -1.117 -0.179
3.884 -1.118 -0.047
3.416 -0.981 0.071
3.886 -1.13 -0.112
3.824 -1.108 0.014
2.909 -0.841 0.109
3.829 -1.128 -0.178
3.833 -1.124 -0.046
3.417 -1.0 0.071
3.831 -1.135 -0.11
3.835 -1.132 0.014
2.998 -0.882 0.113
3.824 -1.148 -0.178
3.842 -1.146 -0.047
3.42 -1.019 0.071
3.837 -1.157 -0.111
3.818 -1.147 0.014
3.032 -0.908 0.114
4.489 -1.371 -0.209
6.807 -2.068 -0.084
3.426 -1.038 0.071
6.761 -2.075 -0.196
3.756 -1.148 0.014
3.035 -0.925 0.114
4.508 -1.401 -0.211
6.738 -2.083 -0.083
3.415 -1.053 0.071
6.721 -2.099 -0.196
3.73 -1.16 0.014
3.039 -0.943 0.114
4.503 -1.424 -0.211
6.727 -2.116 -0.083
3.409 -1.07 0.071
2.603 -0.827 -0.076
2.815 -0.89 0.01
2.697 -0.851 0.102
2.616 -0.841 -0.122
2.62 -0.838 -0.032
2.644 -0.844 0.055
2.606 -0.842 -0.076
2.619 -0.843 0.009
2.63 -0.844 0.099
2.575 -0.842 -0.121
2.6 -0.846 -0.032
2.609 -0.846 0.054
2.578 -0.847 -0.075
2.59 -0.847 0.009
2.596 -0.847 0.098
2.563 -0.852 -0.12
2.579 -0.853 -0.032
2.588 -0.853 0.054
2.58 -0.861 -0.075
2.591 -0.861 0.009
2.598 -0.862 0.098
2.564 -0.867 -0.121
2.589 -0.87 -0.032
2.635 -0.883 0.055
2.602 -0.883 -0.076
2.721 -0.919 0.01
2.861 -0.964 0.109
4.497 -1.544 -0.212
6.389 -2.182 -0.08
3.385 -1.153 0.071
2.6 -0.896 -0.076
3.512 -1.206 0.013
3.053 -1.045 0.116
4.46 -1.556 -0.211
6.349 -2.203 -0.079
3.375 -1.168 0.071
2.611 -0.914 -0.076
3.481 -1.214 0.013
3.064 -1.066 0.117
4.423 -1.568 -0.209
2.634 -0.928 -0.033
3.348 -1.177 0.071
6.244 -2.221 -0.184
3.457 -1.224 0.013
3.063 -1.082 0.117
4.382 -1.577 -0.208
2.618 -0.937 -0.032
3.324 -1.186 0.07
6.182 -2.233 -0.182
6.243001 -2.246 0.024
3.075 -1.102 0.118
4.348 -1.589 -0.206
2.629 -0.955 -0.032
3.32 -1.203 0.071
6.059 -2.222 -0.178
2.646 -0.966 0.01
3.071 -1.118 0.118
4.293 -1.594 -0.204
6.045 -2.231 -0.075
3.313 -1.22 0.071
4.454 -1.66 -0.131
2.633 -0.978 0.01
3.058 -1.132 0.118
4.251 -1.605 -0.202
6.04 -2.269 -0.075
3.267 -1.225 0.07
4.411 -1.675 -0.13
2.616 -0.99 0.01
3.072 -1.16 0.119
4.2 -1.616 -0.2
6.006001 -2.299 -0.074
2.666 -1.018 0.057
4.372 -1.691 -0.129
5.965 -2.3 0.025
3.062 -1.178 0.119
4.362 -1.711 -0.208
4.4 -1.716 -0.054
2.664 -1.037 0.058
4.369 -1.722 -0.128
4.392 -1.724 0.018
2.765 -1.083 0.108
4.121 -1.646 -0.196
4.352 -1.729 -0.053
3.222 -1.277 0.071
4.325 -1.736 -0.127
4.345 -1.737 0.019
2.646 -1.056 0.104
4.222 -1.717 -0.201
4.309 -1.743 -0.052
3.191 -1.288 0.071
4.27 -1.745 -0.125
4.297 -1.749 0.019
2.793 -1.134 0.11
4.161 -1.723 -0.198
4.25 -1.75 -0.051
3.151 -1.295 0.07
4.186 -1.741 -0.122
4.199 -1.74 0.019
2.965 -1.226 0.118
4.173 -1.758 -0.198
4.21 -1.764 -0.05
3.132 -1.31 0.071
4.192 -1.774 -0.122
4.201 -1.772 0.02
2.949 -1.241 0.118
4.141 -1.775 -0.197
4.165 -1.776 -0.048
3.177 -1.352 0.072
4.143 -1.784 -0.12
4.16 -1.784 0.021
2.949 -1.262 0.119
4.098 -1.787 -0.194
4.12 -1.787 -0.047
3.354 -1.452 0.077
4.097 -1.795 -0.118
4.107 -1.792 0.022
2.949 -1.284 0.12
4.05 -1.796 -0.191
4.07 -1.795 -0.046
4.04 -1.778 0.094
4.056 -1.807 -0.116
4.068 -1.805 0.023
2.933 -1.298 0.12
4.015 -1.81 -0.189
4.026 -1.805 -0.044
4.037 -1.806 0.096
4.014 -1.817 -0.114
4.032 -1.819 0.023
2.936 -1.322 0.122
3.973 -1.821 -0.187
3.981 -1.815 -0.043
4.003 -1.821 0.096
3.975 -1.829 -0.112
3.99 -1.829 0.024
2.943 -1.346 0.123
3.022 -1.408 -0.141
3.95 -1.83 -0.041
3.971 -1.836 0.097
3.935 -1.84 -0.11
3.942 -1.837 0.025
2.92 -1.357 0.123
3.827 -1.812 -0.179
3.892 -1.832 -0.04
3.926 -1.844 0.097
3.892 -1.849 -0.108
3.9 -1.846 0.026
2.893 -1.366 0.123
3.833 -1.843 -0.178
3.83 -1.832 -0.038
3.882 -1.853 0.098
3.851 -1.859 -0.106
3.864 -1.858 0.027
2.86 -1.372 0.123
3.811 -1.861 -0.176
3.782 -1.837 -0.036
3.849 -1.866 0.099
3.817 -1.871 -0.104
3.82 -1.865 0.029
2.828 -1.378 0.123
3.77 -1.869 -0.173
3.735 -1.842 -0.034
3.818 -1.879 0.1
3.792 -1.887 -0.102
3.795 -1.882 0.03
2.802 -1.386 0.124
3.7 -1.863 -0.169
3.263 -1.634 -0.029
2.795 -1.397 0.074
2.772 -1.4 -0.073
2.792 -1.405 0.023
2.784 -1.398 0.125
2.755 -1.408 -0.125
2.767 -1.406 -0.023
2.791 -1.416 0.075
2.759 -1.415 -0.072
2.762 -1.411 0.024
2.754 -1.404 0.125
2.699 -1.4 -0.121
2.712 -1.399 -0.021
2.724 -1.402 0.075
2.716 -1.413 -0.07
2.713 -1.407 0.025
2.734 -1.414 0.126
2.748 -1.446 -0.122
2.764 -1.446 -0.02
2.857 -1.492 0.08
3.695 -1.951 -0.094
3.705 -1.949 0.037
3.727 -1.957 0.174
3.674 -1.962 -0.162
3.7 -1.965 -0.026
3.707 -1.965 0.107
3.689 -1.976 -0.091
3.695 -1.972 0.039
3.745 -1.994 0.177
3.663 -1.983 -0.16
3.78 -2.036 -0.024
3.863 -2.077 0.114
3.834 -2.083 -0.093
3.842 -2.079 0.043
3.854 -2.082 0.185
3.821 -2.098 -0.165
3.769 -2.059 -0.022
3.841 -2.094 0.116
3.842 -2.116 -0.091
3.864 -2.121 0.046
3.861 -2.115 0.188
3.748 -2.087 -0.16
3.741 -2.072 -0.019
3.752 -2.075 0.116
3.734 -2.085 -0.086
3.743 -2.083 0.047
3.762 -2.09 0.186
3.708 -2.093 -0.157
3.724 -2.09 -0.017
3.753 -2.104 0.119
3.72 -2.106 -0.084
3.734 -2.106 0.049
3.739 -2.106 0.189
3.711 -2.123 -0.154
3.723 -2.119 -0.014
3.884 -2.206 0.126
3.87 -2.22 -0.085
3.891 -2.224 0.054
3.908 -2.231 0.201
3.854 -2.234 -0.158
3.871 -2.232 -0.012
3.899 -2.245 0.13
3.879 -2.256 -0.082
3.89 -2.254 0.058
3.916 -2.265 0.204
3.869 -2.272 -0.156
3.88 -2.267 -0.009
3.912 -2.282 0.134
3.89 -2.291 -0.08
3.905 -2.292 0.061
3.928 -2.303 0.209
3.879 -2.308 -0.154
3.898 -2.307 -0.006
3.929 -2.323 0.138
3.901 -2.328 -0.077
3.913 -2.327 0.065
3.938 -2.339 0.213
3.901 -2.351 -0.152
3.913 -2.346 -0.002
3.938 -2.358 0.142
3.903 -2.359 -0.074
3.926 -2.365 0.069
3.949 -2.376 0.218
3.894 -2.376 -0.149
3.927 -2.384 0.0
3.949 -2.395 0.147
3.918 -2.397 -0.07
3.941 -2.404 0.073
3.956 -2.411 0.223
3.909 -2.415 -0.146
3.932 -2.418 0.004
3.952 -2.427 0.151
3.916 -2.426 -0.067
3.954 -2.442 0.077
3.973 -2.452 0.228
3.922 -2.453 -0.143
3.943 -2.454 0.008
3.963 -2.464 0.156
3.907 -2.45 -0.063
3.959 -2.476 0.081
3.986 -2.49 0.234
3.932 -2.489 -0.14
3.953 -2.49 0.012
3.98 -2.505 0.161
3.908 -2.48 -0.059
3.988 -2.524 0.086
4.267 -2.699 0.256
4.249 -2.722 -0.147
4.258 -2.715 0.017
4.277 -2.725 0.178
3.924 -2.52 -0.056
4.245 -2.719 0.097
4.282 -2.741 0.262
4.241 -2.748 -0.142
4.222 -2.724 0.022
4.241 -2.734 0.182
3.929 -2.553 -0.051
4.202 -2.723 0.101
4.235 -2.743 0.264
4.203 -2.755 -0.137
4.191 -2.735 0.027
4.207 -2.744 0.186
3.941 -2.59 -0.047
4.179 -2.74 0.105
4.196 -2.75 0.268
4.161 -2.759 -0.13
4.17 -2.752 0.031
4.168 -2.75 0.189
3.978 -2.644 -0.043
4.126 -2.735 0.109
4.161 -2.759 0.272
4.116 -2.76 -0.124
4.118 -2.749 0.037
4.098 -2.735 0.192
3.956 -2.659 -0.037
4.078 -2.734 0.113
4.093 -2.745 0.273
4.075 -2.762 -0.118
4.083 -2.756 0.042
4.077 -2.752 0.197
3.947 -2.682 -0.032
4.044 -2.742 0.118
4.034 -2.736 0.275
3.977 -2.725 -0.11
3.996 -2.726 0.046
4.019 -2.742 0.2
3.957 -2.718 -0.027
3.989 -2.734 0.123
4.006 -2.747 0.28
3.96 -2.742 -0.104
3.97 -2.738 0.052
3.995 -2.756 0.205
3.955 -2.745 -0.021
3.986 -2.761 0.128
3.977 -2.757 0.284
3.941 -2.757 -0.099
3.964 -2.763 0.057
3.981 -2.776 0.211
3.946 -2.767 -0.016
3.978 -2.785 0.134
3.976 -2.786 0.291
3.939 -2.784 -0.093
3.965 -2.792 0.063
3.979 -2.804 0.217
3.941 -2.792 -0.01
3.953 -2.796 0.14
3.987 -2.823 0.299
3.914 -2.793 -0.086
3.937 -2.801 0.069
6.113 -4.353 0.345
6.222 -4.452 -0.006
6.228 -4.45 0.231
6.086 -4.354 0.467
6.201 -4.469 -0.128
6.218 -4.467 0.12
6.063 -4.36 0.353
6.175 -4.462 0.003
6.191 -4.468 0.241
6.039001 -4.365 0.475
6.151 -4.475 -0.117
6.172 -4.477 0.129
6.012 -4.367 0.36
6.133 -4.473 0.013
6.146 -4.478 0.25
5.986 -4.37 0.482
6.108 -4.485 -0.106
6.128 -4.488 0.139
5.968 -4.377 0.369
6.106 -4.495 0.024
6.095 -4.484 0.258
5.94 -4.378 0.489
6.072001 -4.5 -0.095
6.086 -4.498 0.149
5.927 -4.388 0.378
6.059 -4.501 0.034
6.051 -4.493 0.268
5.901 -4.391 0.499
6.032 -4.51 -0.084
6.047 -4.51 0.159
5.884 -4.398 0.387
6.017 -4.51 0.045
6.01 -4.503 0.278
5.861 -4.402 0.507
5.99 -4.518 -0.072
6.009 -4.522 0.17
5.854 -4.415 0.397
5.977 -4.519 0.056
5.968 -4.512 0.288
5.819 -4.411 0.516
5.95 -4.525 -0.061
5.963 -4.526 0.181
5.818 -4.427 0.407
5.948 -4.535 0.067
5.928 -4.52 0.298
5.78 -4.421 0.525
5.913 -4.534 -0.049
5.928 -4.538 0.191
5.774 -4.432 0.416
5.906 -4.54 0.079
5.882 -4.523 0.308
5.756 -4.44 0.536
5.875 -4.54 -0.037
5.89 -4.546 0.203
5.741 -4.444 0.426
5.872 -4.55 0.09
5.854 -4.539 0.319
5.712 -4.445 0.545
5.842 -4.549 -0.025
5.853 -4.553 0.214
5.707 -4.454 0.437
5.829 -4.551 0.102
5.82 -4.549 0.331
5.682 -4.458 0.555
5.806 -4.555 -0.013
5.815 -4.558 0.225
5.67 -4.46 0.446
5.803 -4.565 0.114
5.784 -4.555 0.342
5.644 -4.464 0.565
5.785 -4.571 0.0
5.782 -4.566 0.237
5.636 -4.468 0.457
5.764 -4.566 0.126
5.755 -4.566 0.353
5.607 -4.469 0.575
5.744 -4.57 0.011
5.756 -4.578 0.249
