# .PCD v0.7 - Point Cloud Data file format
VERSION 0.7
FIELDS x y z
SIZE 4 4 4
TYPE F F F
COUNT 1 1 1
WIDTH 1514
HEIGHT 1
VIEWPOINT 0 0 0 1 0 0 0
POINTS 1514
DATA ascii
2.2758939 -0.31084576 0.35184884
2.2598746 -0.29365876 0.3554548
2.2528791 -0.2776401 0.35424274
2.2756693 -0.28760961 0.36073905
2.2498305 -0.26212594 0.35411096
2.2731576 -0.26006594 0.36056215
2.2418442 -0.24598005 0.35287881
2.2462473 -0.23091286 0.35539645
2.2523129 -0.22613677 0.35999483
2.2474642 -0.21342348 0.35633981
2.2377834 -0.19908194 0.35258216
2.2468257 -0.19821125 0.35975772
2.2297969 -0.18293607 0.35135007
2.2257571 -0.16729467 0.35119826
2.2314806 -0.16902696 0.35632002
2.2266753 -0.15228951 0.35114688
2.2275739 -0.13727976 0.35209548
5.0702653 -0.081668139 0.40583593
5.0910296 -0.05307452 0.40811324
6.0572643 0.2423455 0.42878264
6.0600719 0.2722331 0.42970008
6.0438046 0.30255023 0.42923951
6.0303831 0.33149385 0.42884141
12.312937 1.3107765 0.55007619
12.301628 1.3717097 0.54857194
12.279024 1.4310682 0.54685211
12.253345 1.4898098 0.54407436
12.226669 1.5486797 0.54127645
12.251066 1.6130983 0.5414595
12.341221 1.6872261 0.54289293
12.418343 1.762019 0.54506671
12.429737 1.8270956 0.54399043
12.421534 1.8886383 0.54254425
12.461079 1.9309659 0.5511291
12.477829 1.9983773 0.54914767
12.49048 2.0653105 0.54808718
12.521885 2.1368899 0.54637462
12.531685 2.2051964 0.54525167
12.548546 2.2736044 0.54426777
12.578962 2.3453119 0.54253513
12.612568 2.4186301 0.5428583
12.377499 3.6656952 0.53346598
12.336685 3.7405007 0.53331667
12.304157 3.8172681 0.53432178
12.268536 3.8934259 0.53526843
12.231794 3.9687192 0.53619719
12.221994 4.2603245 0.52765542
12.167412 4.3227897 0.5312928
12.26787 4.429872 0.53177655
12.198519 4.8239017 0.52758956
12.149363 4.8886871 0.52732205
12.265755 5.0723577 0.52476555
12.24192 5.1621313 0.5278821
12.187916 5.2366133 0.52947468
12.147797 5.5210366 0.52837056
12.161966 5.6230564 0.52517772
12.128941 5.7734756 0.51983112
12.08452 5.8517709 0.52059484
12.17384 6.0288334 0.51853549
12.196844 6.3021283 0.51672584
11.983635 6.3385792 0.5203591
12.04981 6.4298949 0.52024066
12.121843 6.4639931 0.51550078
12.016342 6.6086044 0.51675522
12.1623 6.5908766 0.51671177
12.064089 6.6508737 0.51850063
12.146385 7.2059159 0.51955754
12.111967 7.4321322 0.51583397
11.985199 8.5564041 0.50514179
12.011309 9.6156969 0.50076193
12.040377 9.6855688 0.50401211
11.94418 10.294772 0.50030267
12.174458 10.588851 0.50348014
12.830084 11.440324 0.51346135
2.9785547 -5.3653679 0.39904618
2.9520915 -5.3508725 0.40345901
2.966604 -5.3557596 0.4027673
3.0244482 -5.3450389 0.40285695
3.0366893 -5.3365345 0.40005815
3.0774715 -5.3316698 0.40884072
3.3059788 -5.2400122 0.41191834
3.3819139 -5.1832261 0.40815079
3.5034957 -5.1625314 0.41145039
3.7037523 -5.0632153 0.41393626
3.7287886 -5.0633903 0.42143154
3.8461246 -5.0300698 0.41558754
4.1099877 -4.8814301 0.42810005
4.1808696 -4.8643274 0.42241591
4.8075271 -4.7017694 0.43500948
4.1010742 -4.5979977 0.42361426
4.8152738 -4.6967182 0.43313831
4.7104187 -4.6489744 0.4358533
4.8079176 -4.6594748 0.43482172
4.8718657 -4.6717138 0.43613809
4.7531128 -4.6312747 0.43161148
4.9202709 -4.647676 0.43898088
4.778749 -4.6043191 0.43199193
4.9680195 -4.628593 0.44283396
4.9902167 -4.6213684 0.43823671
5.0716348 -4.6076236 0.43877679
5.0461411 -4.5932488 0.44420952
5.0925789 -4.5861177 0.43708974
5.0214448 -4.5184979 0.4443779
5.0599375 -4.5022779 0.43905991
5.2317309 -4.5293512 0.44857049
5.0858431 -4.4884539 0.44250703
4.0670342 -4.3133483 0.42262876
4.1649799 -4.3128214 0.41955471
5.361702 -4.4593258 0.44980693
4.1331339 -4.2936077 0.42083913
5.4190583 -4.4525776 0.44890523
4.1419263 -4.2796073 0.42394817
4.1736145 -4.2604842 0.42448401
4.1851707 -4.264998 0.42273217
5.5450945 -4.3971672 0.45213217
5.5886683 -4.3644524 0.44983876
5.569355 -4.3347602 0.44632053
5.6224666 -4.3133416 0.44926816
5.6775584 -4.2921782 0.45225608
5.7317653 -4.2698903 0.45622158
5.7870045 -4.2477398 0.45820755
5.8784246 -4.2584715 0.45705736
5.874383 -4.2357793 0.45187193
5.9287791 -4.2195621 0.45786953
5.8166742 -4.1819878 0.45548749
5.9592185 -4.1952496 0.45335573
5.9675026 -4.1922641 0.46150678
5.8594785 -4.1632924 0.45224357
6.0151563 -4.1752 0.45736569
6.0658002 -4.1494327 0.46024454
6.1245837 -4.1307573 0.46431702
6.202179 -4.1397195 0.45988566
6.2476511 -4.1223555 0.46570224
4.4929595 -2.621819 0.41720223
4.5714574 -2.6298647 0.42378688
4.611629 -2.6148505 0.42750949
4.3438339 -2.3385305 0.41395605
4.1266737 -1.7521088 0.41296995
4.158823 -1.7370768 0.41453397
3.089473 -1.5635552 0.39066684
6.2750573 -1.9078519 0.4480086
3.0316672 -1.4805306 0.38514382
6.3336248 -1.8911693 0.4500854
6.2122598 -1.8473674 0.44649214
6.3661823 -1.8650992 0.45160651
6.273766 -1.8310573 0.45062894
6.385006 -1.8362609 0.45184404
6.3322945 -1.8143653 0.45470542
6.4300737 -1.8148211 0.45363301
6.3705487 -1.7910422 0.45635146
6.5424891 -1.810083 0.45982635
6.3893499 -1.7621992 0.45758867
6.5984449 -1.7900389 0.46283644
6.4071603 -1.7332283 0.45880598
6.7082644 -1.705345 0.45660686
3.7272685 -1.1967576 0.40053576
3.7567987 -1.1864306 0.40206993
3.7904027 -1.1756157 0.4046824
2.7592247 -0.97170615 0.38142693
2.7693226 -0.9558627 0.38155252
4.0042934 -1.0891567 0.39949447
4.0559793 -1.078644 0.40346473
3.824296 -1.0216799 0.40363872
4.0285888 -1.0489198 0.40078741
3.8238676 -1.0014608 0.4035368
3.810822 -0.9776085 0.40216947
3.8181999 -0.9593994 0.40223056
2.2948241 -0.47557002 0.36498535
2.3014181 -0.46330756 0.36605877
2.3129699 -0.45168138 0.3672328
2.3136332 -0.43865982 0.36718565
2.2843142 -0.43085626 0.37057292
2.2961209 -0.41724634 0.37174278
2.3075027 -0.42376047 0.36599582
2.3053184 -0.40936539 0.36588633
2.2979033 -0.40336028 0.37171382
2.3020358 -0.39583963 0.36475909
2.2948747 -0.38785073 0.37058228
2.2947652 -0.38180003 0.36455101
2.2908542 -0.37221396 0.3694306
2.298404 -0.36916044 0.36456418
2.2906728 -0.35807791 0.36836153
2.298203 -0.35501984 0.36449498
2.2836781 -0.3420594 0.36714947
2.2909534 -0.34098494 0.36328709
2.2834632 -0.32842633 0.36458182
2.2753632 -0.31276476 0.36585015
2.2832472 -0.31479323 0.36201406
2.2769704 -0.30088112 0.36182606
2.2741909 -0.29850167 0.36476099
2.2700236 -0.2838521 0.36461127
2.2688496 -0.26958886 0.36352199
2.276314 -0.27458367 0.36169159
2.2464678 -0.24653789 0.36997592
2.2587523 -0.25418031 0.36225176
2.2594359 -0.24116352 0.36120474
2.2807438 -0.24793074 0.36165571
2.247386 -0.23153272 0.36992466
2.2473121 -0.21640033 0.36985332
2.2643986 -0.22464219 0.37022805
2.2266197 -0.19762205 0.36535817
2.2442839 -0.20089082 0.36872178
2.234313 -0.18449032 0.3674494
2.25665 -0.18434687 0.36088735
4.9333539 -0.12455262 0.42134076
4.9364629 -0.11587572 0.42236221
5.006012 -0.077426121 0.41855347
4.9238372 -0.050757732 0.41281068
5.0439534 -0.024821509 0.42205846
5.3404322 -0.0013832618 0.42078894
6.0664072 0.26035073 0.43988186
6.0398402 0.28896523 0.43922627
6.0241828 0.34743178 0.43764746
6.036171 0.37815759 0.43874186
12.397091 0.94712842 0.56341624
12.395954 1.0087725 0.56210881
12.384659 1.0697012 0.55960459
12.370398 1.1310104 0.55703986
12.350899 1.1909783 0.55537844
12.329315 1.2502041 0.55267924
12.268826 1.45559 0.55854034
12.244286 1.5151922 0.55478096
12.221956 1.576528 0.55205733
12.32254 1.6533506 0.55368382
12.351305 1.7202311 0.55294114
12.463543 1.8016083 0.5557763
12.470991 1.8671889 0.55361974
12.21069 4.0480556 0.53741533
12.201216 4.1319513 0.54084194
12.151682 4.2018294 0.54154366
12.184155 4.2511024 0.54495639
12.128448 4.2804322 0.54372346
12.21335 4.3360624 0.53813744
12.127321 4.3884411 0.53720081
12.050255 4.4406857 0.54044259
12.099766 4.8023181 0.53674626
12.098616 4.855896 0.53447568
12.162685 5.3235435 0.53357702
12.086863 5.4169679 0.53765291
12.124937 5.4070354 0.53644854
12.070602 5.5178556 0.5358665
11.99505 5.7695193 0.5332154
12.04978 5.7877026 0.53520972
12.13962 5.7801976 0.53301322
11.966274 5.8669705 0.53019786
12.089008 5.8955684 0.52648211
12.034843 6.212039 0.52595347
12.025763 6.2444754 0.53262597
12.109058 6.2408328 0.52928281
11.953417 6.2930746 0.5289759
12.040501 6.4613624 0.53191435
12.036333 6.569766 0.52833068
12.031214 6.6157894 0.52501661
11.989941 6.6876378 0.52887249
12.063549 7.0492086 0.52965224
12.0123 7.144506 0.52720219
12.081476 7.2818022 0.52092892
11.879866 7.3530512 0.52062923
12.036631 7.5133882 0.51797539
11.920748 8.0565729 0.52018434
12.013546 8.6374788 0.51532775
11.915581 8.730711 0.51596767
12.245903 8.9161654 0.51761693
2.4735756 -5.5677166 0.4000358
2.5065186 -5.5457191 0.4065842
2.5234442 -5.5468764 0.40992367
2.5912774 -5.5142612 0.40410763
2.6372027 -5.5020056 0.40495574
2.7694786 -5.4604993 0.41037029
2.8107247 -5.4305158 0.40604329
3.0145226 -5.3497901 0.41468596
3.0156295 -5.3408542 0.41666681
3.1561511 -5.2913485 0.41420513
3.3466415 -5.1968193 0.4205215
3.5342078 -5.1412411 0.42395943
3.5514152 -5.1253066 0.42222446
3.5762057 -5.0972381 0.42158288
3.6848359 -5.074873 0.42762023
3.779494 -5.0517311 0.43137848
3.8933072 -5.021987 0.42748171
3.8473284 -4.9878616 0.42441797
4.1465197 -4.879056 0.43180937
4.1743593 -4.8664989 0.43129951
4.0913291 -4.6168838 0.43651235
4.8039336 -4.704309 0.44695294
4.67414 -4.6715264 0.44124401
4.8186274 -4.6920815 0.44618565
4.8588572 -4.6770802 0.44690895
4.8566589 -4.6475658 0.44372851
4.9422336 -4.6474452 0.45141488
4.760757 -4.6171098 0.44269872
4.89568 -4.625339 0.45039582
4.9898243 -4.6303687 0.45027316
5.0453725 -4.6143155 0.44829249
5.1033244 -4.5713449 0.44823539
4.9803605 -4.5313578 0.44962925
5.0538974 -4.5004697 0.4499349
5.2510405 -4.5187006 0.45890361
4.0466962 -4.3288646 0.43230194
4.0649476 -4.3281851 0.43165809
4.100337 -4.3125744 0.42628187
5.3868794 -4.4665809 0.45533752
5.3930578 -4.4492173 0.45937973
4.1378517 -4.278049 0.43586326
4.1752658 -4.2697506 0.43356127
4.1862688 -4.262084 0.4367432
5.5822725 -4.3888135 0.4618277
5.6306152 -4.3506665 0.4576028
5.675539 -4.3372607 0.46542716
5.6840968 -4.2314925 0.46410698
5.7284994 -4.2160273 0.46090931
5.8458099 -4.2290702 0.46127999
5.9187727 -4.2414517 0.46477503
5.772017 -4.1994371 0.45868933
5.899302 -4.2046752 0.46422154
5.9704876 -4.1916261 0.46756393
6.026731 -4.1776733 0.4676072
6.0165744 -4.1622519 0.46933621
6.0758343 -4.1557374 0.47247392
6.0813284 -4.1443443 0.47252947
6.1433825 -4.1240754 0.47465843
6.1826501 -4.1099753 0.46736515
6.2923636 -4.1028762 0.4724943
6.2352772 -4.0844631 0.4702844
6.2860479 -4.057703 0.4731614
6.3600631 -4.0460229 0.47756582
6.4082613 -4.0159116 0.47937649
4.3853898 -2.6725121 0.42832023
4.3741388 -2.6428447 0.42496085
4.3911123 -2.6359441 0.4272638
4.3939519 -2.6141338 0.42521846
4.3976974 -2.600497 0.42622954
4.4139137 -2.5844343 0.4244743
4.4597864 -2.5953517 0.4304294
4.4854088 -2.5845292 0.42888379
4.5057993 -2.5820973 0.43327498
4.5551934 -2.582391 0.43224895
4.6526651 -2.600955 0.43125421
4.6044555 -2.5675392 0.43415087
4.6451759 -2.5485642 0.43586564
4.5256886 -2.4747622 0.43017024
3.9678438 -1.9363798 0.4156937
4.1448255 -1.8451611 0.42075896
4.113349 -1.8149006 0.42399979
4.148303 -1.8183904 0.41870326
4.1347141 -1.7833822 0.41527325
4.1986518 -1.725046 0.41626328
4.230948 -1.7090268 0.41682541
4.2707753 -1.6969962 0.41855448
4.3040633 -1.6811038 0.41913688
4.3421631 -1.6668353 0.42082167
2.974858 -1.4812787 0.39703089
2.9892588 -1.4710264 0.39826745
4.3745866 -1.6498241 0.42138183
3.0160217 -1.4663908 0.40077353
4.4204731 -1.6375616 0.42422944
2.9741104 -1.4398448 0.39782488
2.9992914 -1.4319837 0.39928478
4.4371786 -1.5862747 0.42232114
4.5226841 -1.587159 0.42701024
4.5590534 -1.5706528 0.42865068
4.6003838 -1.5547822 0.43039173
6.6565342 -1.7692611 0.464885
6.5282288 -1.7316152 0.46618438
6.709641 -1.7478428 0.46783262
6.5735312 -1.7081872 0.46896899
6.6334548 -1.6886511 0.47205961
3.5710719 -1.2260914 0.40859675
3.5642502 -1.2010236 0.40634608
3.8103971 -1.1610399 0.40600914
3.8527796 -1.1523577 0.40980452
3.8747575 -1.1380368 0.4111715
2.7799413 -0.97333145 0.3938449
3.8705091 -1.1163216 0.40998727
2.7646766 -0.95121282 0.39144158
3.8720641 -1.0963572 0.40992564
2.7841625 -0.94060481 0.39277649
2.8046355 -0.94728154 0.38520914
3.8610017 -1.0727592 0.40859854
3.8451283 -1.0475378 0.406169
3.8203013 -0.96468514 0.41429883
3.8171723 -0.94210505 0.41313255
3.8052652 -0.91739273 0.41078359
3.7973051 -0.89318484 0.40951473
2.2870584 -0.41606867 0.37856025
2.2965002 -0.40517983 0.37969625
2.2790782 -0.39185598 0.37829125
2.294208 -0.39178121 0.37858897
2.284091 -0.37636811 0.37831831
2.303777 -0.37990054 0.37972277
2.2993736 -0.36723924 0.37857729
2.2841442 -0.36024374 0.378245
2.3020217 -0.35447243 0.37857044
2.2733295 -0.34272894 0.37595057
2.2967548 -0.34069195 0.37740284
2.2693088 -0.32709208 0.37479901
2.2902422 -0.3287681 0.37621915
2.2712193 -0.3122142 0.37476784
2.2918966 -0.31587389 0.37619221
2.2835276 -0.30270362 0.37496638
2.2702813 -0.29596269 0.37467426
2.2633054 -0.27994865 0.37246239
2.2802444 -0.28917781 0.37383884
2.2787976 -0.27689368 0.37375379
2.259393 -0.26331544 0.37230849
2.2743952 -0.26423246 0.37260824
2.2691281 -0.25045207 0.37144065
2.2676814 -0.238168 0.37135547
2.2967162 -0.21567458 0.37482399
5.0226054 -0.1430532 0.42818552
5.0696573 -0.15311989 0.43115926
4.9542389 -0.094965011 0.42411596
5.240777 0.0023674462 0.43581206
5.6265769 -0.022941396 0.44552922
5.6414638 0.029582527 0.44157898
5.6571646 0.057815749 0.44275814
5.652668 0.085614115 0.44254106
5.651257 0.11402689 0.44338214
12.349314 1.2123863 0.57025129
12.337162 1.2744329 0.567725
12.314705 1.334778 0.56500328
12.290291 1.3953726 0.56124181
12.159224 4.1676078 0.54985207
12.07366 4.3489695 0.54632854
12.037619 4.4221616 0.54928106
12.008047 4.5055995 0.54631263
12.011692 4.6987047 0.54449189
12.004885 4.8891196 0.54347807
12.168098 5.5245109 0.54375756
12.07769 5.5825 0.54570943
11.99246 5.6720738 0.54161614
11.904423 6.3608856 0.53970003
11.896957 6.3799758 0.53146303
11.982246 6.3770962 0.5341568
11.826283 6.4818077 0.53360122
11.858313 6.5976696 0.5326966
11.997412 6.9044681 0.53802001
11.985298 7.139926 0.53669357
11.939152 7.4079719 0.53054523
11.925478 7.5528927 0.53060645
11.704895 8.4028893 0.5263347
12.130926 8.6980572 0.53036284
11.743343 10.091725 0.51628846
11.86725 10.177652 0.51933259
2.8458891 -5.4208789 0.42369497
2.9594271 -5.3618627 0.41965759
2.9557025 -5.3512998 0.42153585
3.038996 -5.3388023 0.42111844
3.1175532 -5.3156104 0.42355901
3.129154 -5.3029747 0.42873001
3.349792 -5.2264504 0.42572141
3.574409 -5.1322598 0.43771261
3.5659671 -5.1039572 0.43641537
3.824151 -5.032238 0.44116992
3.8212349 -5.0006175 0.43696564
3.9310017 -5.0015984 0.43813211
4.1084733 -4.8872581 0.44109976
4.1631503 -4.8730955 0.44511199
4.6323123 -4.7044401 0.45557529
4.7978559 -4.7024927 0.4598273
4.8202729 -4.6852102 0.45818871
4.8450942 -4.6803298 0.45865512
4.7375979 -4.6231918 0.45227277
4.9571528 -4.6392541 0.46367335
4.9780102 -4.6308517 0.45804423
5.0283709 -4.627233 0.45901954
4.9392757 -4.6067262 0.45716971
5.0621548 -4.5922537 0.45652276
4.9055948 -4.5620646 0.46130085
4.9374185 -4.542974 0.45483828
5.1259441 -4.5661569 0.45965916
5.0229254 -4.5126081 0.45838267
4.0266533 -4.3424048 0.43997121
5.337327 -4.504549 0.47054011
5.3512397 -4.4761071 0.46168089
4.1674514 -4.2737651 0.44542825
5.4235482 -4.4379883 0.4689303
5.6197248 -4.378479 0.47051942
5.7131648 -4.3178782 0.47308034
5.6038141 -4.2665391 0.47168928
5.6442499 -4.2505641 0.46841109
5.9646854 -4.2281742 0.47261953
6.0033245 -4.2089233 0.47929281
6.1323609 -4.1387854 0.47750986
6.1871796 -4.1196012 0.4815017
6.1878681 -4.0914702 0.47638422
6.2402506 -4.098175 0.48644894
6.3446326 -4.0873914 0.47945356
6.2436166 -4.065352 0.47836196
6.3977823 -4.0730295 0.48543513
6.3002295 -4.0403528 0.480362
6.3634033 -4.0192199 0.48250902
6.4267025 -3.9970939 0.48465389
6.4722772 -3.9958923 0.48254544
6.4929795 -3.9753518 0.48685926
4.3579431 -2.7193725 0.44099873
4.5839825 -2.5850661 0.43782938
4.6338339 -2.5733116 0.44075751
4.1525321 -1.9096521 0.42821014
4.1403584 -1.878852 0.42782813
4.1236482 -1.8444493 0.42533946
4.1432419 -1.8015925 0.42652762
4.1769719 -1.789786 0.42913795
4.2116942 -1.778107 0.43176842
4.2444539 -1.7661773 0.43335879
4.2754655 -1.7520056 0.43590456
3.0664909 -1.543429 0.40812486
2.9945407 -1.4686733 0.40136105
3.4380105 -1.3027532 0.41833222
3.6414621 -1.2734219 0.41720343
6.6943507 -1.6692381 0.47617006
3.7215946 -1.1365142 0.41514874
3.7282548 -1.116199 0.41418588
3.741709 -1.0977615 0.41436565
3.7590041 -1.0808251 0.41462809
3.8104374 -1.0722966 0.41860259
3.8384936 -1.0577472 0.42008829
3.8578777 -1.0400686 0.42138869
3.8441153 -1.01411 0.41899711
3.8400147 -0.99140739 0.41681105
3.6234813 -0.91016841 0.42017204
3.6171224 -0.88919026 0.41894948
3.6264822 -0.87123609 0.41905093
3.6494524 -0.85704231 0.42043805
2.2641141 -0.42015651 0.39012963
2.280879 -0.4071829 0.39140016
2.329354 -0.41543475 0.38539183
2.2535417 -0.29883039 0.38636023
2.1871758 -0.28123146 0.38897246
5.6529179 0.0099797007 0.44889671
5.651886 0.041368101 0.44973147
12.400023 0.96493816 0.58139539
12.388859 1.0268583 0.57888889
12.382908 1.0901253 0.57647902
12.370628 1.1511812 0.57395452
11.058332 3.3742976 0.53783226
12.093557 3.9955912 0.56135559
12.096281 4.0708427 0.55506039
11.988926 4.4909244 0.55100465
11.958132 4.5654516 0.55205435
11.967764 4.5702748 0.55522227
11.869995 4.6100497 0.55611312
11.983204 4.6197085 0.55429786
11.922606 4.9249039 0.55069399
11.959682 5.2064819 0.554124
12.041924 5.3199205 0.54821849
11.974869 5.4101925 0.54748064
11.947781 5.5608711 0.54925156
12.022655 5.6571226 0.54928142
12.027981 5.6745806 0.54630512
11.963123 5.728291 0.55378133
11.869247 5.7655296 0.54575866
11.853329 5.8845167 0.54189491
11.929991 6.1126146 0.54235089
11.968096 6.1349497 0.54499882
11.864096 6.1896472 0.54969883
11.828695 6.2667747 0.54564452
11.87525 6.3071728 0.54437429
11.78866 6.4100318 0.54219389
11.849161 6.441587 0.54323965
11.716862 6.534183 0.54220605
11.855946 6.5415373 0.54291147
11.823984 6.7008996 0.54154569
11.752594 7.0326948 0.54260689
11.692705 7.2571445 0.54039007
11.79855 7.5792894 0.54198706
11.888149 8.4408751 0.53176957
12.03639 8.4974823 0.54142964
11.723095 8.6949606 0.53234541
11.855137 9.4402075 0.52750218
11.784302 9.5319672 0.52368236
11.732391 10.258483 0.52030325
11.871807 10.637821 0.52129698
2.4683306 -5.5659919 0.42092878
2.4913225 -5.5588479 0.4263497
2.5343878 -5.5371509 0.42909813
2.6130209 -5.5069308 0.42250592
2.6628931 -5.4951806 0.42443424
2.8019218 -5.4484973 0.42795748
2.9975457 -5.3455539 0.43333584
3.0552433 -5.3358188 0.43442738
3.1567702 -5.2984352 0.43825501
3.3225644 -5.2249537 0.43518025
3.3912861 -5.2075548 0.43845403
3.5551467 -5.1328087 0.43933606
3.6655655 -5.0814457 0.44127393
3.7961338 -5.0134993 0.44953328
3.8672051 -5.0095134 0.45091486
3.9728906 -4.9877973 0.44889557
4.077105 -4.906404 0.44957221
4.1040969 -4.8836403 0.45599997
4.1520863 -4.8787069 0.4579227
4.1503448 -4.7121382 0.45411825
4.6211333 -4.7120667 0.46139145
4.6893029 -4.6915779 0.46163946
4.7401352 -4.6718807 0.46655059
4.8320646 -4.6856909 0.47042567
4.8387518 -4.6885643 0.47057068
4.7208495 -4.6341257 0.46299565
4.9786925 -4.6349416 0.47307968
4.9749999 -4.6254053 0.46696156
4.9979343 -4.6273389 0.46742225
4.9864373 -4.5915914 0.46503031
4.8656101 -4.5740581 0.46757007
5.0354528 -4.5777035 0.47293311
5.0713978 -4.5813203 0.46765673
5.1505666 -4.5612316 0.47012359
4.9606643 -4.5318055 0.47324824
3.9820442 -4.3971438 0.45334822
4.9903708 -4.5215197 0.46578413
3.9988322 -4.3620162 0.44451487
4.0002422 -4.3500843 0.45048869
5.2724404 -4.507309 0.47027481
5.3082309 -4.5179372 0.47803032
4.1394906 -4.2792444 0.44690329
4.1563454 -4.2723193 0.4552049
5.453196 -4.4256458 0.47745895
4.1865888 -4.2500019 0.44769585
5.6507244 -4.3632836 0.48006171
5.5217843 -4.299345 0.48022693
5.5632315 -4.2835011 0.47596925
5.7555146 -4.3011203 0.47983843
5.7942786 -4.2808766 0.48650962
6.0456724 -4.1921654 0.48605096
6.0872869 -4.173296 0.49278468
6.120142 -4.0585432 0.49390191
6.2943306 -4.0768781 0.49041653
6.1731644 -4.038125 0.49485201
6.3465543 -4.0543361 0.49434173
6.2206349 -4.0139732 0.49467534
6.4409156 -4.0503244 0.49118108
6.4064384 -4.03479 0.49943191
6.2755322 -3.9948065 0.49466795
6.3269525 -3.9711602 0.49557167
6.3904991 -3.9551179 0.49674934
6.4353604 -3.9276037 0.49750602
6.5038462 -3.9121938 0.49978399
4.3787885 -2.6978438 0.44431049
4.387527 -2.6687157 0.44634855
4.3943038 -2.6393371 0.44734645
4.4572935 -2.6423671 0.45460254
4.3535752 -2.4143171 0.4485051
4.3368726 -2.3718479 0.44697964
4.3144736 -2.3266311 0.44532919
4.2929373 -2.2825327 0.44370115
4.2752619 -2.2399406 0.44115567
4.2645893 -2.2053008 0.44078535
4.2509627 -2.1702836 0.4393549
4.2770495 -2.1463933 0.44776005
4.2580194 -2.1066546 0.44420099
4.1380281 -1.8079436 0.44445795
4.1249208 -1.7770305 0.44105631
4.1394939 -1.7577283 0.44125426
4.1694078 -1.7444254 0.44278222
6.1648312 -1.9914291 0.48123068
4.2060075 -1.7339972 0.44445521
4.3113079 -1.7394617 0.43855309
4.2369299 -1.7208263 0.44500351
4.3413258 -1.7251621 0.44107884
6.2274776 -1.9742589 0.48438567
4.2708063 -1.7080321 0.44661194
4.3811345 -1.7131279 0.44380784
6.2804589 -1.9538327 0.48733544
4.419951 -1.7009648 0.44651663
6.2197189 -1.9087346 0.48593056
3.2117276 -1.5096178 0.42183191
4.408915 -1.6693048 0.44515276
4.4295478 -1.6497701 0.44646919
2.9985693 -1.4499946 0.42035806
2.9797864 -1.4163389 0.41583163
3.0103083 -1.4061384 0.41738605
3.5403492 -1.3834146 0.43072289
3.4184213 -1.3284523 0.4260667
3.4497912 -1.3284577 0.4206835
3.3845093 -1.2948707 0.42124283
3.4713404 -1.2939175 0.42194855
3.3985736 -1.2795364 0.42144889
3.4211619 -1.2683179 0.42284226
3.4999857 -1.2824667 0.42446035
3.4487071 -1.2577366 0.42433619
3.5294955 -1.2721345 0.4269942
3.4830487 -1.2490329 0.42697275
3.552465 -1.2579411 0.42838138
3.5144346 -1.2399516 0.42854935
3.537277 -1.2267498 0.42993855
3.5484934 -1.2100413 0.43008226
2.9215937 -0.96728784 0.40860987
3.6591015 -1.0397396 0.42947382
3.6436231 -1.0266608 0.43010879
2.7740054 -0.89893365 0.41138792
3.6666052 -1.0205384 0.429533
3.6375194 -1.0036991 0.42888224
2.797713 -0.88685089 0.4127993
3.6554365 -0.9979372 0.42720819
3.6178067 -0.97697693 0.42637002
3.6560187 -0.9778499 0.4261266
3.6067433 -0.95337898 0.42504287
3.6478035 -0.95562565 0.42486191
3.6181955 -0.93468249 0.42618221
3.628828 -0.93101424 0.42237389
3.6129563 -0.91284001 0.42497784
3.6263905 -0.89439827 0.42615753
3.5508876 -0.79093772 0.42819303
2.3458433 -0.40239647 0.40065938
2.2895799 -0.38509208 0.40047139
2.3340168 -0.38474965 0.39934468
2.2817204 -0.36795437 0.39923722
2.2885728 -0.36279923 0.39234686
2.3082936 -0.35020277 0.39467746
2.2917252 -0.33697385 0.40029126
2.3032615 -0.33443403 0.39450556
2.2855945 -0.32207435 0.39910138
2.2787263 -0.30506393 0.39788735
2.2777884 -0.28881237 0.39779383
2.2717853 -0.27292097 0.39660186
2.2728107 -0.25691938 0.39754844
2.2638514 -0.24065086 0.39529628
2.2609313 -0.22414491 0.3951624
2.2698898 -0.20916134 0.39626998
4.9398503 -0.093065456 0.44932908
4.9400601 -0.067887351 0.44921678
4.9572134 -0.043871295 0.45144415
5.3914499 -0.077422708 0.45715237
5.619576 0.035464004 0.46412539
5.6262426 0.063846096 0.46412563
5.6371126 0.093707472 0.46520191
5.6378307 0.12285323 0.46508139
6.0782595 0.21655449 0.47332442
6.0299182 0.33466813 0.47182637
12.145451 0.73448807 0.58744746
12.101475 0.7925604 0.58731312
11.178911 3.2711341 0.55268657
12.076193 3.8385484 0.57274151
12.051756 3.906193 0.56494606
11.925056 4.5293932 0.56257164
11.922136 4.6396561 0.55900389
11.836943 4.675808 0.56316
11.872183 4.7065682 0.56171155
11.833576 4.9555058 0.55980098
11.877678 5.0950308 0.56102514
11.901739 5.3137426 0.55948842
11.839027 5.3359089 0.5601511
11.868128 5.4360075 0.55426055
11.89711 5.5603371 0.55825794
11.733473 5.7547588 0.55913705
11.908939 5.8018003 0.55837542
11.744228 5.9005637 0.55367428
11.802437 6.000977 0.55635738
11.77846 6.1915836 0.55800498
11.729628 6.2744741 0.55666012
11.850122 6.2932744 0.55194551
11.675108 6.3752251 0.55111986
11.693037 6.4213257 0.55526084
11.669201 6.4314361 0.55174398
11.630587 6.5301418 0.54452592
11.695555 6.5258369 0.54582554
11.792416 6.9429007 0.54680699
11.737391 7.3623152 0.54378533
11.72312 7.9892287 0.54060757
11.705622 8.2072449 0.54525667
11.893661 8.266798 0.55068612
2.6379757 -5.4979939 0.4419601
2.6857836 -5.4789252 0.44281375
2.8295827 -5.4268074 0.44440544
2.8789902 -5.4039211 0.44027191
2.9543226 -5.3672166 0.4385857
2.9605618 -5.3498678 0.4396286
3.0924277 -5.3193984 0.445086
3.1031084 -5.3147216 0.44527483
3.198472 -5.2856116 0.45201993
3.2817717 -5.2267485 0.44638735
3.4369953 -5.1952491 0.4502998
3.5539875 -5.1316204 0.45431089
3.5560896 -5.1076975 0.4522413
3.6111741 -5.1188049 0.45037717
3.6445444 -5.0857739 0.45588291
3.7720242 -5.0265098 0.46212107
3.916203 -4.9956217 0.45981741
4.0144439 -4.9689145 0.45862883
4.0440011 -4.9192739 0.45898163
4.6775737 -4.7031631 0.46946359
4.7983561 -4.7045488 0.4718492
4.7261271 -4.6851845 0.47633821
4.700645 -4.6405835 0.47362971
4.7793474 -4.6406083 0.47117931
4.8337636 -4.6243944 0.47617728
4.9829159 -4.6405144 0.47818959
4.9740772 -4.631321 0.47497249
4.7921972 -4.6019106 0.48025548
4.9826961 -4.626368 0.47912014
4.8319283 -4.5919008 0.4739905
4.8829961 -4.6014686 0.48104197
5.0896497 -4.5785956 0.4800061
4.9310651 -4.5410938 0.48170996
5.0738826 -4.5523796 0.47857422
5.1257668 -4.5398664 0.48553962
5.1698532 -4.5505757 0.48145658
3.9837232 -4.3670974 0.46124417
5.2709918 -4.5242343 0.48432732
5.300292 -4.5007806 0.48079538
4.1412368 -4.2794456 0.45894104
4.2003827 -4.250742 0.45897335
5.4822121 -4.4101944 0.48696095
5.4549828 -4.3391442 0.48909694
5.6857309 -4.3486047 0.48768497
5.4797478 -4.3120885 0.48345846
5.7205911 -4.3349142 0.49630994
5.8423047 -4.2668619 0.4943924
5.8274927 -4.1853056 0.49772453
5.8680439 -4.1602669 0.49640733
5.9198589 -4.1417165 0.49534196
6.1334739 -4.1580377 0.49962533
5.9679399 -4.1206665 0.49519157
6.0225811 -4.1034842 0.4951883
6.0736594 -4.0828214 0.49409872
6.455081 -4.0087643 0.50327045
4.4876781 -2.6250877 0.45812184
4.5650353 -2.6339951 0.46568811
4.3292608 -2.2720404 0.45937121
4.3071761 -2.2248533 0.45471728
4.2902565 -2.1843772 0.45119637
4.1653953 -1.9152813 0.45449489
4.0503192 -1.8864155 0.44409293
4.1454353 -1.882476 0.45294994
4.1678472 -1.8732599 0.4503482
4.1350284 -1.8539233 0.4506126
4.1567035 -1.8425964 0.4479866
4.1216278 -1.8249842 0.44921476
4.1245565 -1.8021718 0.44916695
4.1532016 -1.7907205 0.45167875
4.1876707 -1.7810251 0.4543134
4.3017106 -1.694856 0.44815999
4.3318763 -1.6795698 0.44968385
6.3305922 -1.9320327 0.49022281
2.9685981 -1.4945364 0.42297399
3.0157645 -1.4955394 0.42790872
4.3657541 -1.6667759 0.45129234
4.4016171 -1.6542367 0.452941
3.0166018 -1.4734688 0.42682308
6.2704821 -1.8900419 0.48784453
6.3575821 -1.9022233 0.4916169
4.4251146 -1.6360797 0.45332003
4.5098195 -1.6519974 0.45206153
6.3273225 -1.8711208 0.48987693
4.4686356 -1.6265377 0.4561336
4.5545669 -1.6405941 0.45589077
6.3854356 -1.8735338 0.49303323
4.4758053 -1.6022551 0.45516235
4.5849881 -1.623324 0.45741051
6.368681 -1.8471889 0.49158126
6.477663 -1.8611639 0.49879372
4.5301085 -1.5951047 0.45819944
6.3739138 -1.814594 0.48953325
4.5632472 -1.5802 0.45978361
4.6061769 -1.5675591 0.46157116
3.3487318 -1.3910742 0.43298483
6.3968277 -1.7852721 0.48984927
6.5219884 -1.7831764 0.49730611
3.5319571 -1.3924012 0.43960094
3.3098619 -1.3568563 0.42806023
3.3284826 -1.3451295 0.42937315
6.5867429 -1.7652683 0.50049931
3.274132 -1.3199942 0.43418759
3.3471036 -1.3334022 0.430686
3.3733835 -1.3246719 0.43316364
6.6468139 -1.7447457 0.50258803
3.2809191 -1.2986871 0.43322265
3.3968368 -1.3145733 0.43457925
3.880554 -1.3786697 0.44240361
3.4289193 -1.3075933 0.43817955
3.3060191 -1.2837607 0.43364811
6.7020545 -1.7225949 0.50457406
3.3464375 -1.2748286 0.43640333
3.6963499 -1.1957306 0.4399302
3.4629476 -1.1445998 0.43809688
3.6943383 -1.172286 0.4387821
3.4117262 -1.1128361 0.42993969
3.6696677 -1.1449275 0.43616927
3.6892068 -1.1494473 0.43857539
3.6925106 -1.1317255 0.43755853
3.4870563 -1.0982939 0.43735754
3.6804025 -1.1241246 0.43628454
3.68839 -1.1090188 0.4363721
3.4875114 -1.0791987 0.4362781
3.6608171 -1.0964104 0.43377024
3.4733477 -1.0562108 0.43489265
3.4806917 -1.0541309 0.43402743
3.6595242 -1.0750725 0.4336462
3.6735275 -1.0839291 0.43296289
3.6818972 -1.0658472 0.43304414
3.469837 -1.0366067 0.43373275
3.4894419 -1.0330732 0.43410259
3.6525555 -1.0509914 0.4323976
2.8315322 -0.93654728 0.41969639
3.4897039 -1.0230229 0.43506157
3.509819 -1.0155221 0.43542308
2.7762282 -0.91129416 0.42249107
3.5095716 -1.0094392 0.43639034
3.5469069 -1.0011218 0.43808764
2.7948492 -0.89956695 0.42380387
3.6055851 -0.92093867 0.43887293
3.5919492 -0.89398789 0.43647939
3.586246 -0.86805528 0.4342469
3.5599289 -0.85257119 0.43765777
3.5764501 -0.84260559 0.43193597
3.25753 -0.78251857 0.42737639
3.5578561 -0.81501848 0.42944175
2.3014209 -0.3553533 0.40256774
2.3156974 -0.19687968 0.40311682
5.6173544 -0.050934952 0.47448283
6.0837979 0.15134004 0.48373687
6.0740013 0.24634081 0.47410309
6.038805 0.36478391 0.47286248
12.114525 0.85541618 0.59028018
12.098068 0.91600758 0.59167665
12.076532 0.97624367 0.59297436
12.05699 1.03622 0.59331256
12.049719 1.0976492 0.594886
11.929251 3.5670643 0.58110321
11.985132 3.7342973 0.57442981
11.804628 4.3472714 0.57504338
11.864717 4.4373422 0.56880945
11.774092 4.729259 0.56967634
11.845657 4.7835817 0.56683451
11.775312 4.8410125 0.57018435
11.746656 4.9868464 0.568946
11.805107 4.9864006 0.56809902
11.755117 5.1238904 0.57148015
11.807314 5.2079225 0.56811929
11.801228 5.2308788 0.56589288
11.780039 5.4513788 0.56945777
11.851639 5.8746958 0.56291115
11.678097 5.9373112 0.56620461
11.781158 5.9392061 0.56822586
11.830231 6.0296807 0.56077319
11.696722 6.1295004 0.56568354
11.63566 6.2028632 0.56014103
11.672421 6.3090544 0.56337494
11.698597 6.331902 0.56078434
11.602098 6.4683027 0.56325442
11.676828 6.4607196 0.55976045
11.527147 6.5283327 0.56150061
11.589882 6.7410622 0.55475205
11.490183 6.9151778 0.5559845
11.659294 7.5961876 0.55416882
11.497179 8.2965183 0.54873973
11.569101 8.6845236 0.55136454
11.69367 9.2149792 0.55036712
11.565355 9.4482107 0.54676187
11.51437 9.9699459 0.54434717
11.810846 9.9853163 0.54211485
11.497297 10.19797 0.54195708
2.4711392 -5.57236 0.44101763
2.4743176 -5.5626769 0.44503629
2.54915 -5.5289221 0.44935507
2.9178867 -5.3967795 0.45700836
2.9512217 -5.3728299 0.45655423
2.9828982 -5.3547282 0.45109344
2.966666 -5.3465805 0.45773733
3.0720968 -5.3268485 0.45572221
3.0767484 -5.3213882 0.45978951
3.1339841 -5.3075633 0.45985293
3.2544918 -5.2484221 0.4609533
3.4820738 -5.1798368 0.46311909
3.5481977 -5.111691 0.46810752
3.6515229 -5.1088343 0.46312833
3.6253996 -5.0913539 0.4695344
3.962842 -4.9763832 0.4696492
4.0610366 -4.9577346 0.46949691
4.0073137 -4.928658 0.46830434
4.0988975 -4.9363627 0.47814578
4.1008444 -4.8831944 0.46993679
4.14113 -4.8833213 0.47173107
4.2374501 -4.8392167 0.47642541
4.7989831 -4.7056112 0.48386908
4.8270979 -4.6910787 0.48235536
4.842236 -4.6829333 0.48361605
4.6832891 -4.6484146 0.48432636
4.7693887 -4.6614881 0.48208195
4.8180895 -4.6425223 0.48795462
4.7713413 -4.6294608 0.48897386
4.9590192 -4.6444836 0.48773926
4.9705219 -4.6338668 0.48491621
4.9870615 -4.6218638 0.49118781
4.9965482 -4.627121 0.48739809
4.9348173 -4.5818944 0.48597318
4.9078984 -4.555243 0.49032086
4.9848061 -4.5610809 0.48986226
5.1070552 -4.5747566 0.49133343
3.9904225 -4.4072518 0.47356415
5.0404673 -4.5430131 0.49487615
5.194582 -4.544652 0.49291849
5.2437305 -4.5388651 0.49285978
5.1724658 -4.5206432 0.49237198
5.2200475 -4.502542 0.49822664
5.3264141 -4.492013 0.4912715
4.1422672 -4.2775373 0.46995479
4.1542258 -4.279078 0.46719688
4.21032 -4.2570224 0.47620159
4.2170048 -4.2528496 0.47131294
4.2250671 -4.2599244 0.47650558
5.5213723 -4.4020948 0.49669689
5.378274 -4.3696051 0.49872887
5.4156275 -4.3542452 0.49439269
5.7584252 -4.3216047 0.50499541
5.5820589 -4.2737613 0.50430077
5.6370735 -4.2616692 0.50332832
5.6819677 -4.2422314 0.50112218
5.7308064 -4.2232981 0.4999963
5.8857718 -4.2492394 0.50116855
5.9303808 -4.2307563 0.50696278
5.7795181 -4.2053566 0.4988727
6.1781912 -4.1385589 0.50641733
6.2227783 -4.1200714 0.51321143
4.3641057 -2.6898499 0.47299033
4.6143403 -2.6261981 0.47062409
4.6495528 -2.6105468 0.47424608
4.360498 -2.3264506 0.4642387
4.2778955 -2.2150149 0.46909821
4.2620473 -2.1817322 0.46663177
4.2413502 -2.1468151 0.4650625
4.2274685 -2.0895765 0.46752512
4.2191615 -1.7709471 0.45688748
4.2470899 -1.7573898 0.45837522
4.2738814 -1.7446926 0.4608447
4.3008175 -1.7310078 0.46231234
4.3372674 -1.721567 0.46498716
4.3681517 -1.7083864 0.46753508
2.9715693 -1.4858266 0.43099397
3.0213091 -1.4901835 0.43699491
3.012377 -1.4658524 0.43470621
2.9998474 -1.4612179 0.43543828
2.9788277 -1.429291 0.43087584
3.0213292 -1.4276836 0.43370605
3.4515064 -1.4526361 0.44529593
3.191256 -1.4141886 0.44399256
6.5591283 -1.8464077 0.50333083
6.6155944 -1.822395 0.50633258
3.1860776 -1.3681554 0.44367784
3.1974216 -1.3504553 0.44381946
3.3180411 -1.3619134 0.44024712
6.6651201 -1.7974925 0.50919354
3.2183011 -1.3370038 0.44416857
3.4563193 -1.2979994 0.44067538
3.497072 -1.2941495 0.44446105
3.3686705 -1.2585239 0.43776631
3.5255899 -1.2836896 0.44697493
3.5395076 -1.2693428 0.448183
3.4092164 -1.2486001 0.44051957
3.4623792 -1.2423093 0.4445383
3.5313127 -1.2471234 0.4459185
3.5126936 -1.2346452 0.44849473
3.5265234 -1.190047 0.44656062
3.5060327 -1.1229055 0.4398455
2.769491 -0.96989042 0.43363136
3.4682605 -1.0545226 0.4477874
3.4592006 -1.0311837 0.44550061
2.8184166 -0.9429087 0.42946953
3.4451838 -1.0072087 0.44311333
3.453573 -0.98913157 0.44219476
3.547859 -1.0012398 0.44010735
2.8260682 -0.89146864 0.42738211
3.4425302 -0.96553826 0.43986791
3.5765047 -0.98978877 0.44261909
3.60923 -0.99398828 0.44328326
3.5895584 -0.97432226 0.44380492
3.4401376 -0.94506949 0.43872607
3.6239309 -0.97369462 0.44347894
3.5949516 -0.95585877 0.44382596
3.4504898 -0.92724222 0.4388476
3.6124058 -0.9460066 0.4411236
3.5944166 -0.93663633 0.44272631
3.46962 -0.91154742 0.44015205
3.5948517 -0.91753644 0.44264656
3.4024851 -0.88376141 0.44570279
3.4808381 -0.89483947 0.44029582
3.5215099 -0.88392359 0.44304699
3.5815511 -0.89566773 0.44128346
3.2637331 -0.84175867 0.44277531
3.5630276 -0.87412214 0.44682026
3.5722177 -0.87430805 0.44000065
3.1871312 -0.80371553 0.4330889
3.3583753 -0.82770139 0.43957371
3.5627458 -0.85291594 0.44571656
3.1962173 -0.78774029 0.43419433
3.5672755 -0.83333337 0.44571531
3.2201593 -0.77366906 0.4366014
3.5561056 -0.81073201 0.44339043
3.2517605 -0.76259506 0.44017321
3.5341749 -0.78574336 0.43984222
3.1836812 -0.72866833 0.43167406
5.6296248 -0.041415285 0.47668111
5.6321702 -0.021577977 0.47663945
5.6273661 -0.011887737 0.47650015
6.0933204 0.18641512 0.48476255
6.023571 0.28711423 0.48392355
12.225624 0.72523659 0.60307258
11.970535 0.7731114 0.60582793
12.210398 0.78768879 0.60548466
11.950872 0.83209658 0.60616827
12.19519 0.85013658 0.60689682
12.183949 0.91207546 0.60838962
12.166632 0.97378606 0.60976374
12.03833 1.1586012 0.59738076
12.022886 1.2190611 0.59779727
12.006304 1.2786597 0.59919578
11.980671 1.3384128 0.60041499
11.943634 1.3955942 0.60042161
11.910683 1.4532614 0.60150611
11.854071 3.320652 0.59076303
11.890253 3.4057305 0.58808196
11.737926 4.2530112 0.58216679
11.71056 4.7938972 0.58112901
11.732216 4.7890911 0.57657671
11.629637 4.8234439 0.58139879
11.75839 4.8905816 0.57462287
11.685564 4.9211144 0.58004868
11.734755 4.9107561 0.5750643
11.682522 4.9759483 0.5797354
11.680847 5.0255623 0.57847291
11.724056 5.0240431 0.5763306
11.749111 5.1176214 0.57939255
11.621042 5.7530885 0.57293332
11.677855 5.8889565 0.57042414
11.712755 5.9338889 0.57590514
11.734272 6.0148039 0.57395452
11.662203 6.0653839 0.56930047
11.615189 6.178288 0.56885296
11.564308 6.190876 0.57179332
11.66906 6.1814508 0.56789923
11.517365 6.2644415 0.56752801
11.56447 6.4580102 0.5635609
11.531412 6.625597 0.5691368
11.498594 7.1540575 0.55904716
11.574732 7.3388672 0.55969316
11.534206 7.6213412 0.56659144
11.523882 7.9170527 0.56002092
11.650452 8.0631323 0.56383938
11.795691 8.0706987 0.56066447
11.502756 10.35154 0.54835653
2.6639209 -5.4891858 0.46143442
2.714133 -5.4674044 0.46032244
2.8689415 -5.4237561 0.46217012
2.9653232 -5.3554597 0.46775407
3.2388096 -5.26757 0.46673405
3.5177922 -5.1511278 0.47469234
3.5548983 -5.1296849 0.47132325
3.6928427 -5.0989871 0.47689945
3.7421377 -5.0297065 0.4735496
4.0128303 -4.9626174 0.47857213
3.9787657 -4.945137 0.4788205
4.0612173 -4.9456205 0.48744833
4.1493306 -4.9266815 0.48909652
4.1084771 -4.8922119 0.48413163
4.1295819 -4.8848376 0.48451334
4.2165971 -4.8425636 0.48903263
4.0984993 -4.6318173 0.48573261
4.1444082 -4.6286478 0.47962093
4.7969995 -4.7033143 0.49682194
4.8182912 -4.694963 0.49420226
4.6679158 -4.6565008 0.49506307
4.8532701 -4.6812992 0.49682844
4.7353234 -4.6419644 0.49532354
4.940671 -4.6521869 0.49841571
4.8693852 -4.626914 0.49389398
4.9652214 -4.6341715 0.49581546
4.9968696 -4.622088 0.50338441
4.9129 -4.6012344 0.49963373
5.0200315 -4.6230531 0.49884427
4.8837399 -4.5692625 0.4989115
5.126678 -4.5691853 0.50369668
5.1843181 -4.5594349 0.5077877
5.2140241 -4.5491505 0.50032371
5.094296 -4.5237017 0.49884778
5.2169938 -4.5333929 0.50331002
4.4043159 -4.4180212 0.48276734
5.150949 -4.5057583 0.50388181
5.2003465 -4.4818468 0.50674474
5.2659011 -4.4822025 0.50403696
5.3482146 -4.4776521 0.50163662
5.3054514 -4.4560142 0.50969589
5.3691726 -4.4621754 0.51097977
4.1495147 -4.2824812 0.47912228
4.144269 -4.2757535 0.48198843
4.2785664 -4.2970142 0.48773277
4.1778917 -4.2649436 0.48360109
4.2004604 -4.2537203 0.48599422
5.3047748 -4.398459 0.50941682
5.34202 -4.3840957 0.50408292
5.5559583 -4.3903828 0.50632584
5.5899539 -4.3755722 0.5149287
5.4504647 -4.3314595 0.51197702
5.4925284 -4.3106508 0.50870878
5.5427322 -4.2969379 0.50663388
5.7955227 -4.3061852 0.51365656
5.9702659 -4.2096496 0.51365221
6.0186915 -4.1926627 0.52052879
6.2693682 -4.1018438 0.51904607
6.3179417 -4.0838699 0.52492082
4.3841085 -2.6672084 0.47528017
4.3955474 -2.6404402 0.47838235
4.4231029 -2.6217921 0.48083949
4.3683619 -2.420186 0.47782928
4.3432436 -2.3726041 0.47611457
4.3247018 -2.3288937 0.47354692
4.302197 -2.2846732 0.47089881
4.2869468 -2.2464209 0.47042179
4.2948365 -2.2070868 0.4793973
4.2803631 -2.1709542 0.4769448
4.264791 -2.1356919 0.47347456
3.1405203 -1.5881262 0.45279855
4.3989081 -1.6961977 0.47008502
6.2155185 -1.9222643 0.50791484
4.4375982 -1.6850276 0.4727959
6.272233 -1.9043357 0.50994933
4.4530168 -1.6668403 0.47401589
3.1828225 -1.4786226 0.45212573
4.4637513 -1.6460372 0.47413117
6.322113 -1.884519 0.51284075
3.1448038 -1.4687051 0.45033073
4.5227375 -1.6415025 0.47827286
3.1263566 -1.4401304 0.44683462
4.5354328 -1.620949 0.47942817
6.3701568 -1.8634611 0.5146901
3.2150166 -1.4484859 0.44761962
3.1344514 -1.4240278 0.44791996
3.1550364 -1.4125504 0.45027286
6.3959203 -1.8355135 0.51506859
3.2607498 -1.4210716 0.45439512
4.4872847 -1.5804995 0.47429198
3.1813166 -1.4038204 0.45275068
3.2074118 -1.3981124 0.44523656
6.413877 -1.8055552 0.51528376
3.2418804 -1.3884164 0.44787127
3.2771928 -1.3798355 0.45152783
3.3174644 -1.3718908 0.45528501
3.2459738 -1.3254296 0.44566047
3.2879744 -1.3197232 0.44946218
3.3175035 -1.3093956 0.45099622
3.3416066 -1.3094558 0.45547217
3.3596303 -1.3026972 0.45479578
3.342571 -1.2863933 0.45438445
3.3758054 -1.2866253 0.45504016
3.3513227 -1.2653359 0.45445955
3.3641732 -1.2599342 0.45168704
3.3512974 -1.2421459 0.45335162
3.3620555 -1.2374859 0.44954121
3.3687069 -1.220692 0.45159501
3.393759 -1.2092774 0.45703679
3.551383 -1.2234747 0.45120561
3.3627386 -1.193217 0.44734985
3.3857291 -1.1790279 0.44773704
3.4559188 -1.1809655 0.4551298
3.4742043 -1.1641562 0.45541239
3.2972808 -1.0658327 0.45347339
3.4404435 -1.0811782 0.45736456
3.4791753 -1.0791081 0.4501164
3.4365964 -1.056492 0.45517439
2.7817035 -0.96740371 0.44386244
2.7846401 -0.95317221 0.43885356
2.8109343 -0.94495672 0.43733317
3.4288919 -1.0302997 0.45390141
3.4142642 -1.0032221 0.45148766
3.410398 -0.97853124 0.45029724
2.7583377 -0.87569851 0.43597704
3.4083884 -0.95508677 0.44914919
2.7793047 -0.86124557 0.43832362
3.3977275 -0.92851788 0.44681597
3.3975539 -0.90631527 0.44670999
3.3539243 -0.88355803 0.45474714
3.436579 -0.86897492 0.44930649
3.0662487 -0.8002634 0.44869542
3.1683025 -0.78312021 0.44762605
3.1317897 -0.75424832 0.44177228
3.1548676 -0.73905814 0.44415712
3.1868696 -0.7250132 0.44672298
3.221828 -0.71134561 0.45034915
4.9369612 -0.15009919 0.47954178
4.9446011 -0.12183972 0.48056185
6.0725012 0.23045011 0.49715167
6.0642939 0.26074126 0.49684995
6.0307665 0.35275516 0.49476421
6.0297537 0.38413903 0.49459928
11.915823 0.88902271 0.606215
11.924671 0.95040017 0.6081062
11.899794 1.0080374 0.60835004
11.900473 1.0684443 0.60908437
12.148174 1.034636 0.61211962
11.883762 1.1270517 0.61048484
12.138048 1.0974393 0.61363047
11.880346 1.1869761 0.61114097
12.112413 1.1571932 0.61484987
11.862539 1.2447146 0.61152369
12.089024 1.2186747 0.61610538
11.802797 1.2977513 0.61110198
11.895216 1.5137256 0.6029228
11.866228 1.5708852 0.60408795
11.829199 1.6280646 0.60409451
11.814724 1.6884024 0.6055311
11.798018 1.7470095 0.60693151
11.792725 1.8081852 0.60854512
11.781105 2.9267585 0.6021477
10.581671 3.1552913 0.57846451
11.786837 3.0026431 0.60090995
11.806244 3.0828216 0.5989213
11.831999 3.1652062 0.59604752
11.862823 3.2479515 0.59427184
11.637777 4.0793724 0.5929988
11.694744 4.1688366 0.58770627
11.592831 4.593276 0.59173936
11.594187 4.6273813 0.59160841
11.638388 4.6882405 0.58719695
11.624956 4.725255 0.58876181
11.640842 4.8169699 0.58465004
11.562033 4.8714576 0.58884728
11.653692 5.0119286 0.58800328
11.579378 5.0456648 0.58738351
11.623575 5.0359535 0.58429831
11.698483 5.3600473 0.58227617
11.593285 5.7980137 0.58518183
11.519915 5.9243679 0.57715124
11.544325 5.9424148 0.5815497
11.571781 5.9519987 0.58104593
11.521303 6.0613103 0.57954657
11.503912 6.0756497 0.58313864
11.587132 6.0629354 0.57583469
11.649881 6.0730352 0.57902449
11.54224 6.1150937 0.58371133
11.465845 6.1470618 0.57505733
11.55649 6.225163 0.57748234
11.451107 6.3788395 0.58069742
11.49634 6.3770537 0.57659578
11.38028 6.4383187 0.57102573
11.399349 6.5094857 0.57807428
11.452246 6.4976592 0.58017093
11.352684 6.8683438 0.57549655
11.407106 7.3079948 0.57453734
11.470623 7.8341856 0.57335758
11.725836 7.8971972 0.57009214
11.2645 8.1681442 0.56875432
11.521324 8.983078 0.57004797
11.684845 9.7373819 0.56178254
2.4619968 -5.569118 0.46482748
2.4706445 -5.5651965 0.46097887
2.5670347 -5.5200882 0.46867049
2.9537065 -5.3821883 0.47364986
2.9470267 -5.3712459 0.47446799
2.9782114 -5.3480244 0.47597522
3.0538058 -5.3325219 0.47639257
3.0926147 -5.3213806 0.47310466
3.1757939 -5.2937436 0.47461545
3.22574 -5.2658744 0.47547054
3.2833591 -5.2561197 0.48056138
3.5582657 -5.1285729 0.48638761
3.5405784 -5.113708 0.48296994
3.6109395 -5.0995464 0.48429054
3.7275424 -5.0782113 0.48848945
3.7202477 -5.0409827 0.48717344
3.943305 -4.9526606 0.48915887
4.1097536 -4.9276385 0.49532276
4.1093187 -4.8912811 0.49814677
4.1251864 -4.8933153 0.49846876
4.1936255 -4.9101696 0.49789435
4.114078 -4.752769 0.49359971
4.0361333 -4.598598 0.48935145
4.7978816 -4.702394 0.50883752
4.8078861 -4.6956196 0.5060026
4.7029958 -4.6569538 0.50275761
4.8674445 -4.6790628 0.50809973
4.9260354 -4.662385 0.50917667
4.5993285 -4.6002913 0.50345427
4.0607615 -4.5160542 0.49345613
4.9630013 -4.633862 0.50777268
5.0366001 -4.6100349 0.51011258
4.8545232 -4.5755749 0.50736701
3.9631224 -4.453124 0.4852407
4.9653125 -4.5847616 0.50559098
5.0160184 -4.5660553 0.51050419
3.9646399 -4.4089475 0.49106777
3.9795334 -4.4108591 0.4903698
5.1436009 -4.5612516 0.51499563
5.1547174 -4.5687251 0.5162493
5.0659838 -4.5452371 0.51539308
5.2429695 -4.5256147 0.51478797
5.2561564 -4.4627895 0.51075661
5.3109732 -4.4436059 0.51474845
4.1432199 -4.2826586 0.49000126
5.3550348 -4.4381728 0.5145911
5.3956947 -4.4504361 0.52044976
4.146934 -4.2730503 0.49203044
5.2703562 -4.4141922 0.51581287
5.3616171 -4.4178381 0.51762742
4.1966052 -4.2663093 0.49697858
5.4001527 -4.4157205 0.52037722
5.4138412 -4.3952966 0.52155268
5.3721776 -4.3748322 0.51763678
5.4149785 -4.3561368 0.51439273
5.622829 -4.3616271 0.52351356
5.8354874 -4.2921443 0.52138036
5.8772883 -4.2793446 0.5301463
6.0644183 -4.1733155 0.52634138
6.1185393 -4.1590753 0.53334284
6.372191 -4.0686388 0.53192055
6.4208755 -4.0496688 0.53879303
4.4070435 -2.6358473 0.48758948
4.492909 -2.6267045 0.48823845
4.4130416 -2.5973015 0.48552912
4.4339919 -2.5677304 0.48480499
4.5009298 -2.5642176 0.48810768
4.6047025 -2.5795412 0.49522376
4.648397 -2.5609488 0.49699885
4.682704 -2.537122 0.49756449
4.3307667 -2.287298 0.48747706
4.309289 -2.2432132 0.48284954
6.1894579 -1.9743474 0.51864439
6.2226071 -1.9513766 0.52119166
6.2916632 -1.93906 0.52549571
3.9327116 -1.5566959 0.47325963
3.8341494 -1.5309343 0.47419965
3.5359674 -1.474521 0.46806508
3.211436 -1.3965914 0.45531094
3.2406712 -1.3882384 0.45884883
3.2804339 -1.3842609 0.46261436
6.5311031 -1.8024409 0.52257979
3.3030014 -1.3730384 0.46500748
3.3247256 -1.360701 0.46637857
3.3567431 -1.3638184 0.4590221
6.5784097 -1.7792722 0.52440464
3.354861 -1.3393823 0.45787203
3.3425899 -1.2843541 0.46637774
3.3296916 -1.2595146 0.46400845
3.3292825 -1.2392999 0.4629069
3.3221872 -1.2162111 0.46166015
3.3074319 -1.1901252 0.45924854
3.3041749 -1.1685373 0.45808446
3.4683254 -1.1381822 0.46217799
3.4548166 -1.1102396 0.45978242
3.3374054 -1.0588752 0.4582324
3.3592567 -1.0455459 0.45960152
3.3966799 -1.0362275 0.46329623
3.4206212 -1.0221561 0.46570325
2.8005064 -0.93856049 0.44509983
3.1684499 -0.97669256 0.4585253
3.4221761 -1.0021919 0.46564162
3.414973 -0.98009932 0.46339732
3.4077499 -0.95800239 0.46215266
2.9963586 -0.87999707 0.456689
3.2385595 -0.90906024 0.46259457
3.404494 -0.93641442 0.46098852
3.2530062 -0.89075023 0.46279454
3.3845265 -0.91167575 0.4584806
3.2596657 -0.87043476 0.46183163
3.1230903 -0.85089362 0.45805079
3.0737264 -0.82037675 0.44993591
3.2709839 -0.82954502 0.46086544
3.0880992 -0.7869342 0.45006442
3.0970783 -0.77195531 0.45017219
3.1286988 -0.76088607 0.45274436
3.1651103 -0.7514357 0.45741874
3.1899364 -0.7384882 0.45884818
3.2627349 -0.69844139 0.45409608
3.2791462 -0.68038124 0.45533597
4.9663396 -0.093368888 0.48385924
6.2402716 -0.21146928 0.51650113
11.818436 0.79267061 0.62174529
11.815781 0.8504793 0.62142581
11.812107 0.90841895 0.62208593
11.821714 0.96768147 0.62300152
11.818924 1.024498 0.62268412
11.815273 1.0824335 0.62234461
12.085951 1.2815832 0.61875468
11.79641 1.3580571 0.61169773
12.059322 1.3414633 0.61995369
11.774378 1.4143205 0.61200374
11.99798 1.3977311 0.61948574
11.745407 1.4714761 0.61216933
11.975445 1.4580941 0.62076354
11.736759 1.5300573 0.6137287
11.936413 1.5155337 0.62172937
11.704576 1.585605 0.61283809
11.69692 1.6440588 0.61441761
11.696482 1.7036027 0.615134
11.687979 1.7631705 0.61569154
11.78644 1.8694876 0.61013854
11.726574 1.9215337 0.60971904
11.725376 1.9831908 0.6114108
11.690182 2.0391297 0.61245948
11.679827 2.0999448 0.61297464
11.68388 2.1004374 0.6150524
11.665098 2.158298 0.61441523
11.684196 2.1578646 0.61479342
11.683517 2.2154181 0.61451435
11.672438 2.2702732 0.61304229
11.675879 2.3283048 0.61184186
11.676193 2.3857319 0.61158264
11.681614 2.4435093 0.61042237
11.692375 2.5036256 0.60935634
11.737349 2.5714557 0.61092919
11.702332 2.6203051 0.60801327
11.734709 2.6917629 0.60732055
11.737211 2.7660472 0.60602653
11.750284 2.844012 0.60392338
10.624598 3.0187182 0.58094132
11.615683 4.002574 0.5999195
11.538502 4.3522534 0.60178459
11.541451 4.4375639 0.59844798
11.564398 4.5062013 0.5975827
11.557066 4.5273027 0.59534037
11.472834 4.9081254 0.59492218
11.597654 4.9223509 0.59631515
11.48435 5.0689735 0.59740651
11.573305 5.1008925 0.59000951
11.513088 5.1590447 0.5955559
11.611494 5.2653747 0.59300232
