# .PCD v0.7 - Point Cloud Data file format
VERSION 0.7
FIELDS x y z
SIZE 4 4 4
TYPE F F F
COUNT 1 1 1
WIDTH 1574
HEIGHT 1
VIEWPOINT 0 0 0 1 0 0 0
POINTS 1574
DATA ascii
3.1606874 -5.1606388 1.1646146
3.1560864 -5.1534362 1.1587064
3.3405104 -5.1074533 1.1585777
3.4118907 -5.0998015 1.159063
3.7477093 -4.9769444 1.1633075
3.9507236 -4.9207091 1.1541083
4.1446209 -4.8737974 1.1589106
4.1646657 -4.8710747 1.1557705
4.2039971 -4.8419681 1.1616782
4.4329996 -4.7567291 1.1584916
4.4810367 -4.7663999 1.157033
4.5112734 -4.7362289 1.1520206
4.7081599 -4.6848207 1.1498333
4.9366937 -4.684526 1.1490002
5.0311184 -4.5918469 1.1489524
5.0547123 -4.5551243 1.153044
5.0798411 -4.5432777 1.1479328
5.1409621 -4.5313201 1.1535343
5.376133 -4.5836926 1.1452442
5.1627722 -4.5023675 1.1525803
5.3226352 -4.5205722 1.1511575
5.3493595 -4.4927378 1.1541562
5.3778777 -4.4980702 1.153887
5.84168 -4.3155937 1.1525598
6.083775 -4.3735933 1.1421717
6.103343 -4.3318615 1.1443346
5.9501228 -4.2885017 1.1468964
6.0989175 -4.2734909 1.1428168
6.1073017 -4.222084 1.1431435
5.5622301 -4.0156074 1.1531001
5.9305105 -3.9860291 1.1543703
5.9616532 -3.9427552 1.1524515
5.3735485 -3.6211278 1.1576346
5.3690987 -3.5627346 1.1531166
5.335897 -3.5051749 1.1608247
4.6920228 -3.0246029 1.1656724
4.5161471 -2.8440535 1.1734673
4.3389583 -2.6918247 1.1680546
4.3438501 -2.683701 1.1690773
4.3809652 -2.673542 1.170857
4.3784881 -2.6617272 1.1719676
4.4113603 -2.6475377 1.1718122
4.4257183 -2.6476917 1.1766965
4.4613461 -2.6207469 1.1676161
4.3094225 -2.3144054 1.1771812
4.2740364 -2.2020264 1.1793256
4.2467065 -2.140583 1.1750152
6.1961093 -2.187768 1.1650044
6.2111006 -2.1480787 1.1651878
6.2251105 -2.1081665 1.1643808
6.3021684 -2.1253033 1.1576308
6.1743569 -2.0876293 1.1639452
6.2364116 -2.0666244 1.1636083
6.3197565 -2.0831141 1.1568125
6.1919465 -2.0454402 1.1631274
6.2496719 -2.0255246 1.163816
6.2085614 -2.0030332 1.1623182
6.2609673 -1.9839822 1.1630436
6.225934 -1.9618211 1.1614944
6.2396207 -1.9187608 1.1607136
6.2505879 -1.8740667 1.1589677
5.4448347 -0.70893109 1.1753561
6.1712742 -0.65364194 1.1739478
6.181612 -0.61189771 1.1751847
6.199769 -0.57190096 1.1773448
6.157227 -0.52344823 1.1710571
6.1834164 -0.48422357 1.1741471
5.1697063 -0.233758 1.1882033
6.166719 -0.43950453 1.1716236
5.1036811 -0.18522912 1.1881044
6.1697807 -0.39818212 1.1719154
6.1740379 -0.35610116 1.1722033
6.7521133 -0.4839395 1.1735842
5.3006558 -0.14715144 1.1848142
6.3877997 -0.38529554 1.1702638
6.3827233 -0.33907983 1.1696578
5.5000672 -0.061475992 1.1838701
5.5646219 -0.061536811 1.1863515
5.8595743 -0.089323044 1.1777703
5.7761869 0.032700066 1.1853744
6.0290375 0.0091842301 1.1751634
6.3350229 0.016804941 1.1737658
6.0509429 0.093400016 1.1816326
6.1662335 0.14662544 1.1761148
6.1630054 0.18730052 1.1764525
6.1529408 0.22950572 1.1758555
6.3077068 0.19295543 1.1763334
6.1499286 0.27115679 1.1761984
6.3082943 0.23686723 1.1786648
6.1508317 0.31193063 1.1775035
6.2957406 0.28166935 1.1791089
6.14782 0.35358208 1.1778466
6.2819867 0.32572079 1.1785561
6.147747 0.39457327 1.1791613
6.2723699 0.36986339 1.1799712
6.141593 0.43590057 1.1795261
6.2676349 0.4129183 1.181339
6.3174825 0.40696117 1.1758926
6.1405349 0.47711688 1.1798511
6.2611632 0.45738354 1.1827313
6.3086262 0.44990945 1.1772933
6.1392627 0.51735711 1.1801687
6.2503524 0.50076729 1.1841505
6.3078012 0.49208674 1.179623
6.1433177 0.55844629 1.1824512
6.2470274 0.54555595 1.1855209
6.3030653 0.53514087 1.1809902
6.1454139 0.59997857 1.1837527
6.2920389 0.57754838 1.1824037
6.1421838 0.64065397 1.1840899
6.2914338 0.62070131 1.1847389
6.1340785 0.6824162 1.1844745
6.2770314 0.66181707 1.1851692
6.1255279 0.72223425 1.1838474
6.1244783 0.76344335 1.1851718
6.1180964 0.80380249 1.1845316
6.119976 0.84435856 1.1858274
6.1104474 0.88439465 1.1852105
6.105268 0.92550421 1.1855668
6.1040001 0.96573734 1.1868849
6.1048951 1.006518 1.1871902
6.0973296 1.0461116 1.1875536
6.1004038 1.0874255 1.1888459
6.1001005 1.1274489 1.1891545
6.1033902 1.1697394 1.1904517
6.1052685 1.2102963 1.1917475
6.1124616 1.2517161 1.1930068
6.0791826 1.3277991 1.1898563
6.3183169 1.3390759 1.1840225
6.3130507 1.384292 1.1864109
6.3002801 1.4281194 1.186849
6.2896805 1.4724858 1.1872733
6.1029863 1.5355748 1.1942555
6.2802782 1.5176053 1.1886947
6.1080108 1.5764546 1.1955283
6.2716284 1.5615377 1.1891005
6.1132455 1.6183182 1.1958072
6.2610412 1.6058967 1.1905251
6.114141 1.6590983 1.196112
6.2569556 1.6518788 1.1919098
6.1172051 1.7004219 1.1964041
6.2441778 1.6957127 1.1913482
6.1200409 1.7407756 1.1956897
6.2422714 1.7422282 1.1937195
6.1243014 1.7828571 1.1959776
6.235043 1.7878883 1.1951276
6.1230168 1.8231041 1.1952959
6.3816171 1.7839581 1.1859193
6.2275867 1.8325793 1.1955293
6.1323748 1.8650721 1.195542
6.3714604 1.8302692 1.1873559
6.2225299 1.8787789 1.1969237
6.1397753 1.9074771 1.1958076
6.3607702 1.8787439 1.1898125
6.1558671 1.9520378 1.1970195
6.4238877 1.8954241 1.1874337
6.356153 1.9268876 1.1922187
6.153162 1.9905593 1.1953359
6.4023356 1.9412076 1.1879576
6.3560934 1.9770913 1.1946038
6.1964793 2.0146973 1.1981735
6.1660995 2.0348027 1.1955705
6.3827338 1.9865559 1.1884619
6.3497429 2.0266464 1.1970342
6.1614366 2.0737674 1.1929063
6.3686662 2.0337455 1.1889362
6.3101487 2.0652051 1.1936469
6.1652484 2.1139028 1.1921828
6.3536258 2.0811439 1.1904194
6.3103037 2.1163826 1.1960372
6.1680799 2.1542661 1.1904687
6.3429275 2.1296256 1.191877
6.2993889 2.1638889 1.1974888
6.3243027 2.1747594 1.1923721
6.2754345 2.2081697 1.1960204
6.3171954 2.2255077 1.1948177
6.2645173 2.2556756 1.1974719
6.157835 2.2917323 1.2006043
6.2987852 2.271615 1.1953187
6.2547865 2.3039472 1.197919
6.2904749 2.3216131 1.196768
6.1413879 2.3835175 1.1994387
6.243114 2.3526464 1.1993861
6.2811909 2.371829 1.1982267
6.240119 2.4035087 1.2007998
6.1466351 2.4345915 1.2007881
6.2716823 2.4210684 1.1996803
6.2250648 2.4509225 1.2002834
6.1473289 2.4836087 1.2021576
6.1503963 2.5341496 1.2025197
6.1433702 2.5808003 1.201933
6.2128391 2.9843397 1.2054653
6.2215896 3.0193136 1.1986622
6.2652183 3.0679932 1.1976842
6.2365155 3.2331605 1.2041793
6.2186704 3.2770751 1.207659
6.2120781 3.3164523 1.2080135
6.2494926 3.3327127 1.2058376
6.2477384 3.3525941 1.2020038
6.2880249 3.3630521 1.2067605
6.2815137 3.3891103 1.2040119
6.2943296 3.4190364 1.2041384
6.3051968 3.4770737 1.2024952
6.3198647 3.5383611 1.2008467
6.1649294 3.707058 1.2103821
6.2104964 3.7645369 1.2074565
6.4507871 3.7304878 1.2002661
6.4572377 3.8007565 1.2017527
6.4672737 3.8733037 1.2032274
6.4671917 3.9419765 1.2017539
6.1874628 4.0104194 1.2115237
6.2407026 4.0610867 1.2054837
6.1902657 4.1470828 1.2125472
6.3214092 4.1424308 1.2134591
6.3216338 4.2079749 1.2099595
6.2529316 4.3042212 1.2112473
6.3373876 4.2833691 1.2074094
6.2963352 4.3796072 1.2074755
6.3741159 4.3745565 1.2088126
6.3879156 4.450387 1.2062824
6.1908469 4.6827583 1.2186444
6.2408428 4.7556696 1.2118002
6.262948 5.0478444 1.2148592
6.5191984 5.0849681 1.2180872
6.3102446 5.2094197 1.2167168
6.5438519 5.181951 1.2146308
6.317924 5.3173189 1.2194817
6.5725193 5.2831583 1.2111753
6.3623104 5.4201546 1.2149124
6.3536391 6.0429177 1.2237499
6.3598919 6.4338884 1.2306925
6.6392813 6.4925542 1.2228984
6.6358895 7.2032681 1.2343671
6.9469557 7.643177 1.2262371
2.8591952 -5.2451472 1.1773884
3.1720574 -5.1468425 1.1746297
3.1989703 -5.1456809 1.176422
3.3621082 -5.0939064 1.1725086
3.4623082 -5.0854845 1.1687683
3.621654 -5.0369725 1.1658602
3.634588 -5.0203996 1.1678834
3.6631725 -5.0165634 1.174684
3.9233658 -4.9290209 1.1652648
3.9945345 -4.9131236 1.1658154
4.2006607 -4.8617439 1.1665537
4.1899142 -4.8501134 1.1647292
4.2082205 -4.8235073 1.1727861
4.2571077 -4.8292642 1.1693494
4.4586959 -4.7522812 1.1703207
4.5285125 -4.751421 1.1657667
4.5538907 -4.729403 1.1637311
4.737 -4.6708221 1.1607095
4.9603219 -4.6662874 1.1589513
5.0877409 -4.5266562 1.1579967
5.1350031 -4.5126529 1.1667254
5.4238377 -4.5769701 1.1559137
5.2117529 -4.5266576 1.1620018
5.470233 -4.5668721 1.1646196
5.197772 -4.4835758 1.1604439
5.4079838 -4.4781761 1.1597978
5.4338913 -4.4767656 1.1576006
5.4953332 -4.4587283 1.1622459
5.6879678 -4.2701097 1.1611432
5.8917499 -4.2981057 1.1592926
6.0161338 -4.2776465 1.1544502
6.0630426 -4.2512407 1.1582763
5.783361 -4.1407404 1.1573671
6.0925789 -4.2107034 1.1593491
5.8598785 -4.1332383 1.1628104
6.0946522 -4.1507001 1.1567919
5.8771267 -4.0786638 1.1590903
5.4324794 -3.9682877 1.1605045
6.1054111 -4.0977635 1.1551111
5.9013238 -4.0297365 1.1562697
6.1190963 -4.045476 1.1534009
5.3783474 -3.5864217 1.1718626
4.5332541 -3.3560901 1.1804104
4.6238861 -3.3352659 1.1728417
4.4884624 -2.6514716 1.183164
4.4826212 -2.6409547 1.1842917
4.5321655 -2.6253335 1.1800132
4.5636644 -2.6036906 1.1839262
4.3312693 -2.3685081 1.1865926
4.2885017 -2.252429 1.1878247
4.2769241 -2.1986172 1.1873298
4.1050363 -2.0322671 1.1929828
4.074985 -1.8821378 1.1943735
6.176446 -2.2715116 1.1675214
6.1867695 -2.2297523 1.1667576
6.2429004 -1.9370147 1.1785489
6.0216784 -1.8723488 1.1808197
6.2563777 -1.8949395 1.178763
6.2717957 -1.8532904 1.1779577
6.2882051 -1.8118681 1.1781434
5.3259463 -0.67736745 1.1855528
5.3342214 -0.64028585 1.1867704
5.3669386 -0.60868001 1.1927507
6.0837688 -0.63320518 1.1898077
6.0942397 -0.54947913 1.1903646
6.1587729 -0.51261711 1.1871288
5.2249784 -0.27585009 1.1984384
6.0966783 -0.46498838 1.1909925
6.0989871 -0.42247286 1.1912996
5.1118016 -0.18608494 1.2000341
6.1755533 -0.42826626 1.19064
6.0995569 -0.37854597 1.1916304
6.7988796 -0.53640771 1.1798074
5.1234741 -0.15175673 1.1922021
5.1895213 -0.16340114 1.1915829
6.1717753 -0.38541412 1.1899981
6.0926337 -0.33601692 1.191012
6.1621475 -0.34125644 1.1894134
6.0616016 -0.29116535 1.1866037
6.1537104 -0.29634085 1.1888251
6.0891371 -0.20922273 1.1920108
6.1481233 -0.211086 1.1895227
6.0934024 -0.16714947 1.1932983
6.1445727 -0.16726522 1.1898867
5.653811 -0.038393989 1.1878124
5.6125574 -0.026174549 1.1962377
6.0835443 -0.12396026 1.1917082
6.1417809 -0.12463795 1.1902355
6.0824857 -0.082744002 1.1920322
5.804491 -0.010507612 1.1878165
6.1404085 -0.080283903 1.1915861
6.0704679 -0.040103842 1.191455
6.1334944 -0.037762549 1.191967
6.0687132 0.085271671 1.1934294
6.1178155 0.17676944 1.1957353
6.0650177 0.21107474 1.196422
6.0569077 0.25283745 1.1968067
6.0507536 0.29416502 1.1971728
6.0457921 0.33625138 1.1975343
6.0355058 0.37748075 1.1969326
6.2548985 0.58988178 1.1897969
6.2326765 0.63275301 1.188303
6.2448926 0.67815292 1.1935532
6.2754569 0.70518029 1.1885141
6.2362571 0.72207737 1.1949589
6.2634463 0.74781263 1.1889368
6.210885 0.76462471 1.1934881
6.2555728 0.7905364 1.1913276
6.2189827 0.80991912 1.1987704
6.2455215 0.83272648 1.1927316
6.2093573 0.85406876 1.1991856
6.2291713 0.8742764 1.1931803
6.1963801 0.89691091 1.2006178
6.2224894 0.9177593 1.1955674
6.2143912 0.95951366 1.196952
6.2096639 1.0025617 1.1993196
6.1923375 1.0443292 1.1997784
6.1167374 1.2937826 1.1952943
6.1088643 1.3734049 1.1949672
6.1109538 1.4149455 1.1952684
6.1106548 1.4549674 1.1955773
6.1127424 1.496507 1.1958784
6.2239857 1.9265945 1.199278
6.2179413 1.9730198 1.1996821
6.2024941 2.0645721 1.2005067
6.1897159 2.1084054 1.1999451
6.1836786 2.1548223 1.2013487
6.176434 2.2004981 1.2007568
6.1737628 2.2482135 1.2021433
6.1628623 2.341831 1.2019473
6.2768412 2.4762492 1.2030618
6.2210994 2.5019939 1.2027061
6.2127819 2.5520012 1.2031555
6.3022103 2.5391986 1.2103403
6.2179394 2.6071832 1.206537
6.2989006 2.5931971 1.2127806
6.1882639 2.648618 1.2090929
6.2165723 2.6607554 1.2079585
6.1723256 2.6921432 1.2065539
6.0559344 2.7579944 1.2149932
6.2152667 2.7603948 1.2137316
6.0896916 2.8037543 1.214072
6.1913896 2.8005791 1.209231
6.2263761 2.8286111 1.2141651
6.1913095 2.8508046 1.2086157
6.2170806 2.8788347 1.2146243
6.1532865 2.8961501 1.2112687
6.1927876 2.9447236 1.2103233
6.2143831 2.9634745 1.2102929
6.097425 3.0130725 1.2166121
6.2284131 3.0218196 1.2106273
6.1124043 3.0620039 1.2138664
6.2482114 3.0829644 1.2129368
6.1672521 3.1286457 1.2179365
6.2622385 3.1413102 1.2132711
6.2431307 3.1845345 1.2077539
6.1317291 3.2359502 1.2170433
6.2154384 3.2347319 1.2133621
6.1644611 3.2727451 1.2110615
6.2817163 3.3070734 1.2083828
6.1032462 3.609062 1.2221285
6.2472739 3.5933566 1.2208514
6.1464291 3.6650243 1.2192101
6.2442608 3.6534617 1.219336
6.2448263 3.7158427 1.2178092
6.2557178 3.7830834 1.2182363
6.2742038 3.8568244 1.2186522
6.2919326 3.9317639 1.2190835
6.1591096 3.9746699 1.2224787
6.2998776 3.9996691 1.2175395
6.1614809 4.100152 1.22442
6.3022766 4.0657535 1.214026
6.1374841 4.1075706 1.2206695
6.195559 4.1704397 1.2216843
6.2210407 4.2344623 1.2159698
6.3599014 4.5169692 1.225018
6.1430259 4.6103897 1.225474
6.3780675 4.6030836 1.2245314
6.4059958 4.6962457 1.2240201
6.423162 4.7825942 1.221543
6.1251268 4.9022508 1.2308526
6.464345 4.8891811 1.2230288
6.1961632 4.977643 1.223859
6.1985316 5.0200982 1.2321657
6.1396723 5.0731692 1.233044
6.5045385 4.9959989 1.2225239
6.235332 5.1164207 1.2286069
6.219696 5.13837 1.2249005
6.2783151 5.2175126 1.2250353
6.2834511 5.9253254 1.2314131
6.2541146 6.3037443 1.2375461
6.6094847 6.3813009 1.2352864
7.4616718 8.2834883 1.2370069
3.5111976 -5.0687675 1.1775044
3.5603075 -5.0510788 1.1862463
3.6713552 -5.0122766 1.1806513
3.7087166 -5.0011649 1.1854373
3.7630095 -4.9732623 1.1772144
3.9483202 -4.9233928 1.1791084
4.033021 -4.8971734 1.1756291
4.2504048 -4.8411102 1.1733131
4.3058972 -4.8268781 1.1799767
4.3084803 -4.815146 1.1770455
4.5707736 -4.7321949 1.1725746
4.5944366 -4.7180076 1.1734933
4.7698488 -4.6618133 1.1715155
5.0175958 -4.6811857 1.1733783
5.1969161 -4.5111446 1.1772411
5.286984 -4.5250282 1.1694109
5.5146823 -4.5563469 1.1743433
5.3487649 -4.5101533 1.1760296
5.2595921 -4.4871821 1.1729207
5.4641294 -4.4610157 1.1664785
5.521997 -4.445262 1.172135
5.5550303 -4.4392705 1.165915
5.6234097 -4.4268751 1.1704619
5.7114372 -4.3583937 1.1722785
5.9462719 -4.2836642 1.1669656
5.652503 -4.1628585 1.1672486
5.6582122 -4.1559815 1.1752559
5.7874503 -4.0772142 1.1758217
5.7242947 -4.0108361 1.1678362
5.8789539 -3.9562159 1.1750131
5.8676791 -3.9239812 1.1733506
5.9042473 -3.9116454 1.1741511
5.8912272 -3.877991 1.1715133
4.5855813 -3.3421676 1.1850977
4.6110992 -3.324302 1.1870295
4.5601263 -2.6521325 1.1925851
4.5488629 -2.6383586 1.193781
4.6015635 -2.5855227 1.1877615
4.3136225 -2.3103542 1.2001804
4.2923722 -2.2492471 1.1968185
5.9659843 -2.025944 1.1860917
6.1983647 -2.0633628 1.1799395
5.9797802 -1.9870074 1.1852789
6.2233424 -2.0248795 1.1810331
5.9989901 -1.9513261 1.1843976
6.2311668 -1.9805081 1.1793104
6.0078955 -1.9112942 1.1826324
5.5983243 -0.69719684 1.2022159
5.3971601 -0.57447016 1.1987699
6.0929179 -0.59221983 1.1910486
6.1946688 -0.60466731 1.1931363
6.1923046 -0.56008065 1.1924968
6.0985055 -0.50740576 1.1916524
5.2712336 -0.31695235 1.2077525
6.180089 -0.47231233 1.1912665
5.171876 -0.22919503 1.2012219
5.1629968 -0.15452829 1.2108655
5.3970757 -0.078604221 1.205567
5.6008406 -0.10658412 1.2017171
6.0027704 -0.17874746 1.1999376
5.869523 0.069167346 1.2029058
6.0790696 0.12700066 1.1966652
6.1296172 0.13315293 1.1963066
6.07096 0.16876362 1.1970502
6.1109099 0.2192829 1.1971164
6.1030188 0.26202211 1.1975068
6.101212 0.30442402 1.1988463
6.0942969 0.34694511 1.1992275
6.0852146 0.3889254 1.1996212
6.0385871 0.41878772 1.1992244
6.0846081 0.43207836 1.2019569
6.0409093 0.46128824 1.2015312
6.0827966 0.47448039 1.2032957
6.0294299 0.50175929 1.2009335
6.0768676 0.51677656 1.2046673
6.0315347 0.54328334 1.2032348
6.0731096 0.55961287 1.2060258
6.0287414 0.58591044 1.2035834
6.0734797 0.60254943 1.2083513
6.028676 0.62689412 1.2058971
6.0644035 0.64452195 1.2097456
6.0455484 0.67023849 1.2100937
6.0248423 0.71072209 1.2085698
6.0196633 0.75183153 1.208926
6.0060163 0.79176199 1.2083411
6.001061 0.83384073 1.2097037
5.9925189 0.87365127 1.2100766
5.983211 0.9146632 1.2094656
5.9792323 0.95652401 1.2108183
5.9728603 0.996876 1.2111775
6.1869793 0.94202971 1.2020388
5.9710503 1.0392778 1.212517
6.1802979 0.98551226 1.2044253
5.9625072 1.0790888 1.2128909
6.1653609 1.0287967 1.2048767
6.1535769 1.0723982 1.206305
6.1876178 1.0873687 1.2031462
6.1439586 1.1165396 1.2077202
6.1894054 1.1320314 1.2064738
6.1341257 1.1597055 1.2091299
6.1813154 1.1737784 1.2088586
6.1332045 1.2059962 1.2124915
6.1453104 1.2146038 1.2064605
6.1223912 1.2493799 1.2139103
6.1579614 1.2619565 1.2117211
6.1379237 1.305353 1.2122142
6.1273303 1.3497125 1.2136393
5.9248228 2.5002906 1.2240735
5.9534974 2.5461438 1.2251941
6.0096245 2.6371198 1.2244397
6.2922173 2.6459084 1.214238
6.0590081 2.7255085 1.22172
6.2799931 2.696784 1.2147256
6.0239091 2.7702007 1.2243438
6.2635484 2.7332218 1.2171366
6.0218458 2.8116655 1.2206773
6.2980819 2.7593157 1.2200592
6.247736 2.7818282 1.2166358
6.2769437 2.8070683 1.2185943
6.1431127 2.8594496 1.2170697
6.2863455 2.867445 1.2229815
6.2630343 2.9146633 1.2205294
6.2471724 2.9264159 1.216747
6.238955 2.9446273 1.2189523
6.1292691 2.9854288 1.2261456
6.2519293 3.0072882 1.2223278
6.2384949 3.0574203 1.2208195
6.2379923 3.1149056 1.221264
6.2569218 3.1444664 1.2263381
6.2478108 3.1772504 1.2236624
6.1239734 3.2099636 1.2259068
6.2225275 3.197247 1.221018
6.2558866 3.2041144 1.2278038
6.2266674 3.2250094 1.2211975
6.2402754 3.2906129 1.2225904
6.2457471 3.3518853 1.2240161
5.9920392 3.4452803 1.2307677
6.2456684 3.4113281 1.2234713
6.0217595 3.4960535 1.2269174
6.2491708 3.4730494 1.2229156
6.0617943 3.5516939 1.224022
6.241384 3.5301192 1.2214148
6.2489657 3.5683348 1.2306471
6.0459871 3.8297381 1.2342778
6.063252 3.8750751 1.2334864
6.2665968 3.8359067 1.2315538
6.1042261 3.9213083 1.2265108
6.2670636 3.9024003 1.2310593
6.1117835 3.9687724 1.2318144
6.0312481 4.0256381 1.2348958
6.2735004 3.9726882 1.2305455
6.1355467 4.0341902 1.2281235
6.0856752 4.0678434 1.2287818
6.2743979 4.0411429 1.2290622
6.2920299 4.120194 1.2305263
6.3003035 4.1941767 1.2290256
6.3123755 4.2714105 1.2275201
6.3284831 4.3528552 1.2280142
6.0538735 4.4672894 1.2370952
6.3519607 4.4398351 1.2274915
6.0913873 4.5347862 1.2303101
6.046083 4.6390848 1.2404733
6.0818076 4.7305126 1.2388859
6.1046104 4.8145866 1.2353464
6.0632048 4.8309727 1.2378043
6.1559768 4.9209638 1.2347479
6.0511684 4.9975786 1.2391762
6.1555357 5.6955705 1.2446821
6.2216196 5.8130445 1.239051
6.3906121 5.9321027 1.2436056
6.4624963 6.0800195 1.2421609
6.1811476 6.2010875 1.2493467
6.5409894 6.2346649 1.2397143
6.5564957 7.0579901 1.2458926
2.8957717 -5.2380233 1.1931504
3.1958427 -5.1512208 1.1924063
3.2437747 -5.1383266 1.1901199
3.3940139 -5.0939384 1.1882538
3.6101749 -5.0345845 1.1949729
3.7081356 -5.0041633 1.1944195
3.7752821 -4.964817 1.1921812
3.9717553 -4.9153814 1.1929827
4.0787854 -4.890027 1.1873168
4.2450938 -4.8195057 1.185522
4.3661613 -4.818841 1.187555
4.3593168 -4.7988558 1.1847628
4.4865794 -4.7473044 1.1841356
4.6272659 -4.7274303 1.1831588
4.6347704 -4.7075953 1.1842504
4.8048682 -4.6522641 1.1823082
5.0528421 -4.67067 1.185177
5.3111959 -4.4813228 1.1825519
5.3993454 -4.4855833 1.1788113
5.4638314 -4.4723234 1.1843953
5.5756397 -4.4254909 1.1778558
5.6347003 -4.4089785 1.1835082
5.6843119 -4.4066696 1.1751277
5.6926727 -4.2589669 1.1791912
5.6751599 -4.2366543 1.1845028
6.0010114 -4.2682457 1.1746445
6.0401073 -4.2401013 1.1785468
5.5340748 -4.1016912 1.1786686
6.0618434 -4.1978273 1.1806964
6.0719562 -4.1478281 1.1799979
5.8285947 -4.0443878 1.1777431
6.0679507 -4.0874896 1.1764911
5.8271046 -4.0235786 1.1799146
5.5902977 -3.9370103 1.1844783
5.8618073 -4.0056872 1.1777724
6.0825157 -4.0405321 1.1767339
5.8491302 -3.975194 1.1771078
6.0926251 -3.9905312 1.1760355
5.4731555 -3.5522957 1.1833636
4.7409382 -3.3717067 1.1906241
4.6815681 -3.3257232 1.1964537
4.6132202 -2.6394114 1.1982558
4.5945787 -2.6219385 1.1985396
4.3251629 -2.3601048 1.2087067
4.3112988 -2.3027048 1.2072576
5.8946376 -1.9558033 1.1972026
5.9080958 -1.9137123 1.1954163
5.9186292 -1.8709693 1.1936592
6.0647869 -0.79707146 1.2017069
6.0717602 -0.75662661 1.2029606
6.0855808 -0.71771288 1.2051475
6.0686646 -0.67396939 1.2026179
6.0756373 -0.63352466 1.2038716
6.0753393 -0.59350157 1.2041802
6.0781851 -0.55315554 1.2044667
6.0761509 -0.51172197 1.2048004
6.0731444 -0.47007123 1.2051429
5.2342052 -0.27184114 1.2123959
6.0687857 -0.34718841 1.2071187
5.2860131 -0.13584498 1.2110202
6.065556 -0.3065131 1.207456
6.0674362 -0.26595718 1.2087516
6.0734434 -0.2253028 1.211015
5.6677065 -0.032434165 1.2157484
6.0466452 -0.060525171 1.2114912
6.0404892 -0.019197475 1.2118573
6.0392208 0.021035139 1.2131755
6.0369773 0.061485231 1.2145033
6.0174003 0.14371081 1.2152897
6.0751948 0.68820155 1.2129936
6.0610123 0.73029411 1.2134296
6.0383534 0.77121294 1.2119248
6.0314479 0.8137269 1.2133057
6.0225902 0.85667491 1.2147057
6.0091629 0.89758074 1.2141266
5.9991002 0.93977821 1.2145302
5.9890513 0.98196888 1.2159343
5.9821467 1.0244819 1.2173147
5.9762149 1.0667779 1.2186866
5.9712706 1.1088496 1.221049
5.9646134 1.1206135 1.2151921
5.964366 1.1513622 1.2224294
5.9586749 1.1629161 1.2155628
5.9586101 1.2039007 1.2178773
5.9577775 1.2460848 1.2192069
5.9600978 1.2885847 1.221514
5.9495978 1.328838 1.2209067
6.1180997 1.2943796 1.2162898
5.9475708 1.3702646 1.2222397
6.1181502 1.3404529 1.2196422
5.9404392 1.4118092 1.222615
6.1010432 1.3831971 1.2201072
6.1177244 1.3938468 1.2160541
5.9330835 1.4523859 1.2219849
6.0861149 1.4264745 1.2215576
6.1093102 1.4387401 1.2184657
5.9233489 1.4914385 1.222362
6.0711727 1.4697591 1.2220094
6.0977387 1.4833164 1.2198997
5.9217486 1.534824 1.2227068
6.0680828 1.5155096 1.2253847
6.0828075 1.5265952 1.2213508
5.9206982 1.5760335 1.2240307
6.0529232 1.5578185 1.22583
6.0734167 1.5717059 1.2237717
5.9176898 1.617684 1.2243741
6.0618486 1.616282 1.2252058
5.9233732 1.661484 1.2266635
5.9130263 1.9137664 1.2296785
5.9173002 2.1720271 1.2296212
5.9186196 2.2147682 1.2289373
5.8412228 2.2535191 1.2318556
5.9225578 2.2599933 1.229252
5.8566422 2.2951672 1.2310511
5.9272385 2.3040345 1.2285515
5.8677225 2.3357344 1.2302727
5.927803 2.3479695 1.2278829
5.8843384 2.37814 1.229463
5.9368353 2.3930843 1.2281566
5.8918214 2.4164457 1.2266964
5.9405451 2.4373424 1.227465
5.9106164 2.459384 1.2268744
5.9509869 2.4841912 1.2277402
5.9570746 2.5299754 1.2260418
5.99544 2.5869651 1.2311701
6.00139 2.5999999 1.228222
5.9981585 2.6314549 1.2284883
6.0446658 2.6927695 1.2345849
6.0575142 2.6909733 1.2274677
6.0269532 2.7285197 1.2280011
6.0923491 2.8840163 1.2286662
5.9030809 2.9814889 1.2359324
6.1188469 2.9385552 1.2288706
6.2966595 2.9870355 1.2288148
6.2963796 3.0454881 1.2302641
6.0502291 3.1269732 1.2338642
6.2732859 3.0936811 1.2278184
6.1193762 3.1842918 1.2357483
5.9079618 3.2928641 1.2402768
6.2534404 3.2620277 1.2292668
5.9393263 3.3463328 1.2384343
5.9563375 3.3907304 1.232637
6.2585845 3.3264415 1.2307183
6.2553706 3.3855555 1.2311966
6.2569265 3.4477046 1.2316602
6.2519689 3.5082366 1.2311633
6.2569361 3.6362195 1.2321029
6.0203876 3.714498 1.2426021
5.9601021 3.765852 1.2414792
6.2639208 3.7043266 1.2325684
6.0449324 3.7787027 1.2418966
6.0158648 3.8231084 1.2384697
6.2675438 3.7711399 1.2330507
6.0989933 3.9111369 1.2374762
5.9895468 3.9897928 1.244957
6.0151558 4.399044 1.2428839
6.013732 4.4843664 1.2485486
6.0358882 4.5655046 1.2459924
6.0068245 4.7615294 1.2457262
5.9858069 4.9383192 1.2492484
6.0335579 5.4696412 1.2539328
6.1012993 5.5897908 1.2523088
6.3100772 5.6989756 1.2544686
6.3552346 5.8190522 1.2500249
6.0902381 6.0778718 1.2571341
6.3742943 6.7317262 1.259859
6.4807816 6.9108758 1.2563752
2.9322343 -5.2267742 1.207945
3.2878194 -5.1297851 1.2038321
3.4246235 -5.0906105 1.2040341
3.7600031 -4.9921699 1.1960948
4.118247 -4.8742909 1.1971214
4.2806697 -4.8121452 1.1982934
4.4170938 -4.7974448 1.1933103
4.4126477 -4.7851768 1.19244
4.4697604 -4.7774577 1.199541
4.5114002 -4.7375326 1.1950125
4.6716952 -4.7076612 1.1899537
4.6780257 -4.6978269 1.1939781
4.7243791 -4.6969166 1.1986133
4.8418379 -4.6431532 1.1930816
5.2650151 -4.5140972 1.1886722
5.559782 -4.542891 1.1840852
5.3628068 -4.4754753 1.1931828
5.5909734 -4.5181193 1.1900246
5.5240879 -4.4550552 1.1900445
5.5837879 -4.4355965 1.1937141
5.6902823 -4.3896356 1.1882108
5.714829 -4.3438768 1.1883644
5.6032724 -4.3159685 1.1934733
5.6666007 -4.2983031 1.1901007
5.5934167 -4.2543306 1.1910247
5.574657 -4.1866016 1.1866933
5.533813 -3.7953618 1.1910161
4.7177458 -3.4669998 1.2000816
4.7143703 -3.3904691 1.2066952
4.3319597 -2.3575742 1.2176728
5.9667387 -1.9729658 1.2084924
5.9802108 -1.9308835 1.2077061
5.9897637 -1.8879224 1.2059587
6.0059519 -1.847476 1.2061385
5.792582 -0.7272613 1.2164272
5.7088051 -0.67583132 1.2214943
5.802259 -0.68843734 1.216647
5.8002162 -0.64699626 1.2159808
5.8247766 -0.6104821 1.2190632
5.8098068 -0.56716621 1.2155143
6.0330081 -0.61384344 1.2153651
5.8095069 -0.52714348 1.2158229
6.0541043 -0.57451463 1.2194973
5.8323312 -0.48921803 1.2189302
6.0413194 -0.53067327 1.2179354
5.3372669 -0.36145994 1.2208827
5.8200784 -0.44753838 1.2163478
5.2692661 -0.31247997 1.2188035
6.0406914 -0.48749757 1.2172709
5.8168449 -0.40685558 1.2156857
6.0418096 -0.44574767 1.2185814
5.2235637 -0.2326403 1.2217817
5.8206668 -0.36672679 1.2159616
6.0380406 -0.40290308 1.2189398
5.8164568 -0.32582659 1.2153085
6.0423083 -0.36082995 1.2202272
6.0395145 -0.31820264 1.2205763
5.2606049 -0.1261372 1.2202997
6.0165167 -0.27412283 1.2170984
5.8184886 -0.20641127 1.2162068
5.8362141 -0.16837406 1.2193555
6.022131 -0.18933199 1.2207024
5.8127842 -0.12624648 1.2158662
5.5046515 -0.047382176 1.2269443
6.020093 -0.14789806 1.2210361
6.0124221 -0.10418312 1.2214322
6.0145168 -0.062651128 1.2227337
5.8177485 -0.0074911043 1.2177353
5.8354769 0.030545596 1.2208841
5.8393068 0.070666902 1.2221609
5.8307557 0.11048528 1.2215341
6.033977 0.1031285 1.2158459
5.8273096 0.15018462 1.2218661
5.8279943 0.1899821 1.2231655
5.8213978 0.2293653 1.2225194
6.0161338 0.18394342 1.2166078
5.8199077 0.26862907 1.2228317
6.0041304 0.22656831 1.2180312
5.8205929 0.30842659 1.2241311
5.9977589 0.26692018 1.2183911
5.8232274 0.3477895 1.2254113
5.9945493 0.30757999 1.2207277
5.8195653 0.38651246 1.2257372
5.9923043 0.34802997 1.2220554
5.8180718 0.42577654 1.2260497
5.9871316 0.38913262 1.2234119
5.8197327 0.46535689 1.2273397
5.9768643 0.43034679 1.2248101
5.8204246 0.5051474 1.2296386
5.9683304 0.47014937 1.2261832
5.8208861 0.54397595 1.2299323
5.7872205 0.81580174 1.2322837
5.780407 0.85420871 1.2316321
5.7755504 0.89217281 1.2319617
5.767251 0.96983695 1.232623
5.7616601 1.0458719 1.2332504
5.7589731 1.084378 1.2335666
5.970274 1.1961308 1.2257248
5.9633698 1.238645 1.2271057
5.9627633 1.2817976 1.2294414
5.9483647 1.3229133 1.2298717
5.9361334 1.3645706 1.230289
5.9282455 1.4073082 1.2306792
5.7452402 1.4685509 1.2376181
5.9172173 1.4497163 1.2320929
5.7435303 1.50684 1.2379246
5.9091082 1.4914792 1.2324772
5.7483306 1.5467505 1.2381912
5.8980722 1.5338945 1.232891
5.7475948 1.5848207 1.2384883
5.8868294 1.5753258 1.2342982
5.8876338 1.6202132 1.2366358
6.0403819 1.6026133 1.2272742
5.8831148 1.6642441 1.2380092
6.029789 1.646973 1.2286985
6.0579982 1.6632259 1.2285967
5.875227 1.7069843 1.2383997
5.9312291 1.7058257 1.2289404
6.0235434 1.6924069 1.2310966
6.046432 1.707803 1.2300308
5.9260488 1.7469351 1.2292967
6.0119786 1.736984 1.2325315
6.0317178 1.7520562 1.2314874
5.9319453 1.7917204 1.2305923
6.0035539 1.7818846 1.2339426
5.7769413 1.8590034 1.2393527
6.0213418 1.797392 1.2329184
5.925571 1.8320713 1.2309524
5.994154 1.8270041 1.235363
6.0131464 1.8432615 1.2353354
5.9314651 1.8768541 1.2322479
5.9859576 1.8728708 1.2377805
6.0015764 1.8878384 1.2367697
5.968842 1.9156238 1.2372446
5.9926229 1.9349002 1.239202
5.8031678 1.9812183 1.2410774
5.9276056 1.9607067 1.2319206
5.9757304 1.9786211 1.2396723
5.8075237 2.0191853 1.240333
5.929152 2.004415 1.2322434
5.9447207 2.0050037 1.2391235
5.8034039 2.0559781 1.2376473
5.9260116 2.0476127 1.236099
5.8147082 2.0975132 1.2378749
5.9196248 2.0946007 1.2410107
5.9274654 2.0888078 1.2319024
5.824595 2.1373208 1.2371001
5.9292297 2.1334932 1.2322302
5.8356781 2.177887 1.2363214
5.8933244 2.1834464 1.2419021
5.8445935 2.2179112 1.2355559
7.4452448 2.0906625 1.2287315
5.8599358 2.9070399 1.2447096
5.8817282 2.9452348 1.2408268
6.0024347 3.0545797 1.2436949
6.0223765 3.0890968 1.2387979
5.8615251 3.1945782 1.245898
5.8813715 3.2424304 1.2421044
5.9085116 3.3500562 1.2507107
5.9187293 3.4051638 1.2490505
5.9375243 3.4665504 1.2483696
5.9479513 3.5226407 1.2457153
5.8316746 3.6120377 1.2533331
5.968699 3.5835931 1.2450155
5.8833356 3.6691751 1.2523559
5.9910674 3.6472609 1.2433224
5.9136748 3.7136781 1.2454526
5.8780575 3.8936918 1.254117
5.9352174 3.9434721 1.2500391
5.8574963 4.1185412 1.2570037
5.8978729 4.1894641 1.2552222
5.9564834 4.2501688 1.2552161
5.9432359 4.2644105 1.2524319
5.9696336 4.32307 1.2526691
5.9859867 4.3368659 1.2486432
5.9841828 4.3977151 1.2491227
5.9081516 4.6307845 1.2595189
5.9504275 4.692101 1.2516475
5.9273796 4.8826466 1.258292
5.975822 5.3574843 1.2585379
6.180861 5.3486414 1.2628245
6.2185421 5.4580817 1.2603596
6.2661042 5.5796628 1.2579088
5.999639 5.9515181 1.2628949
6.3057332 6.5891738 1.2693189
7.4423647 8.2230549 1.268702
3.2126811 -5.1407247 1.2083523
3.3315248 -5.1180806 1.2155719
3.663852 -5.0240679 1.2056234
3.7133851 -5.0044198 1.2133762
3.7373071 -4.9840913 1.2053394
3.8022819 -4.9729571 1.2049025
3.7942765 -4.9629898 1.2070434
3.9986606 -4.9101911 1.2068076
4.162703 -4.86377 1.2078454
4.3147197 -4.8023863 1.2100948
4.5277405 -4.7658305 1.2056646
4.5245042 -4.7620454 1.2077191
4.5394902 -4.7315769 1.2078332
4.7232385 -4.6885037 1.2046871
4.7713094 -4.67976 1.2063683
4.8745737 -4.630013 1.2029196
5.0938292 -4.6665559 1.19688
5.3163929 -4.4999833 1.1963681
5.3617992 -4.4804292 1.2031534
5.4056153 -4.4584212 1.2009701
5.625103 -4.4940047 1.1969355
5.6264377 -4.4420528 1.1973228
5.6216712 -4.3989673 1.1946903
5.6131163 -4.3775949 1.1949228
5.6615076 -4.362771 1.1956475
5.6714253 -3.9459488 1.1977593
5.5923386 -3.8966069 1.205772
5.702704 -3.916055 1.2007369
5.5216637 -3.744556 1.2005035
5.6642203 -3.7210183 1.2025392
4.9730968 -3.3836088 1.209671
4.3549361 -2.6824083 1.2260023
4.379477 -2.655097 1.2270137
4.4618564 -2.4920824 1.2216003
4.3490887 -2.4187882 1.2210671
4.3432803 -2.4083021 1.2261941
5.8371134 -2.1183052 1.218421
5.8413458 -2.0762031 1.2157094
5.8498669 -1.9366938 1.2127087
5.8800564 -1.9024532 1.2147282
5.8077455 -0.69175625 1.2245775
5.7472796 -0.64141679 1.2284482
5.8293839 -0.65459645 1.2286884
5.5581603 -0.56135309 1.2285796
5.7520761 -0.6015054 1.2287157
5.8253822 -0.61271298 1.2270414
5.7578511 -0.56181145 1.228973
5.815527 -0.56952381 1.2254505
5.7577634 -0.52080512 1.2282878
5.8203311 -0.52961969 1.2267179
5.7625613 -0.48089412 1.2285548
5.8224196 -0.48808029 1.2270191
5.3270369 -0.35718396 1.2299986
5.7651987 -0.4415316 1.2298346
5.8262439 -0.44795197 1.2272953
5.761198 -0.39964786 1.2281873
5.8242083 -0.40651804 1.2276292
5.7589445 -0.35918978 1.2285154
5.8200002 -0.36561817 1.2269759
5.7569103 -0.31775618 1.2288488
5.8201323 -0.3236427 1.2272959
5.8169069 -0.28296775 1.2276334
5.7530761 -0.19702789 1.2288036
5.7659259 -0.15790375 1.2320005
5.8186221 -0.16041425 1.2295579
5.8144188 -0.11952144 1.2299041
5.7557211 0.0031760577 1.2323157
5.7898636 0.0048057139 1.2290541
5.7542386 0.042432845 1.233628
5.8111882 0.045102995 1.2341911
5.7488298 0.082574658 1.2329783
5.8089428 0.085553281 1.2355188
5.740499 0.12336887 1.2323576
5.8078938 0.12676191 1.236843
5.7421594 0.16294928 1.2336476
5.9978414 0.10599437 1.2271589
5.7954373 0.1674501 1.2362545
5.7345905 0.20254242 1.2340115
5.9875574 0.14722362 1.2265568
5.7922106 0.20812553 1.2365917
5.7311468 0.24224132 1.2343433
5.9806433 0.18974474 1.2269377
5.7819357 0.24934682 1.2369894
5.7267256 0.28215802 1.2346841
5.9715619 0.23172529 1.2273324
5.7806683 0.28957939 1.2383081
5.7201352 0.32153365 1.2350388
5.960525 0.27414054 1.2277457
5.7742968 0.32993114 1.2386682
5.7188678 0.36176607 1.2363565
5.9524155 0.31590319 1.2281308
5.7268286 0.40198562 1.2386005
5.9452944 0.35744062 1.2295063
5.7212138 0.44114399 1.2389456
5.9364276 0.40039688 1.2299058
5.7187533 0.48061782 1.2402676
5.9344082 0.44181535 1.2322383
5.7131371 0.51977599 1.2406124
5.9304433 0.48366877 1.2345914
5.9245119 0.52596545 1.2359629
5.9796672 0.51165402 1.2304107
5.8317828 0.58353519 1.2331479
5.9195576 0.56804323 1.2373244
5.9599471 0.55191243 1.2298772
5.8147621 0.62217295 1.23158
5.9504275 0.59194028 1.2302599
5.9136267 0.61033988 1.2386962
5.8132715 0.66143751 1.2318925
5.9370055 0.63283861 1.2306805
5.807435 0.69961989 1.2322317
5.9284782 0.67263353 1.233053
5.887002 0.69311166 1.2395437
5.8008466 0.73899543 1.2325858
5.9128776 0.71299851 1.2324879
5.8044605 0.77814019 1.2338568
5.9065232 0.75333452 1.2348474
5.8919067 0.7934736 1.2352723
5.8835874 0.83425367 1.2366513
5.8738604 0.87329829 1.2380284
5.7813416 0.93185198 1.2342192
5.8655434 0.91407752 1.2394072
5.8594046 0.95538926 1.2417729
5.7718472 1.0087576 1.2348843
5.7732401 1.1252303 1.2377648
5.7727227 1.1642753 1.2380674
5.7828612 1.2050294 1.2412986
5.7779975 1.2430012 1.240628
5.7762861 1.2812903 1.2409347
5.7714243 1.3192612 1.2402645
5.7675419 1.3570093 1.2405847
5.7626786 1.3949813 1.2399149
5.7631388 1.4338098 1.2402084
5.7555466 1.6250491 1.239733
5.7579594 1.6634436 1.2400076
5.7649345 1.7038873 1.2412611
5.7716851 1.7433631 1.2415093
5.8770132 1.7516465 1.2417274
5.7796283 1.7835987 1.2417537
5.8681502 1.7946013 1.2421274
5.7877998 1.8248018 1.2430041
5.8766632 1.8418633 1.2454206
5.8015175 1.9047306 1.2435054
5.8788862 1.8884773 1.24876
5.800766 1.942816 1.2418023
5.8700137 1.9314426 1.2481601
5.8599567 1.9736379 1.248564
5.9758496 1.965265 1.2415695
5.842402 2.0144377 1.2480171
5.9631886 2.0234149 1.2411156
5.8347239 2.0581608 1.2474132
5.8270493 2.1018765 1.2478096
5.9508576 2.0691874 1.2425654
5.8205714 2.1463482 1.248202
5.9484205 2.1178639 1.2459573
5.9092488 2.1399353 1.2424409
5.8150682 2.1906054 1.2485851
5.9337006 2.1621249 1.2464141
5.9203992 2.2081137 1.2478734
5.8151073 2.2366946 1.2499373
5.8887062 2.2315915 1.2443075
5.9126267 2.2559409 1.2493018
5.8165545 2.2845163 1.251292
5.8807135 2.2784524 1.24473
5.9038815 2.3039889 1.2507401
5.8055143 2.3269391 1.2507056
5.872951 2.3262727 1.2471588
5.8057594 2.3740129 1.2510641
5.8994813 2.3531094 1.2531518
5.8613691 2.3708642 1.2465935
5.7959104 2.4171946 1.2504737
5.8818312 2.3980243 1.2536374
5.8581619 2.4207432 1.2490009
5.7973599 2.4650159 1.2518281
5.8595185 2.4726801 1.2513872
5.7978258 2.5130656 1.2521925
5.8527198 2.520292 1.2528067
5.8138828 2.6631532 1.2552122
5.7284431 2.7026832 1.2562008
5.8145657 2.7121763 1.2555825
5.8294363 2.7191031 1.256516
5.7540469 2.7441158 1.2543123
5.8092651 2.7574234 1.2539709
5.8141589 2.7655485 1.2549944
5.7462597 2.9066815 1.2586194
5.8816042 2.8888223 1.2563964
5.8364925 2.9162962 1.255969
5.7548351 2.9498677 1.2558812
5.8359642 2.9645779 1.2543426
5.8531938 3.1523473 1.2516414
5.8776412 3.183764 1.2546859
5.8878651 3.2388649 1.2540253
5.8947101 3.2926791 1.2513818
5.7165794 3.4583375 1.2630813
5.7559686 3.5110414 1.2611682
5.7973056 3.5633209 1.2582365
5.8453207 3.6222565 1.2633027
5.7750359 3.7987709 1.2642181
5.8233008 3.8454125 1.2601869
5.8972287 3.8965337 1.2639856
5.8014121 3.9906254 1.2654748
5.9073448 3.9649823 1.2624279
5.905509 4.0258603 1.2589091
5.8274498 4.052464 1.2617389
5.9268188 4.1030731 1.2593288
5.9433355 4.177269 1.2577646
5.8630528 4.5659966 1.267385
5.8554711 4.8125753 1.264334
6.079855 5.0330081 1.2702194
5.8975949 5.1668706 1.2697077
6.10429 5.1290145 1.2667581
5.9425292 5.267529 1.2661173
6.1389337 5.2340078 1.2642839
5.8645902 5.7356353 1.2783267
5.9448824 5.8571138 1.2726117
6.1612668 6.2944837 1.2792232
6.2262793 6.4347334 1.273775
2.9704316 -5.2169309 1.2227148
3.2314637 -5.1306558 1.2232791
3.4520757 -5.0783672 1.2179085
3.768029 -4.9941192 1.2230171
3.7777607 -4.9778152 1.2180635
3.8134792 -4.9601789 1.2209119
3.8568282 -4.9677653 1.2165058
4.0259953 -4.9030375 1.2196434
4.1978145 -4.8398819 1.2157469
4.3482251 -4.7904501 1.2209181
4.5780492 -4.7473874 1.2154021
4.5888691 -4.7538776 1.212266
4.6447864 -4.7376881 1.2179409
4.7634625 -4.6739578 1.2144755
4.8286548 -4.6710787 1.2149748
4.9177341 -4.6253605 1.2146093
5.1310072 -4.6564589 1.2066588
5.4158821 -4.4679413 1.2108154
5.4509239 -4.4439859 1.2097167
5.6231675 -3.9793477 1.214892
5.4876928 -3.8333955 1.218097
5.5880032 -3.8475466 1.2161831
5.5147042 -3.7902203 1.2152103
4.7579489 -3.4945459 1.2245494
4.5676365 -2.8865814 1.2267317
4.4129195 -2.6338823 1.2299081
4.2756338 -2.1699545 1.2405622
5.8682671 -1.8732764 1.2300472
5.3796463 -0.71016443 1.2428744
5.4036012 -0.40507501 1.2450176
5.4269729 -0.41024888 1.23879
4.9245992 -0.25118661 1.2470412
4.9682131 -0.22094372 1.2459227
5.5948677 -0.24993259 1.2386699
5.3071852 -0.12946302 1.2399007
5.4003372 -0.098024316 1.2483952
5.4284534 -0.10936048 1.2390817
5.7722688 0.37135717 1.2400014
5.7649293 0.41191834 1.2413709
5.7626867 0.45236877 1.2426989
5.762394 0.4923836 1.2440075
5.7594018 0.53401935 1.2463502
5.7252369 0.56008601 1.2448244
5.7612886 0.57456779 1.2486459
5.7166929 0.59989691 1.245198
5.7425332 0.61461711 1.2471031
5.7278066 0.64043295 1.2484186
5.7202401 0.68002534 1.2487826
5.9200864 0.65293026 1.2429706
5.717783 0.71949935 1.2501049
5.7184734 0.75928926 1.252404
5.8789072 0.73485959 1.2419282
5.7014551 0.79792702 1.2508366
5.8657036 0.77673328 1.2423548
5.6926932 0.83676136 1.251204
5.8513041 0.81784868 1.2427851
5.6914277 0.87699425 1.2525219
5.8451586 0.85916924 1.2441509
5.68994 0.91625094 1.2538348
5.831955 0.9010427 1.2445772
5.6823764 0.95584345 1.2541988
5.8279834 0.94289649 1.2469304
5.8305392 0.98635697 1.2512425
5.8542409 0.99648428 1.2441291
5.8224397 1.0281128 1.2526274
5.8447394 1.0364971 1.2465118
5.813364 1.070085 1.2540215
5.8405538 1.0773752 1.248859
5.8162661 1.1155822 1.2473459
5.817627 1.1582855 1.2516624
5.8010588 1.1988597 1.2521062
5.7931867 1.2415831 1.2544962
5.7799878 1.2834494 1.2559229
5.6331611 2.5046113 1.2654505
5.6350269 2.5359566 1.2656754
5.6366234 2.5386975 1.261683
5.6462193 2.5816193 1.264935
5.6602869 2.5805559 1.2608134
5.8694992 2.5492973 1.2598946
5.8196945 2.5696387 1.2564502
5.6560025 2.6255493 1.2641925
5.6714625 2.6170156 1.2580024
5.8643332 2.5996189 1.2613215
5.895896 2.5895052 1.2619909
5.822331 2.6182287 1.2568008
5.6568727 2.666352 1.2614977
5.7050023 2.6617913 1.2580761
5.6726246 2.7140737 1.2607367
5.8603554 2.6783812 1.2599561
5.6778402 2.7559524 1.259015
5.810411 2.7991502 1.2582816
5.7273755 2.8586278 1.2604038
5.8692665 2.8331275 1.2640698
5.8659263 2.8410306 1.2661568
5.8643775 2.8526771 1.2612585
5.8838544 2.8892863 1.2663826
5.8242841 2.9302571 1.2611743
5.8193221 2.9815714 1.2606064
5.8301187 3.0252457 1.2648542
5.8932481 3.0419173 1.2634753
5.8350954 3.0661693 1.2601275
5.9217319 3.1052198 1.2667314
5.8887529 3.1320524 1.2642008
5.830955 3.1531277 1.264827
5.9262037 3.1575027 1.266096
5.8321857 3.2092032 1.265246
5.8292928 3.2651708 1.2656978
5.8309469 3.3232052 1.265129
5.6586614 3.3636227 1.2708218
5.6925192 3.4144862 1.2689391
5.8395658 3.3847973 1.2665311
5.8368793 3.441756 1.264989
5.8423386 3.5030365 1.2654141
5.8513827 3.5665879 1.2658278
5.8655605 3.6945734 1.2656941
5.7492814 3.7655218 1.2741711
5.7271905 3.8042486 1.275645
5.8822021 3.7646313 1.2660971
5.7534552 3.8670573 1.2729144
5.8956919 3.8343616 1.2665218
5.7679777 3.9232771 1.2672282
5.7059622 4.3478727 1.2799772
5.7557492 4.4197927 1.2751276
5.8075018 4.4912696 1.271259
5.9627118 4.5713863 1.277627
5.732513 4.683136 1.2793305
5.983253 4.6590276 1.2761328
5.8105264 4.7620759 1.2763079
6.0090184 4.7516375 1.2766348
5.7931876 4.8908982 1.2824343
6.0302043 4.8422132 1.2741582
5.8241224 4.9793081 1.2788619
6.0704036 4.9490242 1.2746527
5.8792853 5.0889401 1.2782586
5.8147082 5.640152 1.2869972
6.0343747 6.0143232 1.2880985
6.1142998 6.17068 1.2886531
3.0080793 -5.2049122 1.236505
3.3754554 -5.1054082 1.2283168
3.4820232 -5.0687327 1.2317424
3.8181043 -4.9766374 1.2307489
3.815393 -4.9657822 1.2298539
3.9030008 -4.9494166 1.2242759
4.2440081 -4.8307743 1.2264465
4.5705132 -4.7262712 1.2206252
4.6327829 -4.7319632 1.2220815
4.6857715 -4.7151203 1.2277856
4.6991782 -4.7191038 1.2226472
4.7537937 -4.6995492 1.2283587
4.8123627 -4.6664824 1.2251416
4.8819909 -4.6574039 1.2236524
4.9359221 -4.5946174 1.2216994
5.1741762 -4.6518121 1.2193491
5.4676957 -4.4518738 1.2185233
5.4927573 -4.4267159 1.2175144
5.5825233 -4.2449317 1.2251856
5.5913377 -4.1915646 1.2245237
5.6001315 -4.1381865 1.2218614
5.6260877 -4.0999188 1.2229457
5.6304379 -4.0435004 1.2203429
5.4311719 -3.9817133 1.2284162
5.4485288 -3.9312594 1.2246621
5.6191516 -3.9242084 1.2243466
5.4738045 -3.8866718 1.2218008
5.4541936 -3.726593 1.2261838
4.9538898 -3.4798489 1.2290895
5.1565967 -3.5035117 1.2282809
4.2932506 -2.2200425 1.2500385
5.8657575 -1.9167831 1.2317344
5.6500778 -0.53583944 1.2460381
5.5023437 -0.45889845 1.2538135
4.952652 -0.21751733 1.2530742
5.0160356 -0.19067915 1.2557713
5.5221744 -0.0022922773 1.2581503
5.5202436 0.035019591 1.2584513
5.5207052 0.073848888 1.2587451
5.5168257 0.11159573 1.259065
5.5129452 0.14934301 1.2593851
5.513186 0.18719646 1.2596731
5.5081129 0.22418469 1.2599967
5.5083566 0.26203758 1.2602845
5.5054502 0.29956737 1.2605954
5.7611566 0.65653503 1.2532748
5.7494669 0.69602251 1.2536713
5.7391896 0.73724389 1.2540691
5.7286963 0.77748907 1.2544613
5.7233076 0.81761563 1.2558119
5.7108617 0.85829639 1.2562233
5.7076397 0.89896381 1.257561
5.6971564 0.93920219 1.2589527
5.6907916 0.97954607 1.2603128
5.6842628 0.99639177 1.2564945
5.6865926 1.0204314 1.2616596
5.6743083 1.0344682 1.2568656
5.6814218 1.0615339 1.263016
5.663589 1.0737451 1.2562521
5.6675668 1.1004797 1.263425
5.6674366 1.1138511 1.2595288
5.6539249 1.1404022 1.2638402
5.7999492 1.1109756 1.2554425
5.6608438 1.153227 1.259883
5.6402373 1.189597 1.2573264
5.796195 1.1538055 1.2578007
5.6442928 1.2306862 1.2596081
5.7839746 1.1954548 1.2592175
5.7705545 1.2363528 1.2596385
5.6515017 1.2720916 1.2628677
5.6330724 1.3089945 1.2612985
5.7658243 1.279399 1.2620062
5.6264811 1.3483706 1.2616526
5.7557802 1.3215823 1.2644104
5.7721152 1.3261735 1.2583134
5.6196723 1.3867713 1.2620012
5.7455144 1.3627957 1.2658077
5.7555461 1.3667482 1.258757
5.6140575 1.425928 1.2623464
5.7303557 1.4051056 1.2662535
5.7476716 1.4094715 1.2611473
5.6149597 1.4667019 1.2636514
5.7222571 1.446859 1.2676381
5.7409921 1.4529539 1.2635339
5.6049995 1.5047855 1.2630225
5.7044954 1.4866759 1.2680852
5.7319236 1.4949183 1.2659285
5.6027555 1.5452353 1.2643507
5.7199225 1.5375443 1.2673514
5.6046338 1.5857921 1.2656457
5.6077061 1.6271058 1.2669374
5.6020918 1.6662645 1.2672819
5.6017995 1.706279 1.2685909
5.6072598 1.7491106 1.2698752
5.6047893 1.7885932 1.2701975
5.5936284 1.8259263 1.2685724
5.5959425 1.8684344 1.2698793
5.593473 1.9079154 1.2702017
5.5933914 1.9489161 1.2705165
5.595479 1.990454 1.2708173
5.5744262 2.0248787 1.2672491
5.5808549 2.0675027 1.2675241
5.5807729 2.1084995 1.267839
5.5109987 2.1537247 1.2747455
5.5794921 2.1487467 1.2671566
5.5871167 2.1921215 1.2684281
5.5412059 2.2340767 1.275118
5.594739 2.2355018 1.2686987
5.5460949 2.2698815 1.273353
5.5980115 2.2778075 1.2679963
5.5612993 2.3105557 1.2725421
5.6068354 2.3219392 1.2692637
5.5738964 2.3487332 1.2717332
5.6144476 2.365325 1.2685344
5.5944252 2.3902612 1.2718861
5.6232605 2.4094653 1.2688015
5.6238532 2.4349229 1.2729919
5.6289225 2.453289 1.2680914
5.6241708 2.4686847 1.2692479
5.6363196 2.4956999 1.2673572
5.9481664 2.4743347 1.26869
5.9408298 2.5241158 1.2701299
5.9030142 2.6442449 1.2663531
5.9135041 2.6726022 1.2734863
5.8562293 2.7560952 1.267585
5.8459597 2.8065352 1.2680537
5.7779093 2.8411386 1.2738652
5.8828096 2.9028139 1.2704948
5.8564343 2.9773037 1.2762775
5.8406229 3.0259135 1.275776
5.8226237 3.0739946 1.2732885
5.868804 3.060643 1.2708156
5.8209333 3.1307158 1.2747363
5.8897109 3.1266441 1.2761532
5.8166299 3.1849475 1.2751858
5.629313 3.2819853 1.2824332
5.8151507 3.24265 1.2756398
5.6540403 3.3287487 1.2785925
5.8184571 3.3033726 1.278078
5.8253422 3.3663759 1.2795053
5.8195138 3.4230049 1.2789855
5.8349848 3.49228 1.2823915
5.6475024 3.5658195 1.2844598
5.6054449 3.6161792 1.284183
5.6668315 3.6250451 1.2827585
5.6560073 3.6684422 1.2821771
5.6909428 3.6872959 1.282041
5.6977525 3.7134664 1.2771862
5.8436785 3.6829517 1.2837818
5.6994977 3.7397234 1.2763734
5.8458896 3.7480264 1.2842623
5.850481 3.8146274 1.2837356
5.8540974 3.8814437 1.2832174
5.8603196 3.9507556 1.2826982
5.8811007 4.0301237 1.285139
5.8769903 4.094583 1.2816656
5.6288319 4.2174773 1.2885991
5.9003787 4.1764441 1.2841045
5.8871369 4.2368026 1.2786728
5.6793013 4.2923036 1.2867669
5.9211664 4.3296022 1.2821103
5.9406281 4.4123559 1.281587
5.6209235 4.5542502 1.2922403
5.9499912 4.4912162 1.2801156
5.685257 4.6270218 1.288281
5.6993842 4.6259041 1.291159
5.7165294 4.7030506 1.286612
5.7548599 4.7969718 1.2850229
5.7017593 5.4316597 1.2983081
5.7589397 5.5367723 1.292654
5.9351544 5.7618041 1.2969614
5.9954238 5.8989906 1.2955281
3.2588232 -5.1327548 1.2400452
3.4193809 -5.0927243 1.240062
3.8333457 -4.9544497 1.2357973
3.8568239 -4.9597201 1.242569
3.876435 -4.9681778 1.2403466
3.9539599 -4.9372673 1.2339602
4.0024147 -4.922503 1.2426847
4.0543132 -4.8961115 1.2334696
4.2908401 -4.8187308 1.2361635
4.3836789 -4.7789488 1.2317227
4.5992484 -4.7173758 1.232463
4.7405033 -4.699697 1.2344651
4.8124218 -4.6849909 1.234
4.849534 -4.6471519 1.2329913
4.9216375 -4.6314316 1.2285329
4.9692068 -4.6113343 1.2343055
4.9792891 -4.5889807 1.2323954
5.2125487 -4.6409554 1.2291241
5.5247121 -4.4400368 1.2261564
5.5489211 -4.4187989 1.2271246
5.5549102 -4.4058027 1.2291764
5.5852127 -4.3941407 1.233023
5.5708866 -4.3571148 1.2294213
5.5939183 -4.3458781 1.2333223
5.2519116 -4.2348356 1.2379179
5.5746965 -4.2985234 1.2268388
5.5914469 -4.2879405 1.2317857
5.2811046 -4.1911335 1.2370185
5.5949421 -4.2354403 1.2311593
5.3075757 -4.1457872 1.2341527
5.6036501 -4.1871796 1.231459
5.3286276 -4.0971861 1.2313557
5.6140947 -4.1403322 1.2317338
5.3628082 -4.0586963 1.2303759
5.6237717 -4.0922809 1.2310237
5.4031796 -4.0246615 1.2303123
5.6262808 -4.0395513 1.2294071
5.630538 -3.9882464 1.2287656
5.4049516 -3.8744903 1.237448
5.4290438 -3.8306699 1.2355901
5.2288413 -3.763499 1.2347115
5.4521508 -3.7866254 1.2327416
5.4772501 -3.7799537 1.2375917
4.9234204 -3.4977417 1.2451986
5.0668092 -3.5071607 1.2449752
4.9278817 -3.4638958 1.2444215
4.7807598 -3.1770194 1.2457982
4.5054617 -2.651536 1.2470317
4.5507474 -2.6370754 1.2527785
4.3032627 -2.2673998 1.2575959
5.4903951 -0.72879112 1.2578439
5.5067015 -0.6924814 1.2599912
5.5130177 -0.65495729 1.2602277
5.5146623 -0.61536157 1.2595178
5.5180416 -0.57717741 1.2587823
5.5194783 -0.53856575 1.2590668
5.5199299 -0.49972895 1.2583601
5.4789672 -0.45372444 1.2600411
5.6946425 -0.50176907 1.2549418
5.7213879 -0.46472928 1.2600112
5.7171769 -0.42382893 1.2593578
5.7161202 -0.38261279 1.2596819
5.7048502 -0.34115815 1.2580898
5.7055354 -0.30136055 1.2593892
5.6884971 -0.13875832 1.2597708
5.5265779 -0.079093851 1.258527
5.5250845 -0.039829664 1.25884
5.6664419 -0.017042981 1.2598791
5.6946158 0.021716237 1.26695
5.6831279 0.062194832 1.2653528
5.672852 0.10341636 1.2657503
5.6638665 0.14128269 1.2651126
5.6584754 0.18140936 1.2664628
5.6532984 0.22251938 1.2668191
5.6396518 0.262449 1.2662344
5.6342611 0.30257601 1.2675848
5.5057011 0.33741292 1.2618833
5.5047483 0.37450784 1.2621746
5.6308246 0.34226727 1.2689164
5.5101037 0.41223401 1.2644203
5.5103507 0.45007992 1.2657083
5.5166864 0.48758814 1.2679447
5.4992242 0.5242815 1.2653656
5.5128369 0.56220448 1.2695469
5.5111389 0.60048521 1.2708535
5.5038819 0.63694096 1.2701912
5.5009875 0.6744622 1.2715019
5.4959054 0.71145892 1.270826
5.4939861 0.7487632 1.2721268
5.4908648 0.78531647 1.2724319
5.4867673 0.822088 1.272746
5.4826708 0.85885823 1.2730602
5.479764 0.89638901 1.2733712
5.4809918 0.93401718 1.2746495
5.4757004 0.97002852 1.2749674
