# .PCD v0.7 - Point Cloud Data file format
VERSION 0.7
FIELDS x y z
SIZE 4 4 4
TYPE F F F
COUNT 1 1 1
WIDTH 1480
HEIGHT 1
VIEWPOINT 0 0 0 1 0 0 0
POINTS 1480
DATA ascii
1.4402111 0.032498032 -0.40883982
0.36763236 1.0474451 -0.98529553
18.798691 -16.976967 -2.3571346
0.47102717 0.94609773 -0.99749887
6.3198152 -4.7335668 -0.65850496
0.59263408 0.8268193 -1.0134083
6.4285283 -4.8274436 -0.42623043
0.68811864 0.73416877 -1.0064685
5.731751 -4.1355882 -0.17253605
0.85436094 0.57094324 -1.0314224
7.3914924 -5.7398009 0.069467023
1.0773566 0.35158363 -1.0728109
6.6632047 -5.0181031 0.30673182
1.2127056 0.22045727 -1.0590187
1.3868558 0.051122431 -1.0531565
5.9942675 -4.3446445 0.72906762
1.5746489 -0.1311585 -1.0406959
5.9323931 -4.2731185 0.94650745
2.0663166 -0.61441255 -1.1243322
6.6379576 -4.9423199 1.2957721
2.38395 -0.92356348 -1.1194323
6.1853528 -4.493351 1.4520574
2.9126897 -1.4403367 -1.1530195
6.5749083 -4.8557453 1.7817611
3.9801683 -2.487113 -1.2875707
6.8403029 -5.0975575 2.1045942
4.847074 -3.3326097 -1.3081064
39.702686 -36.569931 12.505508
0.21700446 1.187176 -0.9858402
15.709 -14.102872 -3.1045253
0.29562491 1.1098387 -0.99158424
1.4289615 0.029521307 -0.40783146
0.36246461 1.0447255 -0.984209
18.761372 -17.055096 -2.3564286
0.46427053 0.94437832 -0.99560052
0.56743276 0.84303969 -1.0004535
6.4912224 -4.9320173 -0.42940912
0.67024362 0.74238861 -0.99869508
0.87670988 0.5376249 -1.0460225
7.357285 -5.7547793 0.070609517
1.0780478 0.33879536 -1.0758193
6.8783908 -5.2726607 0.31892288
1.1983049 0.22203818 -1.0549567
6.4066219 -4.7991085 0.53669173
1.3854134 0.038683929 -1.0550989
7.3093591 -5.6659656 0.87914377
1.5781584 -0.1496367 -1.0445571
2.0121911 -0.57821333 -1.1078007
2.3631597 -0.92251557 -1.1153834
6.1518588 -4.5021653 1.4504737
2.9987235 -1.5486436 -1.1801398
6.5644031 -4.8890591 1.7856688
4.0147214 -2.550364 -1.2990733
4.7586136 -3.2789016 -1.2916782
39.552799 -36.659069 12.501736
0.2063726 1.1913652 -0.97989702
15.592996 -14.079453 -3.0892103
0.26358581 1.1354892 -0.97023129
1.4110711 0.034013938 -0.40578744
0.33490226 1.0653667 -0.9673146
18.752615 -17.155006 -2.3588905
0.45521802 0.94553053 -0.99204487
5.9864635 -4.4861522 -0.63177097
0.56189907 0.84002656 -0.99943513
6.51057 -4.9921722 -0.43037274
0.66961676 0.73381937 -1.000711
6.1894946 -4.6628137 -0.17977504
0.87424439 0.52977842 -1.0471714
14.596482 -12.928486 0.17480676
1.02598 0.37999761 -1.0522625
1.2030344 0.20515303 -1.0596068
1.3155184 0.095969185 -1.0276676
15.112522 -13.355043 1.7571892
1.5086048 -0.09388414 -1.0197418
6.5833888 -4.9873533 1.048358
2.013572 -0.59618121 -1.1107746
6.4432392 -4.8377166 1.271085
2.519356 -1.0975206 -1.1678745
6.1365914 -4.526166 1.4523965
2.9836595 -1.5555795 -1.1783779
6.5338674 -4.9004493 1.7843481
3.8756225 -2.4390769 -1.2668364
39.297813 -36.702633 11.103235
4.7302895 -3.282341 -1.2881112
39.401268 -36.732498 12.494949
0.19455174 1.1968638 -0.97299504
15.481462 -14.059709 -3.0746965
0.26881269 1.1230978 -0.97649211
1.4030745 0.028751194 -0.40523028
0.34004438 1.0526822 -0.97327584
18.73921 -17.250826 -2.3608453
0.44998771 0.94282085 -0.99100035
0.51401728 0.88034737 -0.97220856
6.5253906 -5.0482621 -0.43110916
0.70656776 0.68684202 -1.0245175
6.168335 -4.681385 -0.1787141
0.87960988 0.51392263 -1.0525693
14.765358 -13.181551 0.18009606
0.97415465 0.42147416 -1.0287189
1.2103591 0.18551634 -1.0654958
1.3226421 0.075932957 -1.0330981
6.7796116 -5.2350082 0.82704723
1.5722463 -0.17211857 -1.0470067
6.4476795 -4.8954377 1.0327657
1.9848416 -0.58386016 -1.1030465
6.4029865 -4.8389363 1.2686267
2.3255701 -0.92175585 -1.1082413
6.1226568 -4.5515242 1.4546161
3.0363235 -1.6305832 -1.1960015
6.5061526 -4.9144874 1.783711
3.3036053 -1.8917748 -1.1254476
39.137928 -36.766808 11.0954
4.6782541 -3.2618823 -1.2793772
39.237064 -36.793156 12.484221
0.20913322 1.1742253 -0.98722291
15.361684 -14.042347 -3.0593967
0.28834644 1.0948997 -0.99376971
1.3872275 0.029735224 -0.4035733
0.34341696 1.0407866 -0.97833252
0.43287739 0.95137101 -0.9824
0.51830745 0.86643797 -0.97752392
6.6391101 -5.2088594 -0.43692082
0.72586846 0.65631068 -1.0385176
6.1078525 -4.6656361 -0.17684925
0.88033646 0.50138938 -1.055807
14.737569 -13.252051 0.18296102
0.99838144 0.38430858 -1.0436782
1.2115061 0.17048992 -1.0688608
6.0286984 -4.5508785 0.51484299
1.2980227 0.08648055 -1.0252367
6.7597013 -5.2635279 0.82878679
1.5129244 -0.12786824 -1.0264131
6.4415183 -4.9354949 1.0364443
2.053179 -0.67195815 -1.1302762
6.3941092 -4.8760066 1.2723484
2.2906055 -0.90712559 -1.0997652
38.732735 -36.754158 8.375576
2.9108078 -1.5288253 -1.1629312
6.4772334 -4.9324055 1.783548
38.971088 -36.851177 11.090204
4.6411304 -3.2599697 -1.2742016
39.067318 -36.875286 12.476801
0.22137377 1.1542276 -0.99953324
15.249196 -14.025814 -3.0450442
0.28335118 1.092416 -0.99265426
1.3746212 0.02837814 -0.40236431
0.34073395 1.0355636 -0.97900712
0.42490226 0.95110267 -0.97967321
5.8702803 -4.4925861 -0.62395012
0.55084532 0.82370222 -1.0003136
0.73241007 0.63926339 -1.0450152
6.0995703 -4.6993675 -0.17599519
0.87351656 0.49721488 -1.0548128
6.6355405 -5.2244325 0.066382125
0.91100717 0.46233433 -1.0022093
6.0531516 -4.628736 0.28868181
1.1652176 0.20486939 -1.049924
5.9796991 -4.5433955 0.51364535
1.3166773 0.053674355 -1.0358257
1.4772339 -0.10629302 -1.0148835
6.5422091 -5.0795588 1.055541
1.9776919 -0.6130107 -1.1059986
6.2850447 -4.8111162 1.2578229
2.6141825 -1.256681 -1.2068239
38.594212 -36.850697 8.377182
2.9391236 -1.5809114 -1.1737933
6.4677668 -4.9669375 1.7877918
3.8936319 -2.5438538 -1.2799877
6.923255 -5.4042797 2.1651082
4.6175489 -3.2695775 -1.2718204
6.7106738 -5.1805573 2.3676081
0.20489888 1.1650479 -0.98880154
15.145396 -14.005964 -3.0315273
0.27756989 1.0916754 -0.99064344
1.357271 0.033562303 -0.4003557
0.34595162 1.0230173 -0.98497552
1.708652 -0.31883952 -0.36349663
0.42120194 0.94742417 -0.97948205
5.8508778 -4.5090604 -0.62290454
0.57225418 0.79321969 -1.0159788
6.4124722 -5.0651016 -0.42528352
0.72404474 0.63878685 -1.0425291
6.0851974 -4.7221241 -0.1751139
0.82577896 0.53679049 -1.0312084
6.6592121 -5.288331 0.068065688
0.82604784 0.54013425 -0.96146375
1.1437008 0.21564797 -1.0421952
6.0501909 -4.6507053 0.52175575
1.3119681 0.046291552 -1.0360901
15.76817 -14.380299 1.8623327
1.5446947 -0.18877162 -1.0437347
6.7221279 -5.2990155 1.0858983
2.0037558 -0.65549439 -1.1177417
6.2378974 -4.8020411 1.2537522
38.449718 -36.913475 8.373867
2.9740431 -1.6374305 -1.1862952
6.4384441 -4.976655 1.7863861
3.8629119 -2.5383005 -1.2747865
38.642658 -36.968174 11.07205
4.6097546 -3.2912621 -1.27258
0.18465722 1.1795615 -0.97517896
15.03066 -13.979968 -3.016345
0.27157015 1.0907366 -0.98862213
1.3451149 0.032730348 -0.39917347
0.3434439 1.0180106 -0.98566103
1.6926985 -0.31779593 -0.3621192
0.40721297 0.95402765 -0.97259057
5.8498154 -4.5466161 -0.62345415
0.57294381 0.78357548 -1.0189282
6.388845 -5.0828552 -0.42407173
0.70897716 0.6447401 -1.0362773
6.0680985 -4.7446594 -0.17414436
0.81809151 0.53444833 -1.0295323
6.7936244 -5.467607 0.07152877
0.97915739 0.37050924 -1.0414943
6.3774867 -5.0333829 0.30809832
1.1825559 0.16315205 -1.0629557
6.2509737 -4.8930359 0.540667
1.3427427 0.0012995324 -1.051869
15.945644 -14.653384 1.89045
1.5322111 -0.19026983 -1.0412476
6.6177106 -5.237216 1.0748081
2.0128825 -0.68193758 -1.1236236
6.1895757 -4.7940216 1.2497357
2.2142656 -0.88400429 -1.0824952
38.298248 -36.982681 8.370882
2.8863695 -1.5697178 -1.1636189
3.8877254 -2.59131 -1.2838626
6.6402974 -5.206985 2.0997434
4.6036615 -3.3167534 -1.2738959
0.16209827 1.1967332 -0.95964068
14.920338 -13.957705 -3.001956
0.268015 1.0872403 -0.98844206
1.3343632 0.030523878 -0.39820534
0.3483327 1.0051783 -0.99161476
1.679558 -0.31953645 -0.36107439
0.42077863 0.93169737 -0.98409265
5.9155521 -4.6527767 -0.62966579
0.51794344 0.83247179 -0.98697275
6.0730772 -4.8018956 -0.40788701
0.66455156 0.68164295 -1.0127674
6.0523353 -4.768579 -0.1732024
0.81040478 0.53213733 -1.0278579
0.97620589 0.36231479 -1.0425377
6.2711725 -4.9669237 0.30502236
1.1685295 0.16535848 -1.058926
5.9937229 -4.67274 0.52241325
1.306977 0.025227513 -1.0388783
15.658341 -14.457827 1.8653926
1.6560585 -0.33351973 -1.0928499
6.6493273 -5.3121405 1.0837723
1.9949751 -0.68050051 -1.1197934
6.1818352 -4.826674 1.2530484
2.2485559 -0.93783975 -1.0961219
6.0018554 -4.6326494 1.4556469
3.0688987 -1.7806948 -1.2190831
38.231258 -37.06823 9.7039776
3.242435 -1.9526296 -1.1222937
38.355682 -37.124493 11.065487
4.5300322 -3.2727089 -1.2603552
6.4805231 -5.0760098 2.3180401
0.16442104 1.18674 -0.96425664
14.808737 -13.944772 -2.9880776
0.27615875 1.070366 -0.99742895
1.31864 0.031841129 -0.3965649
0.34283093 1.0023122 -0.99052054
1.6821191 -0.33933181 -0.3619568
0.39259502 0.95241725 -0.96798503
5.9407182 -4.7231069 -0.63254923
0.50556487 0.83577347 -0.98196965
6.0421014 -4.8154068 -0.4063119
0.60319585 0.73572379 -0.97948885
6.2516103 -5.0184402 -0.17604281
0.78920621 0.54280454 -1.01908
14.707415 -13.675566 0.19756132
0.90884054 0.42046434 -1.0110499
6.2367506 -4.9782119 0.30565622
1.1249182 0.19718201 -1.041238
5.9615912 -4.6846089 0.52274537
1.3088882 0.0083439704 -1.0425311
1.5916438 -0.28322697 -1.0701587
6.573308 -5.2835312 1.0773435
1.9559124 -0.65899646 -1.1086355
6.1602783 -4.8505263 1.2544661
2.3286564 -1.0423254 -1.1250775
5.9850345 -4.6601529 1.4579799
2.865756 -1.5954189 -1.1632208
38.082104 -37.167198 9.7044716
38.184143 -37.20166 11.058975
4.4286714 -3.2031617 -1.2409794
6.4401388 -5.0827389 2.3140118
0.17984445 1.1625961 -0.97943282
14.698757 -13.932701 -2.9744833
0.27694193 1.0612227 -1.0008994
1.3029494 0.033235665 -0.39492881
0.33977959 0.99684298 -0.99118328
1.6776752 -0.35198709 -0.36201656
0.37324992 0.96401852 -0.95773554
5.936409 -4.7634807 -0.63295233
0.53971857 0.78960711 -1.0063057
5.9916749 -4.8086605 -0.40374622
0.5701322 0.76046288 -0.96272814
6.0864406 -4.8945065 -0.17233486
0.78092217 0.53997278 -1.0173787
14.825235 -13.898469 0.20276242
0.89496458 0.42276615 -1.0067647
6.2037306 -4.9907832 0.30635107
1.1259589 0.18228595 -1.0446086
6.3206334 -5.0985723 0.55528611
1.3107178 -0.0085718026 -1.0461824
7.3361959 -6.1283841 0.91829324
1.6576991 -0.36961704 -1.0994097
6.4267054 -5.1818991 1.0603129
1.9370697 -0.65836531 -1.1047629
6.1303205 -4.8657928 1.2543583
2.151087 -0.87755042 -1.0700029
37.815384 -37.214016 8.363163
2.9765394 -1.7365519 -1.1984569
37.91481 -37.247307 9.7004452
3.812793 -2.6039557 -1.273916
38.033188 -37.29908 11.058294
4.5247178 -3.3386192 -1.2652273
6.5284805 -5.2200289 2.351048
0.18883185 1.1468883 -0.98888594
14.598909 -13.907813 -2.9612236
0.27376097 1.0581492 -1.0007399
1.2916849 0.033413816 -0.39379904
0.33276665 0.99756378 -0.98838305
1.6682043 -0.3555924 -0.36135194
0.37230411 0.95805168 -0.9592346
6.0018973 -4.8667746 -0.63911986
0.5383808 0.78320968 -1.0076987
5.9671531 -4.8184562 -0.40250888
0.66377306 0.65244669 -1.0202738
6.0977402 -4.941987 -0.17195864
0.78414881 0.52748245 -1.0213958
0.87859517 0.43056333 -1.000563
6.1953311 -5.0183539 0.30773884
1.1454034 0.15083237 -1.0561005
14.622364 -13.713924 1.2442147
1.331214 -0.042038471 -1.0573828
1.674875 -0.4012903 -1.1086091
6.3913908 -5.1828251 1.058758
1.9136944 -0.64857644 -1.0985761
6.106854 -4.8774366 1.2542424
2.3042738 -1.0550879 -1.122363
37.683048 -37.273159 8.3605709
2.9179316 -1.6950256 -1.1837753
37.778198 -37.302601 9.6956844
3.0268648 -1.802402 -1.0747595
37.889591 -37.347839 11.050306
4.4780817 -3.3177032 -1.2572685
6.5791898 -5.309432 2.3742902
0.17906484 1.1496683 -0.9838956
14.488002 -13.893338 -2.9474235
0.26002109 1.0646533 -0.99318707
1.2787864 0.03205457 -0.39258942
0.33091331 0.99079865 -0.98992354
1.6554375 -0.35956749 -0.36042973
0.37158644 0.94980329 -0.96151954
0.54466057 0.76632798 -1.0145842
5.9127369 -4.8069839 -0.39975026
0.67355353 0.63099205 -1.0290035
6.3069258 -5.2069173 -0.17491098
0.79751766 0.50141209 -1.031706
14.22055 -13.450746 0.19904518
0.88668776 0.40955612 -1.007548
6.1788459 -5.0480528 0.30924934
1.1345601 0.14832675 -1.0538979
14.424783 -13.610257 1.2345562
1.1690748 0.11564533 -0.98923296
1.5275838 -0.26199132 -1.0525873
6.6311669 -5.4793291 1.0996603
1.9002573 -0.65341449 -1.0966518
6.0851254 -4.901063 1.2556483
2.3778508 -1.1548512 -1.1495118
37.517139 -37.353035 8.3581429
3.0007734 -1.8084919 -1.2110941
37.609383 -37.380127 9.6912498
37.721886 -37.427334 11.04487
4.4412355 -3.3147206 -1.2521478
6.3435783 -5.1163292 2.3077283
0.17211825 1.1503109 -0.98084897
14.384339 -13.874406 -2.9341846
0.24918517 1.0690427 -0.98749721
1.263994 0.034429345 -0.39100376
0.31734446 0.99772131 -0.98271835
1.640893 -0.35967693 -0.3592304
0.3799482 0.93266386 -0.96967375
6.4286847 -5.4035091 -0.67697459
0.53521985 0.76746714 -1.0111935
5.8086596 -4.737793 -0.39444643
0.63849837 0.65904272 -1.010775
6.2898054 -5.231565 -0.1739299
0.79868227 0.48958862 -1.0349804
14.621884 -13.960667 0.20851612
0.90434724 0.37945566 -1.0192009
6.2532058 -5.1677456 0.31503859
1.1309733 0.13964128 -1.0548295
14.379854 -13.653157 1.2367824
1.2581527 0.0073445411 -1.0308347
14.419443 -13.667453 1.7618711
1.4794521 -0.22528709 -1.0358163
6.5483742 -5.4373646 1.0916059
1.7592835 -0.51973975 -1.0477984
37.227173 -37.343376 7.0181546
2.4414251 -1.2425208 -1.1731831
37.369259 -37.42313 8.3558979
2.8858104 -1.7095052 -1.1802176
37.469551 -37.459175 9.6899033
3.7968128 -2.671186 -1.2784506
37.569576 -37.494144 11.039101
4.4172812 -3.3211985 -1.2495503
6.3520827 -5.1675663 2.318414
0.15809391 1.1587687 -0.97204632
14.283614 -13.857907 -2.9214809
0.27311698 1.0354239 -1.0084375
1.2533185 0.032520212 -0.3900502
0.30746338 1.0007297 -0.9781462
1.6345658 -0.36843503 -0.35901442
0.38085985 0.92350578 -0.97281605
6.402842 -5.4197941 -0.67555285
0.50343859 0.79299527 -0.99354714
5.7503138 -4.7160268 -0.39149302
0.63499588 0.65315944 -1.0112896
5.6939321 -4.6446176 -0.16283517
0.79091692 0.48737532 -1.0333097
14.584383 -14.012837 0.2109087
0.90777117 0.36449182 -1.0235627
6.3365827 -5.2980604 0.32133642
1.1221859 0.13654307 -1.0532862
14.391234 -13.755252 1.2437373
1.2711127 -0.019977052 -1.0391208
14.367423 -13.70312 1.7632875
1.5339134 -0.29857516 -1.0603265
6.5839682 -5.5187774 1.1014409
1.6719346 -0.44213337 -1.0183513
37.089138 -37.422489 7.018846
2.4220669 -1.2420689 -1.1696141
37.22131 -37.492741 8.3536186
2.9333398 -1.7833567 -1.1969633
37.307735 -37.515045 9.682991
3.7975888 -2.7003274 -1.2815856
37.423988 -37.567493 11.035265
4.2892528 -3.2164812 -1.2237074
6.4199052 -5.2807784 2.3483651
0.14273599 1.1683978 -0.96227765
14.181631 -13.845078 -2.9089136
0.26678917 1.0343356 -1.0064073
1.2381637 0.034622874 -0.38845044
0.30341604 0.99690825 -0.97794729
1.6236374 -0.37326863 -0.35828587
0.3447572 0.95439845 -0.95090485
6.3428226 -5.4023266 -0.67127144
0.5099206 0.7763862 -1.0004455
6.0548539 -5.0827212 -0.40716514
0.65995955 0.61552787 -1.0290198
0.79799747 0.46832675 -1.0400966
15.012858 -14.565427 0.22128013
0.92226547 0.33665019 -1.0338646
6.3849854 -5.3953104 0.32606518
1.0911212 0.15690845 -1.0412195
14.31563 -13.771706 1.2437859
1.2562551 -0.01819624 -1.0353314
7.3868113 -6.4273314 0.94479293
1.3585529 -0.12462074 -0.99224705
6.6642971 -5.6508393 1.1184491
1.9060485 -0.71213645 -1.1069933
7.4264698 -6.4395494 1.5204616
2.3755863 -1.2135016 -1.1572428
37.057999 -37.559921 8.349865
2.7663238 -1.6282117 -1.1507616
37.144344 -37.582623 9.6777763
3.7235944 -2.6510067 -1.2655594
37.264446 -37.639965 11.029791
4.3522215 -3.317451 -1.2406993
6.3630071 -5.2674165 2.3385525
0.12254062 1.183133 -0.94866681
14.074366 -13.831499 -2.8957276
0.25547329 1.0383357 -1.0006977
1.2253363 0.033496667 -0.38725206
0.28947663 1.0035462 -0.97072643
1.6095109 -0.37559348 -0.35720983
0.38668028 0.89903605 -0.98239809
0.50863576 0.76762569 -1.0025778
6.1472802 -5.2289801 -0.41196796
0.62453485 0.6433121 -1.0107784
0.79204875 0.46274406 -1.0398068
6.5902576 -5.676816 0.082123235
0.90699691 0.34043851 -1.0289218
6.406888 -5.4679537 0.32962805
1.0931778 0.14058012 -1.0452068
14.283728 -13.839988 1.2478982
1.2073681 0.020002214 -1.0166135
7.3998618 -6.4970856 0.95102888
1.5059094 -0.30109796 -1.0547745
1.9029651 -0.72833377 -1.1089423
7.4651456 -6.5365591 1.5343145
2.3868401 -1.2484304 -1.1641527
36.897129 -37.643131 8.3485279
2.7976818 -1.6875329 -1.1631166
36.995495 -37.679111 9.6784306
3.5154164 -2.4574242 -1.2147821
37.103115 -37.724125 11.026201
4.3156109 -3.3138537 -1.2356104
6.2901068 -5.2394896 2.3239708
0.14168647 1.1553984 -0.96673685
13.970366 -13.803734 -2.8819506
0.25200576 1.0350994 -1.0005292
1.2124104 0.03503767 -0.38590774
0.30033618 0.98417699 -0.98106861
1.6022573 -0.38236073 -0.35685825
0.38284555 0.8954578 -0.98221207
6.5938072 -5.7635746 -0.69440609
0.4860011 0.78418058 -0.99050254
6.0307817 -5.1435843 -0.40604559
0.6287415 0.62948447 -1.0158018
5.9236627 -5.0159531 -0.16483554
0.77828413 0.46781552 -1.0346264
6.554081 -5.6804872 0.082893722
0.93088245 0.30335873 -1.0438824
6.2703238 -5.3630071 0.32470399
1.0438514 0.1830062 -1.0239234
14.378699 -14.027183 1.2616903
1.2631767 -0.053705037 -1.043838
1.4612324 -0.26628029 -1.0391096
1.9105997 -0.75305879 -1.1143527
2.4288087 -1.3133525 -1.180794
36.760082 -37.708817 8.3467274
2.7791429 -1.6887344 -1.1602473
36.840679 -37.726631 9.6710854
3.5308163 -2.4996266 -1.2214622
36.965637 -37.790668 11.022327
4.3235431 -3.3524199 -1.240014
6.2389336 -5.2258506 2.3148761
0.12855144 1.1623622 -0.95888311
13.868908 -13.795024 -2.8698313
0.21708234 1.0657152 -0.97647327
1.2009611 0.032555923 -0.3849242
0.29599762 0.98015285 -0.98085898
1.5800333 -0.37578627 -0.35481179
0.37701616 0.89252973 -0.9811554
6.5952697 -5.8166914 -0.69549036
0.45528117 0.80828863 -0.97364396
5.8864732 -5.0348053 -0.39871186
0.57494622 0.67822874 -0.98634529
5.8460531 -4.978837 -0.16278334
0.7322585 0.50679862 -1.0117677
6.5299873 -5.7055635 0.084144555
0.93958652 0.28054073 -1.0515072
6.2145796 -5.3520155 0.32427624
1.0765419 0.1329007 -1.0427345
14.330909 -14.079683 1.2645414
1.2581592 -0.063587852 -1.0446184
1.3972476 -0.21250381 -1.0159969
6.0670977 -5.1552753 1.0410364
1.8303483 -0.68456566 -1.0877799
6.1544189 -5.2362709 1.2995006
2.3292768 -1.2273568 -1.150878
36.592148 -37.78368 8.343832
2.7373636 -1.6686451 -1.150999
36.686089 -37.816303 9.6702919
3.4850168 -2.4803228 -1.2127489
36.798679 -37.868027 11.017111
1.6497507 -0.46599698 -0.63993436
6.2105579 -5.2441955 2.3147359
0.11609481 1.1699733 -0.95106274
0.21132436 1.0652382 -0.9744761
1.1867321 0.035667125 -0.38337633
0.30670795 0.96068376 -0.99119639
1.571434 -0.38100681 -0.3543016
0.38646129 0.87404227 -0.9901439
6.5347009 -5.793786 -0.69110459
0.45609862 0.79904848 -0.97661352
6.0494752 -5.2515564 -0.40714628
0.51119673 0.7405265 -0.95020986
5.8267241 -4.9966664 -0.16185655
0.70742023 0.52462232 -1.000252
14.05372 -13.920005 0.21741685
0.93792307 0.27130336 -1.0532302
6.2931252 -5.478066 0.3303723
1.0236483 0.17986281 -1.0196153
1.2120564 -0.025304664 -1.0265507
7.3733582 -6.6195636 0.96052915
1.3905072 -0.21872176 -1.0156739
1.7078602 -0.56521481 -1.0448778
1.6270149 -0.47077319 -0.91870582
7.3909345 -6.5934601 1.8299249
1.634573 -0.47413051 -0.82526851
7.4122152 -6.6011729 2.1264422
1.6352141 -0.46993917 -0.73124737
1.6356444 -0.46556097 -0.63807184
6.2115245 -5.2857699 2.322732
0.1137061 1.1654005 -0.95185202
1.6301873 -0.471762 -0.54508615
0.19688886 1.0737 -0.96603817
1.1730494 0.036612861 -0.38200104
0.29659122 0.9636023 -0.98661888
1.5564904 -0.38118872 -0.35309777
0.37360549 0.87951571 -0.98409694
0.47217613 0.77142698 -0.98983884
5.8179927 -5.0434713 -0.3953419
0.55196482 0.68480885 -0.97766435
5.8169017 -5.0300865 -0.16101408
0.68702823 0.53639138 -0.9915331
0.90658998 0.29378706 -1.0397131
6.310184 -5.5437865 0.33360142
0.99435341 0.19945514 -1.008198
5.9981537 -5.1909566 0.55698293
1.2535477 -0.086050458 -1.0479802
7.2789469 -6.5709181 0.9536491
1.438237 -0.28749543 -1.0380068
6.0460477 -5.2178707 1.0464258
1.6187508 -0.48367369 -1.0145186
6.0440178 -5.2030473 1.2887834
1.6094556 -0.46834415 -0.91523921
1.615622 -0.47022504 -0.82172883
1.617527 -0.46745396 -0.72841871
1.6271966 -0.47330993 -0.63766921
6.1777129 -5.2955999 2.3203263
0.10783189 1.164795 -0.94976723
1.6256886 -0.4839164 -0.54544681
0.21180271 1.048821 -0.98052758
1.162055 0.034664594 -0.38104492
0.28531486 0.96791911 -0.98116887
1.5469129 -0.38722244 -0.35254496
0.38241258 0.86048681 -0.99305683
6.2395601 -5.565846 -0.66757703
0.43707454 0.80156279 -0.9698438
0.56048965 0.66497391 -0.98565584
0.67292178 0.54125661 -0.98634177
0.82405001 0.37433949 -0.99910927
6.0051441 -5.2565951 0.31998026
1.0447955 0.12960194 -1.0356554
5.9728131 -5.2086563 0.557823
1.2080605 -0.049730666 -1.0304569
7.2481098 -6.5909429 0.95442975
1.4855826 -0.35657689 -1.0603243
6.0313029 -5.2474594 1.0487653
1.5986679 -0.47834873 -1.0097723
5.9662509 -5.1639037 1.2793773
1.5984368 -0.47310951 -0.91396528
1.600642 -0.4706133 -0.81936914
1.6090848 -0.47515044 -0.72801858
1.6121142 -0.47368285 -0.63576549
7.3895965 -6.6541519 2.7311735
0.098299578 1.1679997 -0.94479883
1.6153474 -0.49061024 -0.54476738
0.19716099 1.0571371 -0.97208148
1.1493309 0.03387057 -0.37986344
0.27619734 0.96936178 -0.97746074
1.5288451 -0.38476443 -0.35100055
0.35973436 0.87673342 -0.98033333
6.2252793 -5.6003499 -0.66732067
0.4539572 0.77224278 -0.98384398
0.60655576 0.60159481 -1.0168124
5.5194983 -4.7923412 -0.15465827
0.67213899 0.53044522 -0.98889089
7.1642075 -6.5997458 0.10194098
0.86647969 0.31344524 -1.02458
5.9742866 -5.2710714 0.32076514
1.0327454 0.12895149 -1.0328574
5.9796295 -5.2644472 0.56165028
1.2004821 -0.056597065 -1.0301003
7.2263722 -6.6240897 0.95658922
1.517988 -0.41051561 -1.0768001
1.58201 -0.47772852 -1.0064564
5.9515972 -5.1959157 1.2823012
1.5830262 -0.47390485 -0.91135699
7.3027983 -6.6631045 1.8326427
1.5890994 -0.47577986 -0.81816453
7.3305292 -6.678299 2.1307285
1.5988138 -0.48180073 -0.72724998
1.6097322 -0.48918363 -0.63684297
0.1034125 1.156068 -0.95136672
1.6162364 -0.50583076 -0.54596072
0.20328148 1.0435131 -0.97926414
1.1382649 0.034610156 -0.37876183
0.27160892 0.96764785 -0.97642535
1.5114243 -0.37899676 -0.34938943
0.35371169 0.87620085 -0.97849715
6.2230911 -5.6372561 -0.66790074
0.48508662 0.72858614 -1.006585
5.4326186 -4.7426524 -0.3758055
0.60103238 0.59911472 -1.0158626
5.500577 -4.8067007 -0.15381132
0.64546472 0.55175906 -0.97599965
7.1568847 -6.6359572 0.10324445
0.88636994 0.28055057 -1.0375557
5.9768796 -5.3117847 0.32278219
1.0109649 0.14261557 -1.0245852
6.0089631 -5.3347707 0.56675518
1.1464581 -0.0072605503 -1.0080779
1.4563501 -0.35439512 -1.0538095
1.5712125 -0.47961995 -1.0046835
5.9381809 -5.2186832 1.2842051
1.5786684 -0.48308563 -0.91190636
1.5886459 -0.48938924 -0.81979591
1.5918269 -0.48809505 -0.72692227
36.026867 -38.186947 10.987526
1.6106024 -0.50436896 -0.63831502
36.122093 -38.221954 12.350132
0.11012761 1.1408707 -0.95981836
1.616864 -0.52391636 -0.54733628
0.20748638 1.0305748 -0.98549682
1.1259856 0.034288708 -0.37760529
0.27569273 0.95440584 -0.9823575
1.4912751 -0.37296122 -0.34755343
0.34929556 0.87224382 -0.97829145
6.2444382 -5.7092881 -0.67069107
0.4862552 0.71729994 -1.0103099
5.4114432 -4.7616262 -0.37481758
0.58606708 0.60562968 -1.0096384
5.5537658 -4.9094129 -0.15404455
0.68432766 0.49610642 -1.0011023
0.89136261 0.26221135 -1.043211
5.9605856 -5.3398085 0.32420942
1.0369244 0.099457003 -1.0403045
5.9805551 -5.3495016 0.56736112
1.0902066 0.042683717 -0.9854399
7.3476992 -6.8580627 0.97989672
1.3643575 -0.26586297 -1.0186437
1.5717444 -0.49738678 -1.007666
7.3963084 -6.88168 1.5711403
1.5779457 -0.49945801 -0.91413367
35.682266 -38.186016 8.3287716
1.5879335 -0.50582701 -0.82174742
35.777756 -38.224148 9.648737
1.5911493 -0.50457424 -0.72860014
35.886375 -38.276016 10.987705
1.6033497 -0.51352358 -0.6382153
35.98267 -38.312862 12.350124
0.12246808 1.1189494 -0.9730565
1.6200268 -0.54501194 -0.54921633
0.1942748 1.0378486 -0.97798371
1.1150334 0.032524828 -0.37665784
0.26916489 0.95340693 -0.98041356
1.4817381 -0.37878829 -0.34701097
0.33419436 0.88070452 -0.97058892
0.47897124 0.71573198 -1.008504
5.3875499 -4.7775588 -0.37369597
0.57842636 0.60379076 -1.0079027
5.7338386 -5.1561065 -0.15634866
0.71063077 0.45436209 -1.0191507
14.077449 -14.529346 0.23676656
0.88389486 0.25808769 -1.0422615
14.377698 -14.83918 0.77831501
1.0139933 0.11215265 -1.0319829
5.9919863 -5.4088459 0.57149428
1.1537542 -0.044427875 -1.017143
7.3306575 -6.8945951 0.98249429
1.3933156 -0.31499457 -1.0335625
14.319826 -14.690478 2.3827357
1.5721898 -0.51518667 -1.0106456
5.9374537 -5.3097706 1.2950563
1.5771446 -0.51585364 -0.9163596
35.540737 -38.272388 8.3298759
1.5781007 -0.51196218 -0.8209601
35.62278 -38.296265 9.6456852
1.5916903 -0.52255911 -0.73062241
35.733799 -38.351543 10.984312
4.1115575 -3.3848281 -1.2157068
35.822098 -38.380154 12.343056
0.12467721 1.1091797 -0.97768271
13.10356 -13.679275 -2.7759156
0.16059144 1.0697521 -0.9539935
1.1018817 0.034161855 -0.37531796
0.26172236 0.95402181 -0.97760761
1.4713609 -0.38265413 -0.34633183
0.32768664 0.87979788 -0.96873385
0.46002337 0.72839832 -0.99881232
5.5564933 -5.0097518 -0.38249287
0.57351542 0.59944052 -1.0076758
5.6187716 -5.0683479 -0.1538416
0.71751326 0.43545312 -1.025943
14.10959 -14.661175 0.24045949
0.82994926 0.30865729 -1.0162528
14.387717 -14.947785 0.78368956
0.97910905 0.13971259 -1.0175257
6.0190845 -5.4835258 0.57686704
1.2197623 -0.13444848 -1.0499913
13.872952 -14.312014 1.8000035
1.4464948 -0.391601 -1.0585008
14.540125 -15.034679 2.4277258
1.6341412 -0.60292381 -1.0367756
5.9025187 -5.3142171 1.293491
1.572938 -0.52740264 -0.91729861
35.39307 -38.337166 8.327589
35.481525 -38.368767 9.6440105
35.583168 -38.414257 10.978989
35.677822 -38.450569 12.338707
0.13228928 1.092489 -0.98708409
13.009337 -13.667082 -2.7646351
0.17398398 1.0460166 -0.96755648
1.0922642 0.030994868 -0.37458283
0.25520909 0.95307857 -0.97566688
1.4473832 -0.37189332 -0.34402439
0.32092381 0.87868762 -0.9668662
5.4835906 -4.9828525 -0.6075114
0.43372059 0.74930084 -0.98437434
5.6319814 -5.1403666 -0.38650051
0.56466854 0.5990653 -1.0051941
5.5187778 -4.999177 -0.15156251
0.69962847 0.44464564 -1.018644
0.81771237 0.31045941 -1.0126746
12.998405 -13.473392 0.71338385
0.99358267 0.10935973 -1.0276909
5.9823689 -5.4892559 0.57676482
1.2098579 -0.13806121 -1.0485083
35.017735 -38.29269 5.716259
1.7179265 -0.71794927 -1.0715314
5.8912411 -5.3479357 1.2968656
35.239464 -38.40921 8.3259125
35.325096 -38.438271 9.6405544
3.2310643 -2.4466767 -1.1726631
35.436932 -38.495998 10.977516
4.1212716 -3.4633079 -1.2240645
35.524872 -38.525475 12.334223
0.12490392 1.0930248 -0.98403084
12.907323 -13.650905 -2.7522349
0.19502947 1.0124627 -0.9875136
1.0744169 0.036523446 -0.37258971
0.22177809 0.9835704 -0.95360869
1.4321523 -0.37197772 -0.342825
0.31742668 0.87321043 -0.96748602
5.4918709 -5.0392895 -0.60918909
0.36452094 0.82058364 -0.94150609
5.6096215 -5.1625962 -0.38548818
0.5843311 0.56450337 -1.0206231
5.5047069 -5.0300999 -0.15064913
0.69966346 0.43223771 -1.0218865
13.399992 -14.059996 0.23347753
0.80636549 0.3105644 -1.0097418
12.919412 -13.484089 0.71408314
1.005028 0.081448831 -1.036602
5.9403386 -5.4915457 0.57636356
1.17959 -0.11870831 -1.037867
13.921258 -14.574616 1.8236746
1.3644061 -0.33016226 -1.0303613
34.863953 -38.377018 5.718122
1.4946918 -0.47738296 -0.9897294
34.957382 -38.41692 7.0073104
1.5793912 -0.5710817 -0.92477751
35.078453 -38.487064 8.3245411
1.5728278 -0.55841154 -0.82602793
35.17564 -38.529827 9.6412373
1.5851076 -0.56772208 -0.73460901
35.270237 -38.568901 10.972406
1.5959902 -0.57541722 -0.64291036
35.360661 -38.601795 12.328718
0.11932386 1.0928251 -0.98196578
0.17322597 1.031196 -0.9727031
1.0656471 0.034166172 -0.37189686
0.20544125 0.99558109 -0.94382906
1.4209981 -0.37375385 -0.34201518
0.30766973 0.8767733 -0.96314788
5.473753 -5.0577044 -0.60842162
0.34863555 0.83111674 -0.93342882
14.039277 -14.93894 -0.81973469
0.5724445 0.56891549 -1.0159302
5.3699422 -4.9140682 -0.14791875
0.64504766 0.48645884 -0.99282068
0.78634822 0.32317853 -1.0015858
12.885575 -13.529424 0.71640801
0.99044132 0.08641196 -1.0320238
5.903832 -5.4915538 0.57588381
1.1793067 -0.13165902 -1.0404283
1.4199126 -0.40974522 -1.0563492
14.292163 -15.061468 2.4195275
1.552768 -0.56065059 -1.0144166
34.816929 -38.473419 7.0057621
1.5602865 -0.5644176 -0.9205035
34.942928 -38.549946 8.3230705
1.5613298 -0.5606153 -0.82450914
35.036018 -38.588699 9.6377697
1.5697055 -0.56545424 -0.73219097
35.140816 -38.639923 10.971016
1.579232 -0.57164896 -0.64046717
35.228462 -38.670269 12.325731
0.11689595 1.088402 -0.98276258
0.16153595 1.0375386 -0.96612734
1.0499945 0.039036028 -0.37015483
0.2488685 0.93563753 -0.97948706
1.4015784 -0.36683232 -0.34022447
0.30001312 0.8773613 -0.960464
5.4451604 -5.0666013 -0.6068027
0.43403476 0.72034371 -0.99321723
0.50779212 0.6356433 -0.97838527
5.286809 -4.8590636 -0.14599778
0.68559408 0.42746642 -1.0193037
13.603504 -14.47649 0.24332768
0.8013314 0.29369789 -1.0125347
0.96935922 0.098365679 -1.0243543
5.884294 -5.5137448 0.57712102
1.1624429 -0.12597345 -1.0355464
13.925422 -14.766269 1.8400911
1.2874742 -0.26918861 -1.0034039
1.5358145 -0.55735379 -1.0106817
34.677048 -38.544651 7.0060644
1.5445156 -0.56257826 -0.91751915
13.976525 -14.741428 3.4520974
1.5467823 -0.56023574 -0.8221885
34.881298 -38.644428 9.6325054
1.5538197 -0.56356919 -0.72975302
34.989807 -38.70063 10.96558
1.576122 -0.58480054 -0.64129019
35.078606 -38.732887 12.319519
0.11870436 1.0783753 -0.9873752
1.5742037 -0.59554207 -0.54790682
0.14285618 1.0519578 -0.95405239
1.0404267 0.03605336 -0.36942875
0.24807668 0.92783725 -0.98191875
1.3843265 -0.36326802 -0.33873698
0.29211083 0.87775975 -0.95777035
5.4425178 -5.1083875 -0.60751069
0.4103429 0.73874462 -0.98037344
13.83808 -14.906614 -0.8100177
0.52049488 0.60985935 -0.98934835
5.2704663 -4.8836765 -0.14511319
0.68105489 0.4210912 -1.0197501
13.514279 -14.474111 0.24479344
0.80852932 0.27249187 -1.019509
12.940697 -13.780163 0.72874922
0.96264273 0.092587106 -1.0240524
5.8333306 -5.5022812 0.57568371
1.1501312 -0.12645245 -1.0329323
14.116344 -15.091059 1.873175
1.3890257 -0.40581313 -1.0493214
14.428645 -15.424392 2.4628317
1.5233967 -0.56035513 -1.0088495
34.528538 -38.62009 7.0064073
1.5307841 -0.56409311 -0.91538638
13.985989 -14.855852 3.4686944
1.5342824 -0.56322712 -0.82062823
14.875908 -15.852532 4.2507515
1.5400021 -0.56506246 -0.72798413
34.845638 -38.783257 10.964806
1.5583642 -0.58181822 -0.63880527
34.920128 -38.79974 12.313169
0.11734506 1.0725902 -0.9891274
1.5658796 -0.60266382 -0.5475359
0.15614218 1.0282255 -0.96761549
1.0261257 0.039527964 -0.36789888
0.24520972 0.92301852 -0.98261338
1.3753312 -0.36833832 -0.3382332
0.27752712 0.88682491 -0.95010078
5.4190173 -5.1232362 -0.60635149
0.35657105 0.79431194 -0.94703805
0.57010174 0.53997648 -1.0234474
5.273458 -4.928483 -0.14457226
0.64571071 0.45245352 -1.0019383
13.669658 -14.751739 0.25100684
0.80269361 0.2675001 -1.019249
13.446113 -14.46301 0.76160365
0.95508683 0.088628307 -1.0231551
5.7903695 -5.4969945 0.57476801
1.1345785 -0.12209957 -1.0286283
14.190493 -15.276811 1.8911065
1.3503337 -0.37542963 -1.0358372
1.489037 -0.53609669 -0.99839091
34.387108 -38.688824 7.0064063
1.5288749 -0.57856733 -0.9171983
13.852106 -14.79869 3.450789
1.5286093 -0.5732407 -0.82104218
14.792141 -15.859398 4.2443032
1.5368645 -0.57811588 -0.72899425
34.697021 -38.84589 10.960114
1.5488145 -0.58738279 -0.63813752
34.767551 -38.858364 12.306025
0.12106357 1.0596154 -0.99564141
1.5615931 -0.61672467 -0.54812628
0.16320318 1.0108893 -0.976578
1.0174446 0.034758173 -0.36736459
0.22243088 0.94143081 -0.96843863
1.3602188 -0.36810157 -0.33705011
0.26826224 0.8884961 -0.94656885
5.4031572 -5.1524429 -0.6059826
0.41002682 0.71915555 -0.98625296
15.257109 -16.793709 -0.88395816
0.55965382 0.54083556 -1.0202087
5.8591905 -5.666883 -0.15306456
0.63851416 0.44879183 -1.0009695
13.624737 -14.808307 0.25358739
0.80694586 0.24880993 -1.0248836
0.949157 0.08108867 -1.0234525
5.7757788 -5.5303674 0.5768292
1.1255486 -0.1272611 -1.0277119
14.23804 -15.445667 1.9068593
1.3084106 -0.34268516 -1.0212694
1.5060253 -0.57516527 -1.0080771
34.228535 -38.766403 7.0065045
1.525872 -0.59393233 -0.91896474
1.5281639 -0.59164435 -0.82335865
14.722516 -15.895332 4.2437296
1.5376995 -0.59809351 -0.73133421
34.528625 -38.914455 10.954462
1.5458405 -0.60289109 -0.63921452
34.616871 -38.948101 12.305248
0.11608674 1.0577102 -0.99451476
1.5577717 -0.63034362 -0.54874015
0.15357587 1.0143944 -0.97182703
1.0027826 0.03799504 -0.36582237
0.2238896 0.9308877 -0.97261804
1.3404918 -0.36128011 -0.33525363
0.26963019 0.87774575 -0.9505319
0.43773115 0.67519742 -1.0081154
14.233061 -15.69109 -0.83152455
0.5507198 0.54057395 -1.0177339
5.8197799 -5.6687627 -0.15176788
0.67680126 0.39044371 -1.0267075
13.162367 -14.363815 0.24731155
0.80427349 0.23913534 -1.0265819
13.318134 -14.521709 0.76479256
0.95691234 0.057743099 -1.0305287
5.7482548 -5.5457826 0.57751411
1.1303658 -0.14828627 -1.033088
13.809844 -15.048167 1.860873
1.3003838 -0.34946805 -1.0209162
1.5059772 -0.5929985 -1.0110533
34.079601 -38.840324 7.0067744
1.5245638 -0.61037117 -0.92118746
13.708607 -14.845181 3.4466584
1.5281451 -0.60963738 -0.82569593
34.275318 -38.936024 9.6240368
1.5389564 -0.61766618 -0.73369467
34.376339 -38.986668 10.951237
1.5395186 -0.61341083 -0.63941985
34.464432 -39.020741 12.301014
0.11023384 1.0573806 -0.99244326
1.5569553 -0.64657617 -0.54987967
0.15651573 1.002929 -0.97714907
0.99365747 0.035526633 -0.36512277
0.22781618 0.91773832 -0.97855449
1.3225837 -0.35549495 -0.33364224
0.26318163 0.8770799 -0.94868726
14.31523 -15.921132 -1.3919529
0.44113836 0.66125703 -1.0134265
0.53977007 0.54349369 -1.013783
13.988655 -15.473068 -0.2772156
0.67129558 0.38581896 -1.0264661
12.960017 -14.217773 0.24610904
0.8174777 0.21076626 -1.0368562
13.173068 -14.445198 0.76129878
0.9456538 0.058226857 -1.0277884
5.7156734 -5.5522966 0.57753539
1.1330881 -0.16602832 -1.0373402
13.917495 -15.275296 1.8833115
1.2805552 -0.34092319 -1.0153334
14.683379 -16.154789 2.549289
1.4989579 -0.60143077 -1.0111729
14.305456 -15.677946 3.0415146
13.75572 -14.99922 3.4716561
13.439113 -14.59761 3.9244673
2.9841845 -2.3807163 -1.1308671
34.235149 -39.056641 10.948839
34.314156 -39.080727 12.294682
0.097788803 1.0652949 -0.9846378
12.195111 -13.546352 -2.6672909
0.15271406 0.99975371 -0.97698325
0.98073 0.037688285 -0.36380929
0.23168039 0.90455592 -0.98448688
1.3098128 -0.355773 -0.33267108
0.24988145 0.88493091 -0.94185883
14.210683 -15.899195 -1.3850082
0.40401787 0.69730401 -0.99115187
14.139733 -15.784906 -0.82750309
0.52534187 0.55078602 -1.0075988
14.057731 -15.657698 -0.27686372
0.82100636 0.19402887 -1.0418582
13.068244 -14.415568 0.7600497
0.92839986 0.066133924 -1.0219809
5.6907883 -5.5678754 0.57826984
1.0557196 -0.085782915 -1.0039834
1.3011041 -0.38159135 -1.0270755
14.559591 -16.113083 2.5396564
1.484529 -0.60083365 -1.0084113
14.435693 -15.936086 3.0804782
1.9449983 -1.1570837 -1.0739329
13.849174 -15.209595 3.5079608
13.438022 -14.693434 3.9395406
34.09 -39.121712 10.94524
34.175159 -39.153603 12.29229
0.093935579 1.062095 -0.98447102
12.10535 -13.53321 -2.6567156
0.16088292 0.98110807 -0.98686367
0.96868235 0.038027901 -0.36268601
0.2205998 0.90938681 -0.97906345
1.29531 -0.35485896 -0.33152264
0.25004178 0.875606 -0.94499058
14.101917 -15.877916 -1.3778367
0.38640189 0.70895571 -0.98226881
14.074403 -15.815762 -0.82457322
0.51647085 0.55065691 -1.0051308
13.809104 -15.466433 -0.27156657
0.5834465 0.47105724 -0.98034823
13.091182 -14.571773 0.25514635
0.80507696 0.20043898 -1.0363154
12.991395 -14.424823 0.76067275
0.88564587 0.10485024 -1.0032665
5.670857 -5.5922165 0.57966083
1.1209307 -0.18114261 -1.0378448
13.477017 -14.954799 1.8436021
1.3027015 -0.40033308 -1.0309203
1.4696074 -0.60060745 -1.0056307
13.750214 -15.226737 2.9544246
2.1085246 -1.3790703 -1.1347561
13.863591 -15.3338 3.526428
13.375313 -14.72248 3.9386094
2.9992886 -2.4553161 -1.1413478
33.936146 -39.190807 10.941538
34.021172 -39.223179 12.28755
0.085930735 1.0645988 -0.98049241
12.02982 -13.531232 -2.6485369
0.15591362 0.97931176 -0.9857834
0.95706362 0.038754132 -0.36158237
0.21317261 0.91025496 -0.97627026
1.2800472 -0.35194674 -0.33023947
0.24247381 0.87643528 -0.94231963
13.996583 -15.853526 -1.3708255
0.40818432 0.67211682 -1.00019
0.51721197 0.53923553 -1.0086364
13.533043 -15.232726 -0.26598856
0.6531831 0.37321132 -1.0250295
13.078058 -14.652637 0.25793695
0.71383029 0.30143932 -0.98869818
12.939178 -14.457567 0.76241064
0.89724845 0.077406324 -1.0122014
5.6509614 -5.6138158 0.58086908
1.0909562 -0.15865414 -1.0267187
13.409204 -14.972028 1.8432033
1.2767918 -0.38418558 -1.0227195
13.557144 -15.122949 2.3941104
1.4625511 -0.60894918 -1.0057546
2.1276033 -1.4240761 -1.1447316
13.727592 -15.271791 3.5078199
2.4008534 -1.7541401 -1.1091013
13.377324 -14.822949 3.9547436
3.0505137 -2.5458856 -1.1586062
33.794586 -39.25938 10.939079
33.879433 -39.292137 12.284237
0.087286793 1.0543486 -0.98509336
11.933901 -13.514977 -2.6371286
0.15376952 0.97294968 -0.98742402
0.9458977 0.037312888 -0.3606512
0.21753918 0.89521676 -0.98305291
1.2563131 -0.34047347 -0.32796785
0.2423162 0.86689276 -0.94544077
13.892735 -15.843166 -1.3642374
0.4051584 0.6648789 -1.0015366
13.893032 -15.814883 -0.81613004
0.50917053 0.53743845 -1.006902
13.273867 -15.028889 -0.26054716
0.65277332 0.36076221 -1.0282691
13.275245 -15.003036 0.26572531
0.79105741 0.1913476 -1.0351063
0.8781749 0.086377338 -1.0057582
13.14949 -14.795358 1.2971272
1.0326667 -0.1023248 -1.0024707
13.451783 -15.135598 1.8584223
1.2319078 -0.34611928 -1.0066209
1.4556475 -0.61963707 -1.0063117
13.929802 -15.659381 3.0175803
1.4812217 -0.64635098 -0.91930819
13.784812 -15.454945 3.5377312
2.4458508 -1.836495 -1.1268035
13.400404 -14.961908 3.9788818
2.9991944 -2.5140872 -1.1480039
33.633198 -39.333527 10.935631
3.870646 -3.5824084 -1.2042664
33.716583 -39.365234 12.279316
0.081460707 1.0541307 -0.98302746
11.844948 -13.495351 -2.6262262
0.13889454 0.98377144 -0.97812194
0.93556273 0.036585167 -0.35975707
0.20787126 0.89894211 -0.97851723
1.2423997 -0.33895907 -0.32685074
0.24601679 0.85347611 -0.95107341
13.829366 -15.869073 -1.3609545
0.33772931 0.74034905 -0.95802349
13.891365 -15.91683 -0.81650823
0.51098502 0.52454764 -1.0111519
13.310979 -15.174108 -0.25975338
0.59714228 0.41930944 -0.99787295
0.7720722 0.20267338 -1.0276166
13.194884 -14.976584 0.78765565
0.91093433 0.032036871 -1.0257286
13.01286 -14.726471 1.2907406
1.0903208 -0.18890011 -1.0329072
13.14386 -14.859533 1.8262374
1.2195237 -0.346257 -1.0042017
12.909111 -14.545785 2.3066075
1.4448936 -0.62339896 -1.0049986
13.798408 -15.602776 3.0031426
13.591362 -15.32197 3.5050211
2.4390509 -1.8521676 -1.1278576
13.411402 -15.07491 3.9978459
3.0559595 -2.6127181 -1.1669554
33.496391 -39.407181 10.934717
33.577095 -39.436207 12.276834
0.072401278 1.0580938 -0.97809815
11.761175 -13.481543 -2.6163487
0.14270568 0.97083092 -0.98435271
0.92274821 0.039000444 -0.35845613
0.19490476 0.90696275 -0.97136736
1.2247646 -0.33272499 -0.32526222
0.25639111 0.83143741 -0.96168464
13.809839 -15.949189 -1.3615834
0.27185827 0.81473726 -0.9153173
13.876705 -16.003353 -0.81622916
0.47485414 0.55976862 -0.99083501
13.339847 -15.310349 -0.25882897
0.63578624 0.35901639 -1.0242862
13.592994 -15.595237 0.27913699
0.74965107 0.21853524 -1.0181599
0.86780757 0.073038056 -1.0064431
12.950985 -14.74838 1.2914488
1.0665247 -0.17364013 -1.0246409
12.964595 -14.738046 1.8108814
1.2143583 -0.35541528 -1.0049286
12.749665 -14.447227 2.2896163
1.437763 -0.63168055 -1.0051234
13.827919 -15.742241 3.0219133
1.8925965 -1.1975693 -1.0713029
13.541365 -15.362518 3.5071416
2.3930321 -1.8187598 -1.1164924
13.415638 -15.180471 4.0150676
3.0666962 -2.6547527 -1.1732168
13.78845 -15.606887 4.6763954
3.656987 -3.3839712 -1.1595405
33.438763 -39.508266 12.274776
0.06229296 1.0634872 -0.97221577
11.67758 -13.46739 -2.6064832
0.14427304 0.96066809 -0.98875648
0.91120279 0.039914738 -0.35736242
0.18420118 0.91220266 -0.96596432
1.2121608 -0.33264303 -0.3243092
0.26441646 0.81219912 -0.97063333
13.79871 -16.040258 -1.3629872
0.34449098 0.71271765 -0.96865886
13.85918 -16.08683 -0.81581593
0.49956378 0.51769847 -1.0099732
13.909255 -16.120319 -0.26587477
0.63828272 0.34418821 -1.0289582
13.071227 -15.050062 0.27063286
0.69349056 0.27758521 -0.9896549
12.533002 -14.355172 0.75818628
0.90026188 0.018510293 -1.0264034
12.805071 -14.666002 1.284041
1.0546961 -0.17332508 -1.0220674
13.133253 -15.04495 1.8419098
1.221122 -0.37971583 -1.0108937
1.4257898 -0.63385409 -1.003334
13.835529 -15.855835 3.0362849
1.7687004 -1.0617195 -1.0301191
13.744249 -15.714321 3.5714064
2.353323 -1.7928119 -1.1070788
13.291404 -15.128914 3.9960449
3.0159271 -2.6197495 -1.1623569
13.726343 -15.6343 4.6749697
4.295063 -4.2186065 -1.3163006
33.289139 -39.56625 12.2687
0.05651354 1.0633576 -0.97015405
11.597846 -13.457566 -2.597388
0.1316527 0.96879154 -0.98128539
0.90462559 0.034640327 -0.35708642
0.18675403 0.90040833 -0.9710241
1.2032976 -0.33719403 -0.3238318
0.24446987 0.82885659 -0.95883453
13.784685 -16.128283 -1.3641634
0.33987692 0.70901835 -0.96846616
13.805134 -16.125042 -0.81352359
0.50467283 0.50038183 -1.0164531
13.901226 -16.216473 -0.26434511
0.63264781 0.33967018 -1.0287218
12.952455 -15.00174 0.27108786
0.74464023 0.19996409 -1.0215966
12.403584 -14.28988 0.75521666
0.88667786 0.022259552 -1.022452
12.689712 -14.620326 1.2795062
1.0452492 -0.17598391 -1.0206326
12.864454 -14.810887 1.8144333
1.108572 -0.25224796 -0.96449697
12.846831 -14.762044 2.3265626
1.368206 -0.5779798 -0.98335809
13.675777 -15.762802 3.0158181
1.6008768 -0.86845857 -0.9729321
2.2882588 -1.7343305 -1.0895315
13.23319 -15.157918 3.9956596
3.0570118 -2.7004619 -1.177169
13.549417 -15.519911 4.6365466
3.9477439 -3.8176641 -1.2361196
33.150558 -39.63736 12.2666
0.056927767 1.0546988 -0.97381061
11.508156 -13.440232 -2.5866957
0.11667689 0.97960562 -0.971982
0.88776028 0.041552342 -0.35516438
0.18240944 0.89694542 -0.97084332
1.171695 -0.31394178 -0.32050058
0.23880003 0.82666463 -0.95781529
13.770784 -16.223619 -1.3655354
0.32035553 0.72402275 -0.95803207
13.801181 -16.232996 -0.81387794
0.49801213 0.49744651 -1.0154791
13.803709 -16.207245 -0.26142454
0.62435329 0.33784911 -1.0270704
13.597873 -15.919377 0.28928345
0.70347112 0.23961735 -1.0016285
12.286674 -14.245055 0.75323808
0.86571157 0.034760185 -1.0148094
12.65393 -14.679479 1.2830797
1.0353622 -0.1789607 -1.0191815
12.803137 -14.83937 1.8152332
1.1661203 -0.34213689 -0.99296021
13.370849 -15.521728 2.4278696
1.4013321 -0.63848776 -0.99974155
13.575521 -15.748889 3.0084572
1.6093397 -0.89916319 -0.97903126
13.583016 -15.729342 3.5620282
2.2991207 -1.7733457 -1.0963886
13.242164 -15.276642 4.0154757
3.0967891 -2.7821507 -1.1919302
13.528735 -15.604083 4.6495404
32.988468 -39.694237 12.25902
0.051747035 1.0528369 -0.97268552
11.424503 -13.435621 -2.5776577
0.11448282 0.97332901 -0.97362751
0.87668192 0.040391304 -0.35424712
0.17998344 0.89043158 -0.97239423
1.1594827 -0.31598487 -0.31967551
0.23839101 0.81705457 -0.96093196
13.653179 -16.1945 -1.357803
0.32303312 0.70972461 -0.96332479
13.918387 -16.502281 -0.82058328
0.48649451 0.50016439 -1.0115163
0.62370867 0.3253904 -1.0303084
12.675987 -14.871478 0.27157068
0.703722 0.22535725 -1.0052904
12.359487 -14.44488 0.76301229
0.8607251 0.025953935 -1.0157312
12.648392 -14.783185 1.2900562
1.0085983 -0.16102393 -1.0097606
4.0070753 -3.8728614 0.63102555
1.1682646 -0.36260071 -0.99731684
12.885887 -15.028152 2.3560476
1.3740337 -0.62295294 -0.99217504
13.564929 -15.853393 3.0207427
1.7501428 -1.1014695 -1.0331759
13.617891 -15.890798 3.5874205
2.3090506 -1.8130344 -1.1032096
13.881509 -16.191656 4.2173209
2.8854561 -2.5448203 -1.1362426
13.521609 -15.712229 4.6682405
3.9611752 -3.9130921 -1.2469797
32.828663 -39.768627 12.25526
0.049374852 1.048732 -0.97349775
11.345554 -13.419479 -2.5682271
0.13020448 0.94494331 -0.98990637
0.86684698 0.040243942 -0.35338297
0.17176658 0.89312607 -0.96875036
1.1351972 -0.29957786 -0.3171826
0.24316172 0.80228168 -0.96739841
13.917212 -16.632191 -1.3838654
0.28746361 0.74724424 -0.94112504
13.479362 -16.043949 -0.79828149
0.48725811 0.48895118 -1.0150341
13.509975 -16.054434 -0.25430745
0.61154246 0.33011687 -1.0258868
12.669027 -14.955859 0.27433777
0.70502692 0.21195792 -1.0089978
12.248502 -14.394898 0.76076478
0.85576987 0.019629005 -1.0160912
0.98561311 -0.1449524 -1.0015355
1.1729171 -0.3835049 -1.0022522
12.181203 -14.231535 2.2433708
1.3294125 -0.58146536 -0.97703141
13.062209 -15.289497 3.4626665
2.2644777 -1.7782058 -1.0919179
13.219854 -15.459831 4.0430198
2.8992116 -2.5891695 -1.1432278
13.505294 -15.789928 4.6805758
3.7177391 -3.6339922 -1.1909972
32.698444 -39.833889 12.253229
0.044183772 1.046901 -0.97237504
11.258571 -13.409447 -2.5584784
0.11610425 0.95424354 -0.98151028
0.85701114 0.037597626 -0.3526732
0.15737647 0.90243542 -0.96072185
1.1096108 -0.28415895 -0.31463808
0.23605534 0.80134135 -0.9655394
13.385747 -16.071865 -1.3389622
0.3023774 0.71688741 -0.95506918
13.926229 -16.737514 -0.82218075
0.37018043 0.63071209 -0.94119632
13.461839 -16.112427 -0.25206986
0.61537075 0.31170321 -1.0319258
12.544255 -14.908773 0.27491245
0.71774244 0.18112688 -1.019875
12.232525 -14.483558 0.7652033
0.84378725 0.019920021 -1.01334
12.557503 -14.872283 1.2950029
1.0010371 -0.18158336 -1.0125684
1.2171266 -0.45921361 -1.0254256
1.2149189 -0.45159775 -0.93411696
13.168105 -15.56745 2.963289
1.8944139 -1.3307664 -1.0920732
2.2203546 -1.7479566 -1.081323
13.38998 -15.79167 4.1109815
2.9691279 -2.7121196 -1.1668267
13.468044 -15.861393 4.6897254
3.7037661 -3.6549764 -1.1914079
0.046822559 1.0355926 -0.97794729
11.177243 -13.394785 -2.5489705
0.11109979 0.95260471 -0.98043698
0.84557098 0.038780455 -0.35159281
0.18356888 0.85895038 -0.98493987
1.0935962 -0.27893522 -0.31323564
0.23497324 0.79358214 -0.967848
0.29777446 0.71330577 -0.95488137
14.560568 -17.667387 -0.85583001
0.48284292 0.47137427 -1.019038
13.433438 -16.182673 -0.25029159
0.60964698 0.30724993 -1.0316933
0.65915143 0.24564922 -0.98945129
12.433093 -14.839023 0.78243876
0.84761095 0.0011828871 -1.018582
12.468579 -14.858005 1.2929476
0.99393386 -0.18710984 -1.0122784
1.1530921 -0.39163387 -1.0000174
12.010674 -14.218335 2.2349761
1.3248715 -0.61210734 -0.98157108
13.436433 -16.01438 3.0334785
1.9019003 -1.362053 -1.0981421
12.907256 -15.310163 3.4547172
2.2220092 -1.774018 -1.0851101
13.088181 -15.512677 4.04035
2.5460427 -2.1898751 -1.049906
12.987555 -15.356209 4.5507193
3.6183057 -3.5786123 -1.1738868
13.775764 -16.328314 5.3887372
0.04078215 1.0353651 -0.97587973
11.100588 -13.39134 -2.5408604
0.10691144 0.94936562 -0.98026711
0.83252907 0.041271519 -0.35029536
0.18233445 0.85116827 -0.98737061
1.0844429 -0.28349316 -0.31275719
0.23685315 0.78123099 -0.97263074
25.70056 -32.323151 -2.4568493
0.26088837 0.75219357 -0.93189132
14.460887 -17.661081 -0.85132205
0.47500306 0.47000536 -1.0173249
13.35145 -16.190456 -0.24767844
0.59341663 0.31601238 -1.0251471
12.515178 -15.078113 0.28069207
0.7176739 0.15477386 -1.0265776
14.209028 -17.24267 0.89809388
0.85092771 -0.017912576 -1.0238041
12.20941 -14.629421 1.2742401
0.95398599 -0.15012515 -0.9960832
3.9023213 -3.888875 0.629619
1.1938684 -0.46259454 -1.0216299
11.847581 -14.110691 2.2169824
1.2115815 -0.48121974 -0.93870944
13.554186 -16.279274 3.072804
1.7715495 -1.2135491 -1.0540229
12.90518 -15.416696 3.4697833
2.2762935 -1.8709458 -1.1062641
13.094957 -15.631866 4.0601926
12.932965 -15.395954 4.5524845
0.037070803 1.0325123 -0.97573018
11.020776 -13.377614 -2.5316362
0.099781647 0.95061797 -0.97737163
0.82233942 0.040966198 -0.34942234
0.18347654 0.84069222 -0.99155277
1.0600288 -0.26705191 -0.31026587
0.22808567 0.78367406 -0.96913862
0.27286342 0.72660613 -0.94349515
12.75318 -15.544778 -0.76287365
0.44417024 0.50016725 -1.0000255
0.58770281 0.31161931 -1.0249171
12.661077 -15.369533 0.28742534
