# .PCD v0.7 - Point Cloud Data file format
VERSION 0.7
FIELDS x y z
SIZE 4 4 4
TYPE F F F
COUNT 1 1 1
WIDTH 1468
HEIGHT 1
VIEWPOINT 0 0 0 1 0 0 0
POINTS 1468
DATA ascii
-2.9932773 3.9990454 -0.30481905
-2.2297728 3.3420861 -0.81273222
-2.9820156 3.9929645 -0.24294989
-2.275063 3.380439 -0.79447514
-2.9850817 3.9986444 -0.18243103
-2.3203781 3.4189501 -0.7735706
-2.9747038 3.9932365 -0.12170652
-2.3959467 3.4817421 -0.7661525
-2.9786806 3.9996402 -0.061736617
-2.4703598 3.5438337 -0.75385654
-2.9522746 3.9809592 -0.0016310406
-2.5332379 3.5969069 -0.73186064
-2.9633429 3.9932282 0.058472916
-2.64343 3.6881974 -0.72626042
-2.9533308 3.9880409 0.11773703
-2.7749441 3.797013 -0.72228277
-2.9422369 3.9819646 0.17698996
-3.0091815 3.989238 -0.74566478
-2.9423707 3.9852026 0.2370462
-3.0302517 4.009624 -0.6882512
-2.9277086 3.9761078 0.29494965
-3.0260456 4.0095496 -0.62297904
-2.921088 3.9737375 0.35450977
-1.3175776 2.6161642 -0.31686461
-3.0190074 4.0166821 -0.5588153
-3.0123975 4.0145388 -0.49449605
-3.0107188 4.0164022 -0.43192881
-2.1708798 3.2962639 -0.86646175
-2.9987376 4.0097966 -0.36767161
-2.1970155 3.3194079 -0.83883786
-2.9917002 4.0071874 -0.30551261
-2.2282956 3.3466916 -0.8137818
-2.9804709 4.0010843 -0.24354912
-2.2720742 3.384048 -0.79466283
-2.9850693 4.0080519 -0.18304534
-2.3172851 3.4226835 -0.77376473
-2.9747176 4.0026245 -0.12218035
-2.3854408 3.4798682 -0.76265329
-2.9817605 4.0115995 -0.062102087
-2.4581625 3.5409307 -0.74988687
-2.9538696 3.9915743 -0.0017906573
-2.5311246 3.6024232 -0.7327401
-2.9602985 4.0000386 0.058263153
-2.6425505 3.6952291 -0.72772068
-2.9487708 3.9935451 0.11745062
-2.7678223 3.7995996 -0.72141248
-2.9422898 3.9912715 0.17721809
-2.9760199 3.9717531 -0.73607296
-2.9424102 3.9945056 0.23741281
-3.0285311 4.0177917 -0.68949902
-2.9292846 3.9866405 0.29571986
-3.0258644 4.0189552 -0.62456644
-2.9196267 3.9816952 0.35484678
-3.0154939 4.0239668 -0.55951434
-3.0104246 4.0230641 -0.49548757
-3.0057082 4.0224147 -0.43224186
-2.1858048 3.314069 -0.87901735
-2.9968169 4.0183058 -0.36847639
-2.1967928 3.3252399 -0.84084648
-2.988271 4.0144143 -0.30602366
-2.2308345 3.3549013 -0.81744945
-2.9816706 4.012105 -0.24447624
-2.2646322 3.3844464 -0.79238164
-2.981657 4.0152683 -0.18346259
-2.3268733 3.437043 -0.7810269
-2.9697943 4.008533 -0.12248792
-2.3906398 3.49104 -0.76731664
-2.9783552 4.0188103 -0.06242587
-2.4472365 3.5394061 -0.74662542
-2.9520655 3.9999888 -0.0020320821
-2.5243647 3.6046305 -0.73167109
-2.9630694 4.0123229 0.058346856
-2.6414053 3.7025564 -0.72919661
-2.9500268 4.0045128 0.11764356
-2.7663863 3.8073192 -0.72281945
-2.9404943 3.9996545 0.17725694
-2.9606318 3.9691081 -0.73273677
-2.9436457 4.0054464 0.2379778
-3.0279884 4.0275502 -0.69124186
-2.9275014 3.9949749 0.29594517
-3.020817 4.025012 -0.62488192
-2.9148383 3.9874439 0.35454762
-1.3106253 2.6139548 -0.31268042
-3.0164919 4.0349979 -0.56136793
-3.0084219 4.0315924 -0.49647921
-3.0082915 4.0347352 -0.43402147
-2.1896665 3.3231525 -0.88396287
-2.9948606 4.0268154 -0.36928177
-2.1868443 3.3232517 -0.83648127
-2.986342 4.0229101 -0.3067354
-2.2305329 3.3608699 -0.81938022
-2.9828229 4.0231466 -0.24540429
-2.2614458 3.3882504 -0.79257953
-2.9828119 4.0263238 -0.18420427
-2.3263865 3.4433534 -0.78280288
-2.9725156 4.0208473 -0.12310436
-2.4001062 3.5057681 -0.77420664
-2.9718642 4.0234442 -0.06271863
-2.4290707 3.5319066 -0.73987097
-2.9502285 4.0084062 -0.0022737791
-2.5219967 3.6103995 -0.73256367
-2.9581442 4.0182009 0.05804095
-2.6328638 3.7038534 -0.72762263
-2.9481833 4.012928 0.11758748
-2.7604716 3.811389 -0.72252858
-2.9386663 4.0080371 0.17729552
-2.9318554 3.9553463 -0.72471005
-2.9418015 4.0138392 0.23810825
-3.0259061 4.0360832 -0.69250906
-2.9211543 3.9994614 0.2953819
-2.9765985 3.9987221 -0.61399937
-2.9160509 3.9983017 0.35548508
-3.0192494 4.0469508 -0.5635891
-3.0127389 4.0448184 -0.49881089
-3.0050418 4.0416551 -0.43460947
-2.1840892 3.3243105 -0.88223422
-2.9962146 4.037528 -0.37056404
-2.200604 3.340076 -0.84758514
-2.9877253 4.0336185 -0.30783188
-2.2275944 3.3643529 -0.81956178
-2.9765873 4.0274467 -0.24554001
-2.2626691 3.395273 -0.79524714
-2.9781048 4.031909 -0.18449497
-2.330348 3.4529233 -0.78692061
-2.9708869 4.0289817 -0.12351787
-2.406831 3.517962 -0.7796033
-2.9732926 4.0341616 -0.063070826
-2.4213212 3.5323772 -0.73798668
-2.9486508 4.0164838 -0.0024979317
-2.5198338 3.6158981 -0.73344165
-2.9611142 4.03018 0.058140527
-2.6333904 3.7120943 -0.72969294
-2.9481201 4.0222936 0.11767271
-2.7607265 3.820015 -0.7244851
-2.9370983 4.0160847 0.17735162
-2.9198287 3.9546313 -0.72238827
-2.9417288 4.0231814 0.23847269
-3.0285773 4.0479813 -0.69518614
-2.9211116 4.0087423 0.29588759
-2.9764159 4.0080295 -0.6155811
-2.914499 4.0062728 0.35582125
-1.314316 2.6200445 -0.31706655
-3.0174425 4.0551519 -0.56465584
-3.0049148 4.0479507 -0.49842608
-3.0032873 4.0498457 -0.4354912
-2.1826103 3.3287747 -0.88336128
-2.9944868 4.0457039 -0.37135172
-2.1853023 3.3333457 -0.83956391
-2.9784176 4.0353665 -0.3075189
-2.2260418 3.3689694 -0.82061201
-2.973393 4.0343003 -0.24598531
-2.2582314 3.397692 -0.79460591
-2.9794803 4.0426402 -0.18521981
-2.3300009 3.4590204 -0.78868568
-2.9692307 4.0371194 -0.1239316
-2.4048941 3.5231164 -0.78055221
-2.9670546 4.038424 -0.063344307
-2.4150243 3.534009 -0.73679841
-2.9516106 4.0284548 -0.0026300084
-2.5161958 3.6201885 -0.73366511
-2.9609919 4.0395937 0.058084194
-2.6265504 3.7142706 -0.7287125
-2.9495378 4.032969 0.11788076
-2.7565184 3.8249764 -0.72474343
-2.9385269 4.0267253 0.17774779
-2.9672008 4.0032563 -0.7409119
-2.9370892 4.0286522 0.23818778
-3.0192621 4.0499592 -0.69405472
-2.9225368 4.0193248 0.29665482
-2.9956825 4.0336261 -0.622769
-2.9174123 4.0181155 0.35708308
-1.308229 2.6167784 -0.31282741
-3.0137997 4.0624485 -0.56535584
-3.0013087 4.0552182 -0.49907851
-2.9966676 4.0545607 -0.43550926
-2.1795738 3.332335 -0.88354599
-2.9954576 4.0567994 -0.37265384
-2.1836367 3.3380449 -0.84066099
-2.979439 4.0464334 -0.3086338
-2.2256775 3.3749485 -0.8225432
-2.9698794 4.0414944 -0.24644834
-2.264837 3.4095855 -0.80059636
-2.9774704 4.0511508 -0.18574625
-2.3308463 3.4665332 -0.79124796
-2.9733322 4.0507956 -0.12461406
-2.3898535 3.517858 -0.77483606
-2.9726782 4.0534058 -0.063764349
-2.4099596 3.5370612 -0.73632127
-2.9481485 4.0355964 -0.0029036135
-2.5108643 3.6235292 -0.73324722
-2.9544716 4.0441618 0.057701621
-2.6267819 3.7228055 -0.73079813
-2.9415348 4.0362034 0.1173303
-2.749089 3.8277764 -0.72388458
-2.9365969 4.0351295 0.17778511
-2.9577434 4.0054226 -0.73965365
-2.9321439 4.0344501 0.2378857
-2.9739277 4.0222945 -0.68150347
-2.9236274 4.0302672 0.29740316
-3.0130193 4.0584364 -0.62954998
-2.9184909 4.0290322 0.35801733
-3.0071361 4.0672016 -0.56528336
-3.0036869 4.0675778 -0.5010913
-2.9990799 4.0669389 -0.43729228
-2.1751699 3.3347683 -0.88277853
-2.9888284 4.0614796 -0.37271661
-2.1888149 3.3484106 -0.84631485
-2.9789004 4.056231 -0.30954862
-2.2252882 3.3809309 -0.82447535
-2.9769452 4.0577545 -0.24800183
-2.262975 3.4145517 -0.80162221
-2.9754274 4.0596652 -0.18627271
-2.3245885 3.4681804 -0.78988636
-2.9697819 4.058002 -0.12498447
-2.3720057 3.5101418 -0.76763165
-2.9706478 4.0619178 -0.064104751
-2.4092028 3.5436969 -0.73793995
-2.9431469 4.0414257 -0.0032073504
-2.5098741 3.6304872 -0.73479331
-2.9524796 4.0526233 0.057550207
-2.6211398 3.7264545 -0.73044109
-2.9410789 4.0459304 0.11739659
-2.7475336 3.8354814 -0.72529018
-2.9301174 4.0396214 0.17731349
-2.9453366 4.0050564 -0.73735058
-2.9301846 4.0428414 0.23801586
-3.0119166 4.0645227 -0.69563657
-2.915694 4.0334239 0.29657948
-3.0153131 4.0707617 -0.63202119
-2.9135625 4.0347762 0.35771811
-3.0079315 4.0782938 -0.56714034
-3.0030115 4.0774117 -0.5024246
-2.9999316 4.0780602 -0.43878239
-2.1761765 3.3416722 -0.88582164
-2.9897206 4.0725961 -0.37402016
-2.1857266 3.3519888 -0.84650099
-2.975301 4.0634475 -0.31005919
-2.2248738 3.3869259 -0.82640725
-2.9748635 4.0662718 -0.24862204
-2.2638891 3.4218483 -0.80430424
-2.9703267 4.0655775 -0.18658079
-2.3126874 3.4650812 -0.78538233
-2.9616678 4.0612817 -0.12516548
-2.3698719 3.5154564 -0.76858842
-2.9670701 4.0691233 -0.064428635
-2.3969445 3.5406959 -0.7339651
-2.9411502 4.0498629 -0.0034503941
-2.505965 3.6350152 -0.73502892
-2.9519637 4.0623984 0.057474982
-2.6213133 3.7349987 -0.73252797
-2.9390759 4.0543613 0.11733931
-2.7430165 3.8407137 -0.72556305
-2.9296372 4.0493274 0.17752056
-2.9417875 4.0121241 -0.73817557
-2.9281917 4.0512371 0.23814587
-2.9312067 4.0064335 -0.6716246
-2.9182053 4.0456901 0.29758853
-3.013087 4.0793185 -0.63319874
-2.9115891 4.0431108 0.35803521
-3.0056977 4.0868535 -0.56822604
-3.0008016 4.085968 -0.50341809
-1.3143525 2.6282716 -0.29289663
-2.9962387 4.0853329 -0.43938899
-2.1744533 3.3463397 -0.88695914
-2.9860559 4.0798416 -0.37457895
-2.185359 3.3578415 -0.8485105
-2.9792051 4.0771599 -0.31158215
-2.212014 3.3825142 -0.82050794
-2.9712412 4.0734835 -0.24908637
-2.2578015 3.4233098 -0.80284625
-2.9682245 4.0740867 -0.18710722
-2.3106699 3.4702084 -0.7863729
-2.9610994 4.071084 -0.12566122
-2.356364 3.5111887 -0.76360446
-2.9649756 4.0776334 -0.064769231
-2.3732684 3.5279543 -0.72439283
-2.9421349 4.0609293 -0.0036338305
-2.5006013 3.6383121 -0.73460913
-2.9499002 4.070869 0.057322886
-2.617094 3.7398567 -0.73278123
-2.9370396 4.0627956 0.11728185
-2.7355623 3.8434489 -0.72470105
-2.9306147 4.06036 0.17789602
-2.922051 4.0054088 -0.73325729
-2.9291558 4.0622573 0.23870635
-2.8863132 3.9781539 -0.6590414
-2.9132175 4.0514317 0.29728925
-2.9915397 4.071372 -0.6287601
-2.9110663 4.0527568 0.35865986
-3.0037396 4.0950603 -0.56929326
-2.9958832 4.0916014 -0.50371182
-2.9928277 4.0922465 -0.43997687
-2.1809762 3.3575773 -0.89380598
-2.9841712 4.0880346 -0.37536782
-2.1715271 3.3520355 -0.84139001
-2.9773419 4.0853405 -0.31227773
-2.2035074 3.3813047 -0.81720495
-2.9663937 4.0790343 -0.24937531
-2.2505202 3.4233453 -0.80054593
-2.9694057 4.0848813 -0.18783572
-2.2933953 3.4620321 -0.77870917
-2.960794 4.0805531 -0.12613958
-2.3416867 3.5054142 -0.75786167
-2.964658 4.0871186 -0.065109164
-2.3727324 3.5342634 -0.72599453
-2.9418664 4.0703583 -0.0038301337
-2.4969006 3.64255 -0.73482972
-2.9496095 4.0803199 0.057264492
-2.6102145 3.741946 -0.73179585
-2.9337709 4.0695705 0.11711966
-2.7283771 3.8458476 -0.72382134
-2.9258654 4.0658011 0.17761245
-2.9070647 4.0020247 -0.72988307
-2.9288795 4.0716443 0.23906824
-2.8787284 3.9809341 -0.65836334
-2.9129632 4.0607662 0.2977916
-2.986645 4.0769744 -0.62905246
-2.9034052 4.055521 0.35776407
-3.0058868 4.1074848 -0.5715394
-2.9965897 4.1027403 -0.5053879
-2.9935575 4.1034026 -0.44146913
-2.1738236 3.3577304 -0.89113116
-2.9849393 4.0991869 -0.37667322
-2.1684284 3.3555629 -0.84157336
-2.9751406 4.0938764 -0.31299227
-2.2085655 3.3919129 -0.82261759
-2.9687254 4.0914822 -0.25046593
-2.2472148 3.4271069 -0.80074239
-2.965729 4.0920906 -0.18825296
-2.2829781 3.459959 -0.77498287
-2.9556391 4.0864239 -0.12644561
-2.3141365 3.48895 -0.74544007
-2.959492 4.0929985 -0.065415785
-2.3890429 3.5554395 -0.73600632
-2.938262 4.0774899 -0.0041038459
-2.4972594 3.6507306 -0.7370317
-2.9489753 4.0901251 0.057187475
-2.6088648 3.749254 -0.73327124
-2.933171 4.0793285 0.11718407
-2.7325506 3.8585293 -0.72749633
-2.9282551 4.078177 0.1781553
-2.887435 3.9951239 -0.72495514
-2.9297512 4.0827012 0.23962659
-2.9766564 4.0754433 -0.69209099
-2.9123766 4.0704527 0.29827571
-2.9858549 4.086751 -0.63065928
-2.9042959 4.066484 0.35869575
-3.0009015 4.1131263 -0.57183325
-2.9975588 4.1135473 -0.50704598
-2.9915755 4.1116209 -0.44235259
-2.1749043 3.3644707 -0.89416522
-2.9800022 4.104774 -0.37696463
-2.1641476 3.3577201 -0.84083426
-2.9747114 4.1033783 -0.31389159
-2.2055426 3.3953383 -0.82279611
-2.9638288 4.0970273 -0.25075513
-2.2385614 3.4259083 -0.79761058
-2.963835 4.1002674 -0.18876231
-2.2867537 3.4695723 -0.7791028
-2.955266 4.095902 -0.12692463
-2.3009896 3.4842029 -0.74043077
-2.9606054 4.1038184 -0.065773837
-2.3898349 3.5630312 -0.73831147
-2.9334359 4.0829492 -0.0043885875
-2.4906623 3.6524892 -0.73594022
-2.9441245 4.095614 0.056901168
-2.603411 3.7525475 -0.73289567
-2.9328327 4.0887589 0.11726563
-2.7282362 3.8634114 -0.72775131
-2.9234538 4.0836105 0.177872
-2.8798201 3.9979067 -0.72418666
-2.9293969 4.0921135 0.23998706
-2.9776051 4.0861025 -0.69429278
-2.9120464 4.0798078 0.29877687
-2.8999212 4.0218186 -0.60715365
-2.9039683 4.0758104 0.35933679
-3.0014808 4.1242919 -0.57369441
-2.9952109 4.1221256 -0.50804055
-2.9907374 4.121501 -0.44355088
-2.1704249 3.3668647 -0.8933965
-2.9806902 4.1159515 -0.37827158
-2.1610322 3.3612275 -0.84101713
-2.970953 4.1106029 -0.31440282
-2.1982179 3.3954487 -0.82037222
-2.9660697 4.1095142 -0.25184709
-2.2366312 3.43082 -0.79863417
-2.9645879 4.1114454 -0.18951085
-2.2888868 3.4782422 -0.78244948
-2.9575355 4.1083922 -0.12755084
-2.2961094 3.4868994 -0.73989165
-2.9613664 4.1150084 -0.066150993
-2.3889568 3.569658 -0.7399295
-2.9327712 4.0927315 -0.0046035908
-2.4866874 3.6569624 -0.73617333
-2.9434254 4.1054292 0.0568236
-2.6020157 3.7598524 -0.73437095
-2.929177 4.0958753 0.11708552
-2.7192998 3.8648098 -0.72631711
-2.9242706 4.0946932 0.1782447
-2.8719149 4.0009909 -0.72343397
-2.9227829 4.09656 0.23947126
-2.9197147 4.0459981 -0.67739028
-2.9069571 4.0855341 0.29847825
-2.9404008 4.0673871 -0.62087005
-2.8989015 4.0815115 0.35903937
-2.9976017 4.1315742 -0.57439369
-2.9943037 4.1320081 -0.50937706
-2.9898524 4.1313891 -0.44474941
-2.16594 3.3692429 -0.89262593
-2.9798443 4.1258287 -0.37932968
-2.1579061 3.364723 -0.84119964
-2.9686544 4.119144 -0.31511772
-2.1895423 3.3943489 -0.81707519
-2.9593215 4.1140699 -0.25199693
-2.236058 3.4369226 -0.8004871
-2.9593318 4.1173253 -0.18981749
-2.2923691 3.4881418 -0.78658479
-2.9523003 4.1142492 -0.12785631
-2.2898231 3.4883614 -0.73860747
-2.9546301 4.1195426 -0.066439129
-2.3838162 3.5725982 -0.73944652
-2.9335513 4.1038594 -0.0047906945
-2.4855464 3.6639056 -0.73771906
-2.9411955 4.1139188 0.056670297
-2.5919876 3.7596409 -0.73217165
-2.9329128 4.1096673 0.11751268
-2.7175801 3.8724852 -0.72772223
-2.9220808 4.1031218 0.17828022
-2.8698094 4.0091395 -0.72477275
-2.9264853 4.1103206 0.24045616
-2.9904072 4.1184359 -0.70256156
-2.9062605 4.0952377 0.29896116
-2.8912663 4.0344629 -0.60817885
-2.8996706 4.0925117 0.35996878
-3.0007126 4.1457162 -0.57704985
-2.9930413 4.1422524 -0.51073289
-2.9900908 4.1429572 -0.4462629
-2.9786441 4.136065 -0.38040686
-2.1613083 3.3742435 -0.84595722
-2.9704578 4.1320152 -0.3164624
-2.1874926 3.3993196 -0.81814492
-2.958194 4.1242685 -0.25279343
-2.2352612 3.4432487 -0.8023513
-2.9567218 4.1261988 -0.19036329
-2.2914402 3.4946711 -0.78837323
-2.9526808 4.1257854 -0.12843777
-2.2805405 3.4875791 -0.73584563
-2.956486 4.1324315 -0.066853635
-2.369998 3.5683568 -0.73477161
-2.93101 4.112668 -0.0050533121
-2.4784622 3.6661317 -0.73665172
-2.9415898 4.1254325 0.056648716
-2.5874455 3.7646935 -0.73243535
-2.9288833 4.1171346 0.11731426
-2.7112434 3.8766627 -0.72743809
-2.9180725 4.1105561 0.17813015
-2.8630345 4.0137825 -0.72455823
-2.9224639 4.117763 0.24035156
-2.9861946 4.1260219 -0.70336896
-2.9008245 4.1012797 0.29864573
-2.9895926 4.1324329 -0.63926107
-2.8942537 4.0985327 0.35965461
-1.2998841 2.6262529 -0.31332159
-2.9930098 4.1483798 -0.57654959
-2.9926863 4.1514535 -0.51203394
-2.9853387 4.1482072 -0.44653732
-2.9783473 4.1452651 -0.38142955
-2.1518097 3.3714812 -0.8415519
-2.9701898 4.1412077 -0.31734592
-2.1859934 3.4036589 -0.81918061
-2.9594386 4.1347795 -0.25369453
-2.2377708 3.4513233 -0.80584127
-2.9550107 4.1340423 -0.19085541
-2.2938688 3.5029483 -0.79169989
-2.9569058 4.1389866 -0.12909599
-2.2830436 3.4958789 -0.73899978
-2.9592204 4.1443129 -0.067215703
-2.3512511 3.5583661 -0.72725165
-2.9323175 4.123147 -0.0052065435
-2.4720886 3.6675446 -0.7355426
-2.9384279 4.1319089 0.056455679
-2.5879247 3.7726772 -0.73449349
-2.9301736 4.1276078 0.11753218
-2.7071519 3.8811874 -0.72767335
-2.9179046 4.1196537 0.1783684
-2.8585837 4.0187035 -0.72481519
-2.9222739 4.1268702 0.24072777
-2.988704 4.1377177 -0.70603597
-2.9035902 4.1130018 0.29968274
-2.9921272 4.1441803 -0.64170325
-2.8926356 4.1062145 0.36000544
-2.9948835 4.1608968 -0.57880092
-2.9901919 4.1600518 -0.51303029
-2.9872801 4.1607695 -0.4483301
-2.9788518 4.1565061 -0.38273972
-2.1526663 3.3784692 -0.8444736
-2.9677777 4.1497712 -0.31806225
-2.1827464 3.4072285 -0.81936777
-2.9541047 4.1406422 -0.2540006
-2.237114 3.4574516 -0.80769557
-2.9615138 4.1506333 -0.19205211
-2.2903297 3.506839 -0.79190308
-2.950103 4.1434975 -0.12933652
-2.2823131 3.5021946 -0.74069005
-2.9479752 4.1447864 -0.067446887
-2.3265324 3.5437882 -0.71694726
-2.930007 4.1316261 -0.0054524215
-2.4708946 3.6744728 -0.73708737
-2.937573 4.141757 0.056376029
-2.5864363 3.7799685 -0.73596781
-2.932276 4.1401334 0.1178343
-2.7024994 3.8862996 -0.72794062
-2.9200208 4.1321368 0.17890546
-2.8520832 4.0229793 -0.72458148
-2.9155705 4.1312795 0.24021384
-2.9934223 4.1527309 -0.70969927
-2.9027791 4.122735 0.30016404
-2.9721742 4.1371007 -0.63767588
-2.8932884 4.1172452 0.36093301
-2.9952462 4.1721258 -0.58066565
-2.989125 4.1699691 -0.51436853
-2.9833035 4.1680412 -0.44893759
-2.9734359 4.1624231 -0.38304859
-2.1548259 3.3866503 -0.8483091
-2.9623876 4.1556582 -0.31836963
-2.1821833 3.4131746 -0.82129747
-2.9561186 4.1532073 -0.25509757
-2.2323463 3.4599671 -0.80706036
-2.9576159 4.1578498 -0.19247039
-2.2881539 3.5119374 -0.79289293
-2.9506578 4.1547322 -0.1299025
-2.2746236 3.5023499 -0.73865747
-2.951483 4.1587281 -0.06786482
-2.3089039 3.5353076 -0.71014214
-2.9261925 4.1387548 -0.0057261866
-2.4668553 3.6788862 -0.73731762
-2.9322634 4.1475577 0.056073267
-2.5806658 3.7834551 -0.73560274
-2.9255149 4.1445637 0.1174118
-2.7049675 3.8978038 -0.73105204
-2.9147589 4.1378837 0.17860535
-2.8455763 4.0272317 -0.72434664
-2.9176197 4.1437674 0.24098091
-2.967766 4.1404972 -0.70330185
-2.8990188 4.1297798 0.30012596
-2.9885182 4.1626177 -0.64449406
-2.8996823 4.1336765 0.36308229
-2.9933019 4.1800303 -0.58171743
-2.9872074 4.1778731 -0.51532888
-2.9814086 4.1759424 -0.44980478
-2.9701049 4.1689711 -0.38357168
-2.1573243 3.3944421 -0.85212475
-2.9664233 4.1689 -0.31986833
-2.1806364 3.417511 -0.82233346
-2.9543016 4.161067 -0.25568402
-2.2347693 3.46808 -0.81055188
-2.9513872 4.1616678 -0.19262841
-2.2685523 3.5006618 -0.78361994
-2.9473896 4.1612368 -0.13023695
-2.2742789 3.5082085 -0.74032313
-2.9482071 4.1652369 -0.068153135
-2.3098927 3.5425303 -0.71242803
-2.927387 4.1492729 -0.0058814837
-2.4604695 3.6802449 -0.73620558
-2.9305003 4.1553764 0.055954669
-2.5754027 3.7863619 -0.7352075
-2.9237614 4.1523638 0.1173869
-2.6937013 3.8958886 -0.72844142
-2.913023 4.1456556 0.17867506
-2.8410921 4.0321064 -0.72460079
-2.9114997 4.1474805 0.24050327
-2.973062 4.1548133 -0.70692855
-2.8958504 4.1361518 0.30012304
-2.9865808 4.1704884 -0.64563686
-2.8892853 4.1333003 0.36159825
-2.9903591 4.1889882 -0.58282459
-2.982836 4.1854944 -0.51600027
-2.982887 4.1889038 -0.45161897
-1.3140235 2.6476789 -0.2870661
-2.9716322 4.1819248 -0.38515264
-2.155237 3.3993161 -0.85323179
-2.9606583 4.175128 -0.32019353
-2.1784964 3.4224732 -0.82340282
-2.9573617 4.1753693 -0.25695997
-2.2284198 3.4695835 -0.80909634
-2.9515288 4.1732717 -0.19339961
-2.2456698 3.4874997 -0.77280152
-2.9475431 4.1728392 -0.13082223
-2.2650058 3.5072963 -0.73755592
-2.9468935 4.1754918 -0.068533666
-2.3449674 3.5818295 -0.73229396
-2.9246621 4.158102 -0.0061456887
-2.4337566 3.6646194 -0.72592372
-2.9292266 4.1655774 0.055856373
-2.5679524 3.7888064 -0.73424125
-2.9181185 4.1584592 0.11706845
-2.6929877 3.9051232 -0.73043019
-2.9088662 4.15308 0.17852505
-2.8356938 4.0379353 -0.72490597
-2.9116971 4.1589746 0.24103828
-2.9601033 4.1545215 -0.70485646
-2.8902876 4.1421628 0.29980922
-2.9865282 4.1820431 -0.64770293
-2.8894999 4.1447048 0.36250627
-2.9862561 4.1962676 -0.58352453
-2.9831088 4.1967683 -0.51768351
-2.9773629 4.1948333 -0.45192897
-2.9690528 4.190516 -0.38596326
-2.1493487 3.4004161 -0.85158426
-2.9610331 4.1864018 -0.32132053
-2.1778655 3.4284284 -0.8253333
-2.9504466 4.1798687 -0.2571066
-2.2236269 3.4720602 -0.80845863
-2.9504783 4.1831913 -0.1940417
-2.2258167 3.4764538 -0.76354122
-2.9406538 4.1773033 -0.13106067
-2.266964 3.5160861 -0.7407347
-2.9443903 4.1840434 -0.068877205
-2.3398159 3.5846109 -0.731803
-2.9207559 4.1652288 -0.0064195176
-2.3347435 3.5825045 -0.68140566
-2.9267631 4.1740875 0.055701714
-2.5509114 3.7819691 -0.72896051
-2.9171357 4.1683002 0.11712796
-2.6854329 3.9076083 -0.72955579
-2.9049954 4.1601591 0.17839295
-2.8348472 4.047338 -0.72676682
-2.9078135 4.1660604 0.24095193
-2.9446266 4.1511979 -0.7018044
-2.8907824 4.153266 0.30054826
-2.9939332 4.1998677 -0.65192562
-2.8856668 4.1517229 0.36251575
-2.9867797 4.2071881 -0.58537281
-2.9807715 4.205029 -0.51866227
-2.9779475 4.2057843 -0.45341104
-2.9653106 4.197412 -0.38650465
-2.1594973 3.4155974 -0.86089879
-2.9558594 4.1919241 -0.32160872
-2.1814101 3.437804 -0.82987273
-2.9540455 4.1935244 -0.25834882
-2.2001693 3.4571896 -0.79617584
-2.9482474 4.1914124 -0.19455361
-2.2116857 3.4700336 -0.75741667
-2.9442847 4.1909695 -0.13174343
-2.2622321 3.51842 -0.74017686
-2.943635 4.1936283 -0.069222808
-2.2864785 3.5429447 -0.70672405
-2.9200578 4.1747489 -0.0066215382
-2.306124 3.5633347 -0.66975576
-2.9231358 4.1808863 0.055491462
-2.4485939 3.6963184 -0.68619484
-2.9149797 4.1764426 0.11708504
-2.6654506 3.8980949 -0.72353524
-2.9057612 4.1710043 0.17877752
-2.8300059 4.0525055 -0.72703695
-2.9056656 4.1741734 0.24109581
-2.988035 4.2014136 -0.71841168
-2.8944237 4.1667857 0.30182087
-2.9958475 4.2121005 -0.65439314
-2.8864167 4.1624842 0.36345702
-2.9843848 4.2154522 -0.58644396
-2.9798398 4.2146339 -0.51998502
-2.9799259 4.2181001 -0.45519185
-2.9644446 4.2070112 -0.38754863
-2.1629834 3.4248638 -0.8656438
-2.956476 4.2028728 -0.32271922
-2.1782568 3.4411526 -0.83004701
-2.9488621 4.1990261 -0.25863647
-2.1929345 3.4569108 -0.79385936
-2.9459879 4.199635 -0.19506596
-2.2043829 3.4697435 -0.75523061
-2.9420347 4.1991873 -0.13216251
-2.2561309 3.5194855 -0.73887241
-2.9428413 4.2032223 -0.069569074
-2.3064964 3.5681186 -0.71885431
-2.9193218 4.1842804 -0.0068240422
-2.3707457 3.6296821 -0.70220965
-2.9252856 4.1931772 0.055573713
-2.5482972 3.795871 -0.73187536
-2.9142389 4.1859608 0.1171613
-2.3835921 3.6465638 -0.61146981
-2.9035909 4.1791224 0.17882895
-2.8251503 4.0576615 -0.72730637
-2.9049263 4.1836562 0.24145187
-2.9898834 4.2136092 -0.7211051
-2.8893936 4.172123 0.30154181
-2.9891262 4.2163892 -0.6542514
-2.8814085 4.1678004 0.36317903
-2.985589 4.2284398 -0.58872008
-2.9767725 4.2235999 -0.52100062
-2.973983 4.2243705 -0.4555195
-2.9599936 4.214592 -0.38812578
-2.1660345 3.4345715 -0.87041152
-2.950604 4.2090716 -0.32304305
-2.1773496 3.4473379 -0.83199012
-2.9459088 4.2079396 -0.25927824
-2.2147892 3.4840877 -0.80985427
-2.945945 4.2112908 -0.19584012
-2.1885741 3.4623816 -0.74833375
-2.9376528 4.2067161 -0.13255072
-2.2550673 3.5260034 -0.74057281
-2.938458 4.2107553 -0.069911122
-2.3438163 3.6104 -0.74014819
-2.9164526 4.1931205 -0.0070890118
-2.4275856 3.6904907 -0.73141664
-2.9281816 4.2075534 0.055691767
-2.4585247 3.721828 -0.69463879
-2.9128208 4.1961651 0.11720172
-2.656034 3.9080641 -0.72405589
-2.9036314 4.1906676 0.17917666
-2.8239067 4.0673885 -0.72918481
-2.9020751 4.1924472 0.24156018
-2.9938483 4.2291784 -0.72479814
-2.8937304 4.1877303 0.30303508
-2.9888618 4.2280169 -0.656322
-2.8857262 4.1833577 0.36499763
-2.9848783 4.2377124 -0.59016371
-2.976099 4.232872 -0.52230585
-2.9733303 4.2336535 -0.45668685
-2.9593835 4.2238579 -0.38915277
-2.1696267 3.4436862 -0.87514818
-2.9543591 4.2224326 -0.32454836
-2.1743686 3.4504657 -0.83215421
-2.9424572 4.2144494 -0.25970668
-2.2090421 3.4848483 -0.80835962
-2.9424949 4.2178044 -0.19622172
-2.1936572 3.4730265 -0.7532317
-2.9356706 4.214592 -0.1329519
-2.2246754 3.5041032 -0.72582757
-2.9379177 4.2200165 -0.070240222
-2.3417926 3.6152358 -0.74103731
-2.9174104 4.203711 -0.0072485046
-2.4378035 3.7071395 -0.73820221
-2.9218853 4.2112608 0.055352904
-2.4604108 3.7308836 -0.69729996
-2.9137654 4.206748 0.1174135
-2.6658664 3.9255242 -0.72999048
-2.9002736 4.1970797 0.17907944
-2.8136816 4.0669303 -0.72733432
-2.901582 4.2016115 0.24193287
-2.9959149 4.2410789 -0.7274763
-2.8903883 4.1941109 0.30303133
-2.9867055 4.235939 -0.65746719
-2.880975 4.1883426 0.36473715
-2.9859767 4.2507453 -0.59244239
-2.9743881 4.2431951 -0.52366585
-2.9702063 4.24263 -0.45761138
-2.9620545 4.2382717 -0.39099115
-2.172581 3.4534528 -0.87991965
-2.9469833 4.2272491 -0.32466573
-2.1720994 3.4554327 -0.83322352
-2.9394386 4.2233548 -0.2603485
-2.1946898 3.4787939 -0.8019067
-2.9438059 4.230864 -0.19711073
-2.2021177 3.4880993 -0.76053196
-2.9384475 4.2290258 -0.1336751
-2.2005835 3.4890165 -0.71483815
-2.9378004 4.231698 -0.070643939
-2.3404365 3.622061 -0.74266636
-2.9159076 4.2139478 -0.0074882796
-2.4375563 3.7155821 -0.7404182
-2.9203618 4.2215142 0.055251718
-2.5461595 3.8201776 -0.73752189
-2.9093866 4.2142 0.11721506
-2.6649899 3.9347491 -0.73197889
-2.9002292 4.2086468 0.17942591
-2.8123875 4.0766463 -0.72921211
-2.8958027 4.2076416 0.24161768
-2.994092 4.2513967 -0.72924954
-2.8846414 4.2001042 0.30271792
-2.9835122 4.2449112 -0.65866745
-2.8823428 4.2011976 0.36594474
-2.980248 4.256681 -0.59275317
-2.9715438 4.251822 -0.52466446
-2.9673789 4.251255 -0.45851713
-2.9563944 4.2441401 -0.391298
-2.1665726 3.4545588 -0.87827355
-2.9485419 4.2399597 -0.32600278
-2.1673808 3.4577336 -0.8325336
-2.9439025 4.238831 -0.26177412
-2.1898925 3.4811485 -0.80126345
-2.939635 4.2380652 -0.19752854
-2.2013087 3.4942315 -0.76229936
-2.9328527 4.2348247 -0.13397846
-2.1876283 3.4837401 -0.70980233
-2.9264545 4.231936 -0.07086356
-2.3270047 3.6171076 -0.7379548
-2.91325 4.2224646 -0.0077364855
-2.4375188 3.7237813 -0.7426216
-2.9234266 4.2356129 0.055384211
-2.5430715 3.8261197 -0.73837936
-2.9053071 4.2213068 0.11703467
-2.6587875 3.9384191 -0.73166841
-2.8975971 4.2171149 0.17945875
-2.8057525 4.0807419 -0.72896928
-2.8974466 4.2202606 0.24237752
-2.9883442 4.2573562 -0.72956163
-2.8820362 4.2085195 0.30293763
-2.9848626 4.2575669 -0.66115808
-2.8825564 4.2123661 0.36686474
-2.9751787 4.2619052 -0.59302676
-2.9693391 4.2597523 -0.52562636
-2.9680464 4.2619309 -0.4599849
-2.9585304 4.2561889 -0.39283198
-2.1518812 3.4467244 -0.87019479
-2.9492786 4.2506275 -0.32709879
-2.170933 3.4669886 -0.83706653
-2.9389262 4.2439651 -0.26204276
-2.1908023 3.4880464 -0.8039251
-2.9418397 4.2501311 -0.19836572
-2.1995525 3.4986815 -0.76325607
-2.9307711 4.242713 -0.13438055
-2.1670222 3.4703429 -0.70026189
-2.932991 4.2481761 -0.071298644
-2.3167901 3.6141963 -0.734622
-2.9169457 4.235888 -0.0078471545
-2.4256005 3.7197969 -0.73886412
-2.9170671 4.2392993 0.055046458
-2.5432525 3.8341327 -0.74043959
-2.9075654 4.2333164 0.11736301
-2.6559207 3.9441252 -0.73246932
-2.8998578 4.2291007 0.18002126
-2.8053195 4.0895047 -0.73079795
-2.8968446 4.2294478 0.24274869
-2.9902756 4.2693043 -0.73224241
-2.8857024 4.2218275 0.30422068
-2.9811931 4.2641521 -0.6618678
-2.8791404 4.218729 0.36690795
-2.9764805 4.2746205 -0.59528887
-2.9692628 4.2711148 -0.52731496
-2.9651451 4.270565 -0.46089125
-2.9542391 4.2634258 -0.39339149
-2.140729 3.4428802 -0.86488187
-2.9421635 4.2550745 -0.3271969
-2.1740367 3.4766839 -0.84162253
-2.9375548 4.2539325 -0.26282793
-2.1978784 3.5016229 -0.81077105
-2.9390328 4.2587276 -0.19889782
-2.200032 3.5060833 -0.76581407
-2.9279966 4.2512813 -0.13481826
-2.1985807 3.5070691 -0.7198627
-2.9230597 4.2497683 -0.071537375
-2.3034341 3.6091235 -0.72990417
-2.9056351 4.2360277 -0.0082489029
-2.4268949 3.7292855 -0.7417267
-2.9143236 4.2478342 0.054889806
-2.5373619 3.8374472 -0.74006557
-2.9048436 4.2418251 0.11730044
-2.6524687 3.9504116 -0.73330009
-2.8985722 4.2389817 0.18021783
-2.8000476 4.0949059 -0.73108089
-2.8955519 4.2393174 0.24308428
-2.9900708 4.2806339 -0.73447949
-2.8900731 4.2372332 0.30572426
-2.979635 4.2741389 -0.66348684
-2.8820798 4.232698 0.36843306
-2.968931 4.2795091 -0.59522527
-2.9659717 4.2800965 -0.52833182
-2.9632907 4.2809234 -0.46211571
-2.9552677 4.2765417 -0.39498144
-2.1371603 3.4465196 -0.86507165
-2.9389729 4.264008 -0.32793301
-2.1638432 3.4742324 -0.83744568
-2.9372311 4.2656512 -0.26379317
-2.1980851 3.509201 -0.81346911
-2.9358563 4.2676649 -0.19944789
-2.20293 3.5162473 -0.76996368
-2.9248555 4.2601919 -0.13527384
-2.1908081 3.5070424 -0.71782154
-2.927062 4.2656751 -0.072007224
-2.2817838 3.5964422 -0.7209717
-2.9068313 4.2490835 -0.0084391395
-2.4224446 3.7338207 -0.74196422
-2.9126379 4.258111 0.054786868
-2.5284569 3.8383737 -0.7384733
-2.9017558 4.2506685 0.11722026
-2.6487052 3.9569821 -0.73414612
-2.8940828 4.2464023 0.18006741
-2.7930627 4.0992689 -0.73085213
-2.8924799 4.2481289 0.24319117
-2.985286 4.28828 -0.73529154
-2.8785665 4.2376332 0.30438364
-2.9776917 4.2844758 -0.66512442
-2.8734245 4.2358756 0.36751479
-2.9722285 4.2929206 -0.59784371
-2.9664853 4.2907906 -0.52998525
-2.9624159 4.2902575 -0.46328592
-2.9530101 4.2844806 -0.39575839
-2.1290271 3.4446361 -0.86156565
-2.9395978 4.2747002 -0.32903028
-2.1620901 3.4785674 -0.8384819
-2.9336026 4.272162 -0.26422185
-2.1923168 3.5098677 -0.81197035
-2.9293911 4.2713737 -0.19960096
-2.2024293 3.5219851 -0.77171063
-2.9255269 4.2708921 -0.13581263
-2.2050798 3.5269122 -0.72770101
-2.9277258 4.2763896 -0.072360769
-2.2447052 3.56739 -0.70354956
-2.9061222 4.2583427 -0.0086280089
-2.4187245 3.7375884 -0.74216115
-2.9147437 4.2702022 0.054879028
-2.5299366 3.8477056 -0.74114954
-2.8996308 4.2585087 0.11719271
-2.6471572 3.9640062 -0.73551786
-2.8919668 4.2542195 0.18013406
-2.7925413 4.108036 -0.73268104
-2.8903625 4.255939 0.24335042
-2.9815099 4.2948694 -0.73604751
-2.879277 4.2482042 0.30515015
-2.9767361 4.2937775 -0.66670847
-2.8713315 4.2436209 0.36786115
-2.9660289 4.2991657 -0.59817082
-2.9603045 4.2970171 -0.53031123
-2.9604747 4.3006334 -0.46451086
-2.9496932 4.2934523 -0.39658928
-2.1267354 3.4494681 -0.86267084
-2.941987 4.2892342 -0.33059722
-2.1597111 3.4835186 -0.83955139
-2.934608 4.2852998 -0.26534951
-2.1859257 3.5111454 -0.81050307
-2.9289923 4.2831116 -0.20037998
-2.2025926 3.5296426 -0.7742821
-2.9223082 4.279809 -0.13626869
-2.2146072 3.5436435 -0.73537648
-2.9259152 4.286727 -0.072746582
-2.2864871 3.6156309 -0.72770059
-2.9029582 4.2672081 -0.0088947006
-2.4183125 3.7460423 -0.74437803
-2.9073064 4.2748604 0.054490428
-2.5196593 3.8472574 -0.73893881
-2.9007115 4.2715893 0.11746468
-2.643342 3.9705691 -0.73636329
-2.8902369 4.2644491 0.18031232
-2.7841418 4.1110229 -0.73192418
-2.8886225 4.2661576 0.24366747
-2.9822206 4.3079271 -0.73878688
-2.8747625 4.255569 0.30509454
-2.9747074 4.3041339 -0.66834718
-2.8668327 4.250957 0.36785311
-2.9646921 4.3088312 -0.59963506
-2.9631982 4.3108454 -0.53267562
-2.9605825 4.3117166 -0.4660005
-2.9484365 4.3031311 -0.39763844
-2.1197054 3.4489601 -0.86008799
-2.9379375 4.296102 -0.33109146
-2.1447868 3.4755604 -0.83184773
-2.9334047 4.2949648 -0.26611936
-2.181263 3.5132394 -0.80984557
-2.9306364 4.2955923 -0.20123926
-2.1965539 3.5304892 -0.77287948
-2.9239695 4.2922859 -0.13689533
-2.2231431 3.5587196 -0.74228507
-2.9247394 4.2963963 -0.073097318
-2.2908969 3.6271076 -0.73211765
-2.9032533 4.2782331 -0.0090773692
-2.4089057 3.7447758 -0.74194646
-2.9089925 4.2873149 0.0545635
-2.5208163 3.8568668 -0.7416296
-2.8967705 4.2783594 0.11730147
-2.6332383 3.96984 -0.73431689
-2.887727 4.2726083 0.18036109
-2.7818744 4.1187515 -0.73324209
-2.8861079 4.2743077 0.24380885
-2.978035 4.3148637 -0.7395612
-2.8722732 4.2636766 0.30532998
-2.9747195 4.3151684 -0.67038715
-2.862968 4.2576275 0.36788017
-2.965749 4.3216147 -0.60190141
-2.955904 4.3153257 -0.53263688
-2.9588954 4.321764 -0.4672091
-1.3099291 2.6695871 -0.2944715
-2.9467936 4.3131642 -0.39870608
-2.1226978 3.4585211 -0.86484879
-2.933522 4.3033061 -0.33160311
-2.1451933 3.4827671 -0.83465356
-2.9318192 4.3049798 -0.26690769
-2.1868083 3.5256765 -0.81586558
-2.9304745 4.307025 -0.20200233
-2.1837327 3.5251095 -0.767533
-2.9210076 4.3008771 -0.13733456
-2.2181199 3.5611033 -0.74172992
-2.9217708 4.3049927 -0.073443919
-2.2375329 3.5825193 -0.70625007
-2.9017546 4.2881885 -0.0093029039
-2.407352 3.7516513 -0.74348897
-2.9046593 4.2944484 0.054334879
-2.5148795 3.8600929 -0.74125171
-2.8966823 4.2897182 0.11747215
-2.6283231 3.9747324 -0.73457354
-2.8890481 4.2853503 0.18088329
-2.7778919 4.1254392 -0.73404878
-2.8860173 4.2856221 0.24435249
-2.974853 4.3235121 -0.7408362
-2.873594 4.2763538 0.3063159
-2.9715598 4.3238201 -0.67157131
-2.8615165 4.2674422 0.36849433
-2.9618986 4.3281884 -0.60256493
-2.9576573 4.3274522 -0.53463924
-2.9564681 4.3297362 -0.46808064
-2.9486074 4.3253255 -0.4002465
-2.1311362 3.4726753 -0.87325776
-2.9325755 4.3126426 -0.33249491
-2.131829 3.4757578 -0.82780987
-2.932287 4.3157392 -0.2678228
-2.1888211 3.5339155 -0.81936473
-2.930949 4.3177938 -0.20273083
-2.1858017 3.5333993 -0.77086169
-2.9271326 4.3173122 -0.13815245
-2.2135313 3.5630386 -0.74115139
-2.9138341 4.3072252 -0.073664479
-2.2035453 3.5555928 -0.69021219
-2.8980877 4.2946339 -0.0095419232
-2.3995547 3.7513993 -0.74170125
-2.9065905 4.3065963 0.054423742
-2.5121815 3.8654404 -0.74207866
-2.894419 4.2975774 0.11744337
-2.6266966 3.9817343 -0.73594415
-2.8895938 4.2960329 0.18127573
-2.7717791 4.1287746 -0.73376739
-2.885159 4.2948642 0.24472032
-2.9668384 4.3259821 -0.74014395
-2.8713679 4.2841396 0.30656809
-2.9704537 4.3331566 -0.67315644
-2.8606908 4.276607 0.36914271
-2.959739 4.3385682 -0.60406673
-2.9583018 4.3406358 -0.53669703
-2.9529595 4.338738 -0.4690069
-1.3080034 2.6714871 -0.29457116
-2.943733 4.3329058 -0.40082455
-2.1363533 3.4849951 -0.87986666
-2.9333508 4.3258328 -0.33385772
-2.1268802 3.4781067 -0.82712299
-2.9330711 4.3289533 -0.26895475
-2.1823833 3.5351512 -0.81789625
-2.9275377 4.3267555 -0.20328252
-2.191112 3.5462143 -0.77659684
-2.919529 4.3219948 -0.13840298
-2.2135587 3.5708168 -0.743599
-2.9188852 4.3247042 -0.074165158
-2.2275617 3.5871015 -0.70521843
-2.8961751 4.3049316 -0.0097854314
-2.395036 3.7558506 -0.74193501
-2.9032488 4.3154964 0.054247636
-2.5073025 3.8702428 -0.74233019
-2.8952975 4.3107209 0.11771175
-2.6255252 3.9909523 -0.73793334
-2.8848991 4.3034482 0.18112502
-2.7674391 4.1357541 -0.73458934
-2.8818643 4.3036914 0.244826
-2.9810913 4.3527999 -0.74771547
-2.8708715 4.2957625 0.30727923
-2.9668758 4.3421559 -0.67435908
-2.862958 4.291018 0.37064433
-2.9651411 4.3552322 -0.60749537
-2.9582081 4.3517485 -0.53837246
-2.9515076 4.3484578 -0.47019809
-2.9464931 4.346858 -0.40263951
-2.1355908 3.4907124 -0.88187039
-2.9305768 4.3341146 -0.33456016
-2.1402349 3.4977353 -0.83867687
-2.9275088 4.3343987 -0.26924002
-2.1802504 3.5397816 -0.81890535
-2.9275796 4.3378868 -0.20403016
-2.2006989 3.5625324 -0.78468597
-2.9195948 4.3331156 -0.13896418
-2.2113605 3.5755606 -0.74452734
-2.9189501 4.3358307 -0.074540548
-2.2240102 3.5905757 -0.70540029
-2.8935103 4.3131428 -0.01001808
-2.3616273 3.7304447 -0.72759342
-2.9005568 4.3237224 0.054106742
-2.5029557 3.8744981 -0.74255329
-2.8940132 4.3203559 0.11778108
-2.619487 3.9941804 -0.73760039
-2.880861 4.3101897 0.18100971
-2.762352 4.1407361 -0.73485017
-2.8819792 4.314713 0.24538498
-2.9767647 4.3597512 -0.74849057
-2.8654819 4.3010359 0.30700284
-2.9708354 4.357388 -0.6777159
-2.8589635 4.2976947 0.37067068
-2.9587464 4.361454 -0.60782117
-2.9545958 4.3607602 -0.5393917
-2.9493084 4.358871 -0.47142541
-2.9401569 4.3530221 -0.40296245
-2.1306071 3.4930823 -0.8811425
-2.9312398 4.3473444 -0.33592504
-2.1479661 3.5127859 -0.84675246
-2.9240158 4.3433557 -0.26988542
-2.1776712 3.5448277 -0.81993628
-2.9254801 4.3482847 -0.20469834
-2.2071595 3.5767419 -0.79121804
-2.9189181 4.3449283 -0.13956155
-2.2087049 3.580734 -0.74547821
-2.9099157 4.3390398 -0.074812762
-2.2213237 3.5957999 -0.70631021
-2.8942983 4.3263245 -0.010215348
-2.8971438 4.3326221 0.053930692
-2.4993889 3.8806195 -0.74342108
-2.8892303 4.3277969 0.11758257
-2.6128578 3.9979577 -0.73729664
-2.8830299 4.3247662 0.18167394
-2.7593226 4.1490607 -0.73619974
-2.8799832 4.3249779 0.24569911
-2.978514 4.3742962 -0.75171906
-2.8662732 4.3141017 0.30796808
-2.9685321 4.3677964 -0.67935777
-2.8583784 4.3092947 0.37156701
-2.9585292 4.3725748 -0.60968155
-2.9557848 4.3733068 -0.54141593
-2.9505339 4.371438 -0.47322023
-2.9414241 4.3655934 -0.40452421
-2.1147196 3.4837279 -0.87213272
-2.9270015 4.3542047 -0.33641922
-2.1433306 3.5147686 -0.84604669
-2.9211888 4.3516345 -0.27049512
-2.1729376 3.5468764 -0.81927764
-2.9240408 4.3580093 -0.20533131
-2.2062151 3.5827649 -0.79298091
-2.9161069 4.3532066 -0.13998477
-2.207778 3.5867879 -0.74715549
-2.9099047 4.3501763 -0.075188816
-2.2480447 3.6298296 -0.72272092
-2.892941 4.3359809 -0.010425466
-2.2656052 3.6500559 -0.68434936
-2.897161 4.3437276 0.05392893
-2.4749658 3.8645492 -0.73437667
-2.8878746 4.33744 0.11765132
-2.6094995 4.0038729 -0.73810822
-2.8803012 4.3329492 0.1817209
-2.7514911 4.151269 -0.73540282
-2.8758812 4.3317122 0.24563019
-2.9754758 4.3826303 -0.75297821
-2.8676863 4.3265357 0.30896658
-2.9655354 4.3761225 -0.6805253
-2.8556879 4.3173966 0.37189472
-2.9579065 4.3840537 -0.61156058
-2.9497023 4.3791547 -0.54172301
-2.9444675 4.3772721 -0.47352606
-2.9340065 4.3699756 -0.40457368
-2.0999455 3.4757512 -0.86404806
-2.9279158 4.367125 -0.33776778
-2.1372159 3.51566 -0.84447432
-2.9193621 4.3616896 -0.27128565
-2.1718235 3.5529873 -0.82113165
-2.9208229 4.366642 -0.20586614
-2.1998565 3.5837843 -0.79158735
-2.9087589 4.357502 -0.14021534
-2.200089 3.5864649 -0.74509895
-2.9108834 4.3631072 -0.075607076
-2.2638402 3.6535788 -0.73350495
-2.8884327 4.3430891 -0.010699521
-2.3727992 3.7669003 -0.7401489
-2.8898706 4.3479609 0.053561766
-2.8833733 4.3445354 0.11747075
-2.6031399 4.0073247 -0.73778766
-2.8771977 4.3414655 0.18175043
-2.7473872 4.1578894 -0.73620623
-2.8782642 4.3459759 0.24658711
-2.967977 4.3871474 -0.75280404
-2.8618674 4.3321266 0.30867332
-2.9594228 4.3819995 -0.6808337
-2.8594306 4.3329968 0.37370998
-2.9538691 4.3906288 -0.6122247
-2.9497948 4.3899684 -0.54338318
-2.9459617 4.3895192 -0.47530448
-2.9327941 4.3793678 -0.405608
-2.9225931 4.3722115 -0.33803487
-2.1365824 3.5212409 -0.84638625
-2.9181993 4.3710694 -0.27204138
-2.1723952 3.5599842 -0.82379949
-2.9182811 4.3745995 -0.20636547
-2.2003875 3.5908973 -0.79413068
-2.9103923 4.3697658 -0.14083114
-2.1980548 3.5909741 -0.74601513
-2.911128 4.37394 -0.075967446
-2.285218 3.6823261 -0.74709469
-2.8928719 4.358212 -0.010801387
-2.3755901 3.7772837 -0.74365008
-2.8915362 4.3601942 0.053645942
-2.4450324 3.8510895 -0.72492337
-2.8850453 4.3567519 0.1177876
-2.597369 4.0101933 -0.73743647
-2.8733809 4.3478708 0.18165252
-2.7412128 4.1611228 -0.73591942
-2.874438 4.3523817 0.24653509
-2.9625444 4.3923411 -0.75307661
-2.8635321 4.3442593 0.30968761
-2.9608049 4.3941746 -0.68329912
-2.8542917 4.3379121 0.37345207
-2.9487185 4.3982301 -0.61294246
-2.947391 4.4004045 -0.54475093
-2.9435809 4.3999634 -0.47653401
-1.2922471 2.6671805 -0.28719288
-2.9332073 4.3926558 -0.40720809
-2.9230549 4.3854976 -0.33940279
-2.1378057 3.5299964 -0.85008389
-2.9131832 4.3785877 -0.27252382
-2.1570177 3.5520363 -0.81648082
-2.9173925 4.3864622 -0.20715171
-2.1963637 3.5947211 -0.79433155
-2.9095316 4.3816123 -0.14143087
-2.196629 3.597446 -0.74771458
-2.9102631 4.3858013 -0.076381773
-2.2783022 3.6837368 -0.74589705
-2.8865602 4.3642116 -0.011116099
-2.3775661 3.7884243 -0.74719107
-2.8893504 4.3705478 0.053538423
-2.4176877 3.8324745 -0.71465182
-2.8814998 4.3656297 0.1177048
-2.5347292 3.95608 -0.71301705
-2.8698664 4.3567104 0.18166481
-2.7354054 4.1666398 -0.7362088
-2.8681872 4.3583269 0.24622329
-2.9613991 4.4041367 -0.75533956
-2.857316 4.3501639 0.30937755
-2.9637492 4.4102201 -0.68669868
-2.8494568 4.3452349 0.3734442
-2.9510443 4.4122176 -0.615592
-2.9470282 4.4115834 -0.54643011
-2.9446104 4.4125919 -0.4783324
-2.9288151 4.3995347 -0.40774965
-2.9228027 4.3966799 -0.34052634
-2.136904 3.5357926 -0.85200685
-2.9129674 4.3897634 -0.27346146
-2.1459415 3.5475028 -0.81164229
-2.9171665 4.3976622 -0.20790339
-2.1774199 3.5823076 -0.78500026
-2.9038391 4.3869905 -0.14171304
-2.1698022 3.5768809 -0.7343995
-2.9073131 4.3940892 -0.07671278
-2.2757769 3.688695 -0.74679339
-2.8836784 4.372436 -0.011350133
-2.3734467 3.7923172 -0.74739534
-2.8919322 4.3846102 0.053671919
-2.8813529 4.3767543 0.11788708
-2.385309 3.8099837 -0.65064996
-2.8711071 4.3692527 0.18219723
-2.7355776 4.1770954 -0.73858279
-2.8653345 4.3664961 0.24636304
-2.959589 4.4138575 -0.75708234
-2.8585451 4.3626499 0.31037301
-2.9632993 4.4213824 -0.68874592
-2.8520305 4.359127 0.37497264
-2.94889 4.4223146 -0.61707962
-2.9462533 4.4231229 -0.54812878
-1.2805898 2.6582937 -0.29259586
-2.9424984 4.4227123 -0.47954494
-1.289113 2.6677229 -0.28632736
-2.9294887 4.4125085 -0.40933299
-2.918045 4.4038773 -0.34103829
-2.1370144 3.5430887 -0.85481811
-2.9123428 4.4012876 -0.27441716
-2.1523793 3.561399 -0.81850487
-2.9138002 4.4063044 -0.20843892
-2.1774755 3.5898128 -0.7875641
-2.9032488 4.3985162 -0.14229584
-2.1712008 3.5857401 -0.73758352
-2.8985019 4.3968787 -0.076963261
-2.2729914 3.6938794 -0.74770129
-2.8845091 4.385376 -0.011535143
-2.365135 3.7923603 -0.74562365
-2.8872695 4.3917327 0.053443246
-2.4615848 3.8956318 -0.73983467
-2.8794456 4.3867679 0.11793624
-2.579572 4.0217404 -0.73703903
-2.8678608 4.3777728 0.18222623
-2.7247186 4.1767125 -0.73673755
-2.8675156 4.3808241 0.24731646
-2.9546924 4.4211192 -0.75787455
-2.8566701 4.3725791 0.31084245
-2.9557064 4.4258399 -0.68861443
-2.8488135 4.3675733 0.37528175
-2.946687 4.4324203 -0.61856765
-2.9440742 4.4332409 -0.54947966
-2.9403441 4.4328403 -0.48075795
-1.2991147 2.6799848 -0.29501683
-2.9260266 4.4211712 -0.41014892
-2.9187052 4.4168701 -0.34239113
-2.1308522 3.5439236 -0.85324359
-2.9116666 4.4128313 -0.27537411
-2.1474042 3.563561 -0.81785226
-2.9131212 4.4178672 -0.20920947
-2.1851265 3.6052773 -0.79488552
-2.9012403 4.4085932 -0.14280832
-2.1802545 3.6026516 -0.74526882
-2.8965094 4.406951 -0.077335909
-2.2624273 3.6909463 -0.74436855
-2.8825569 4.3954101 -0.011765386
-2.3620479 3.7978237 -0.74650198
-2.8893797 4.4061685 0.053556841
-2.4568877 3.9000177 -0.74006528
-2.8761346 4.3953233 0.11787026
-2.5811036 4.0334134 -0.7401607
-2.8659332 4.3877563 0.1824166
-2.7205167 4.1832743 -0.73753828
-2.8642275 4.3893347 0.24743776
-2.9417615 4.4199238 -0.75575715
-2.8560965 4.3839707 0.31156504
-2.954808 4.4373536 -0.69068074
-2.8455641 4.37602 0.37559074
-2.9471281 4.4453864 -0.62084484
-2.9391611 4.4404893 -0.55013365
-1.2822802 2.6638157 -0.29569179
-2.9394956 4.444417 -0.48227435
-1.3139088 2.6973629 -0.30755073
-2.9252362 4.4327321 -0.4114778
-2.9193046 4.4298849 -0.34374529
-2.138375 3.5590065 -0.86132067
-2.9068651 4.4200101 -0.27583885
-2.1487062 3.5722663 -0.82137674
-2.9055977 4.4221263 -0.20939244
-2.17748 3.6048598 -0.79269379
-2.8991914 4.4186792 -0.14332114
-2.1751497 3.6048615 -0.7447052
-2.9026256 4.4258256 -0.077858768
-2.2299762 3.6649189 -0.72901374
-2.8819194 4.4069161 -0.011974109
-2.3576417 3.8019147 -0.74671662
-2.8846445 4.4132938 0.053328007
-2.4587188 3.9112895 -0.74339026
-2.8754995 4.4068108 0.1180333
-2.5760005 4.0381532 -0.74040937
-2.8639667 4.3977413 0.1826067
-2.7176149 4.1912308 -0.73886871
-2.8635995 4.4007778 0.24797404
-2.9341769 4.4243169 -0.75557745
-2.8514521 4.3909912 0.31152666
-2.9191055 4.4119372 -0.68130904
-2.8422794 4.3844666 0.37589985
-2.9469161 4.4562554 -0.62269258
-2.9363029 4.4484892 -0.55109996
-1.2898126 2.673357 -0.30273968
-2.9326026 4.448092 -0.4822399
-1.2899098 2.6741641 -0.28934771
-2.9251335 4.4436264 -0.41277224
-2.9138179 4.4349489 -0.34401137
-2.138819 3.5659347 -0.86411351
-2.909538 4.433816 -0.27709049
-2.139137 3.5687382 -0.81735766
-2.9055681 4.4330196 -0.21012816
-2.1816781 3.6159761 -0.7976175
-2.8964705 4.4266315 -0.14372756
-2.1692169 3.6052928 -0.74336827
-2.8944747 4.4279137 -0.078072377
-2.2392962 3.6817739 -0.73625702
-2.8778884 4.4133601 -0.012213685
-2.3576303 3.8096287 -0.74889529
-2.8846612 4.4241619 0.053338334
-2.4636664 3.9248407 -0.74792826
-2.8782306 4.4205933 0.11845903
-2.5741093 4.0451131 -0.74177837
-2.8640139 4.4085493 0.18299182
-2.7126997 4.1957679 -0.73910731
-2.859607 4.4071698 0.24792255
-2.929975 4.4308362 -0.75633055
-2.8501642 4.400281 0.3120293
-2.9442792 4.4497666 -0.69169754
-2.8396685 4.3922572 0.37624317
-2.9462857 4.4674816 -0.62455833
-2.9383993 4.462606 -0.55348104
-1.2936504 2.6792321 -0.30678982
-2.9347365 4.4622335 -0.48434532
-2.9232678 4.4534149 -0.4138276
-2.9146903 4.4476466 -0.34534889
-2.1353023 3.5691617 -0.86428237
-2.9009819 4.4362631 -0.27704346
-2.1393671 3.5759251 -0.82003617
-2.9037759 4.4427977 -0.21076442
-2.1780319 3.6193242 -0.79779333
-2.8947091 4.4363904 -0.14422341
-2.1719658 3.615351 -0.74729544
-2.8913631 4.4361954 -0.078403421
-2.2341919 3.6839168 -0.73573369
-2.8788764 4.4260273 -0.012384644
-2.3534501 3.8134668 -0.74909723
-2.8802252 4.4309435 0.053127158
-2.4552639 3.9248109 -0.74628687
-2.873812 4.4273629 0.11829501
-2.5666561 4.0467563 -0.74086136
-2.863663 4.4196987 0.18335886
-2.7074447 4.2005939 -0.73936057
-2.8579113 4.4168301 0.24826799
-2.9214132 4.4334302 -0.75564474
-2.8498151 4.411375 0.31276745
-2.9489505 4.4666629 -0.69550788
-2.8406599 4.4047751 0.37746751
-2.9448545 4.4794054 -0.62646163
-2.9356821 4.4730859 -0.55485117
-1.2758939 2.6626287 -0.29282337
-2.9333789 4.4741788 -0.48588085
-1.2866955 2.6747293 -0.2884832
-2.9206209 4.4638872 -0.41491938
-2.9134221 4.4595728 -0.3465119
-2.1251774 3.5662422 -0.86008191
-2.8984213 4.4466939 -0.2778545
-2.1316543 3.575588 -0.81771743
-2.8998649 4.4517775 -0.21131791
-2.173919 3.6230764 -0.79799044
-2.8948667 4.4497771 -0.14489861
-2.1704087 3.6217933 -0.74899268
-2.8915322 4.449584 -0.078846097
-2.2298863 3.687849 -0.73594022
-2.8736992 4.4334598 -0.012676352
-2.3461609 3.8150103 -0.74799562
-2.8750422 4.4383817 0.052881632
-2.4527905 3.9322169 -0.7477693
-2.8673055 4.4333024 0.11798302
-2.5625143 4.0531292 -0.74169803
-2.8612015 4.4300394 0.18353003
-2.7015133 4.206008 -0.7396453
-2.8514607 4.4227166 0.24795854
-2.9094775 4.4338174 -0.75402188
-2.8447204 4.4187155 0.31271219
-2.9474895 4.4785619 -0.69759446
-2.8395548 4.4164877 0.37835723
-2.9410963 4.4881082 -0.6275574
-2.934618 4.4846816 -0.55655295
-2.9310057 4.4843383 -0.48709607
-1.3013101 2.6922526 -0.30102479
-2.9196362 4.4754934 -0.41625118
-2.9138103 4.4726472 -0.34786975
-2.116529 3.5643837 -0.85674673
-2.9028902 4.464169 -0.2794742
-2.1316178 3.5829785 -0.82040632
-2.9003093 4.4648523 -0.21220922
-2.1687722 3.6252689 -0.79738241
-2.8913002 4.4584041 -0.14534095
-2.165261 3.6239591 -0.74842715
-2.8852918 4.455245 -0.079143681
-2.2436314 3.7107339 -0.74604392
-2.8701971 4.4420342 -0.012929292
-2.3404217 3.8176711 -0.74754447
-2.8782299 4.4543824 0.053057961
-2.4492772 3.9379721 -0.74861848
-2.8691616 4.4477935 0.1183713
-2.562551 4.0634408 -0.74424702
-2.8617265 4.4430218 0.18403873
-2.6998196 4.2153563 -0.74150544
-2.8573084 4.4415827 0.2495258
-2.9044957 4.4409547 -0.75480777
-2.8439269 4.4301462 0.3134321
-2.9463496 4.4901299 -0.6996634
-2.8361204 4.4249425 0.37866551
-2.9367394 4.4946823 -0.62822187
-2.9316103 4.492702 -0.55752039
-1.27525 2.665544 -0.29391187
-2.9240246 4.4879723 -0.48706031
-1.2907917 2.6828477 -0.29337937
-2.9166834 4.4834952 -0.41703266
-2.9055378 4.474751 -0.34771228
-2.1132376 3.5673513 -0.85690236
-2.8973203 4.4691925 -0.27973849
-2.1245742 3.5819941 -0.81805444
-2.8934071 4.4683871 -0.21235441
-2.172821 3.6364498 -0.80230987
-2.891119 4.4693394 -0.14589293
-2.1580508 3.6229739 -0.7463367
-2.8944919 4.4765663 -0.07969109
-2.2450504 3.7195303 -0.74904877
-2.8687327 4.4514384 -0.013126698
-2.3403196 3.8253841 -0.74972361
-2.8727264 4.4593458 0.052797072
-2.4424472 3.9390113 -0.74758011
-2.8676839 4.45719 0.11845216
-2.5579677 4.067574 -0.74446416
-2.8522854 4.4434853 0.18329969
