# .PCD v0.7 - Point Cloud Data file format
VERSION 0.7
FIELDS x y z
SIZE 4 4 4
TYPE F F F
COUNT 1 1 1
WIDTH 2460
HEIGHT 1
VIEWPOINT 0 0 0 1 0 0 0
POINTS 2460
DATA ascii
12.069 3.058 0.133
10.546 2.699 0.478
8.721001 2.254 0.688
11.714001 3.008 0.336
9.55 2.477 0.589
8.049001 2.115 0.773
12.104001 3.133 0.136
10.526001 2.752 0.48
8.699 2.298 0.689
11.668 3.06 0.338
9.504001 2.518 0.589
8.057 2.162 0.777
12.395 3.277 0.142
10.515 2.808 0.482
8.690001 2.344 0.691
11.622001 3.112 0.34
9.481001 2.566 0.591
7.988 2.189 0.774
13.046 3.521 0.153
10.491 2.86 0.484
8.675 2.389 0.693
11.596001 3.17 0.342
9.455001 2.612 0.592
7.993001 2.236 0.777
12.983001 3.576 0.155
10.458 2.909 0.486
8.655001 2.433 0.695
11.567 3.227 0.345
9.433001 2.658 0.594
7.964 2.274 0.778
13.005001 3.654 0.159
10.434001 2.962 0.488
8.669001 2.486 0.699
11.55 3.286 0.347
9.409 2.706 0.596
7.943 2.313 0.779
12.967001 3.716 0.161
10.403001 3.012 0.49
8.586 2.511 0.696
11.525001 3.344 0.349
9.381001 2.751 0.597
7.913001 2.35 0.779
12.915001 3.775 0.164
10.361 3.058 0.491
8.578 2.558 0.698
11.483001 3.397 0.351
9.368 2.8 0.599
7.897 2.392 0.781
12.879001 3.836 0.167
10.337001 3.109 0.493
8.552 2.6 0.699
11.449 3.452 0.354
9.361 2.852 0.602
7.877 2.431 0.782
12.851001 3.9 0.169
10.316001 3.163 0.495
8.536 2.644 0.701
11.417001 3.508 0.356
9.345 2.901 0.604
7.862 2.472 0.784
12.829 3.967 0.172
10.283001 3.212 0.497
8.505 2.684 0.702
11.378 3.561 0.358
9.314 2.945 0.605
7.837 2.51 0.785
12.798 4.03 0.175
10.251 3.261 0.498
8.492001 2.731 0.704
11.351001 3.618 0.36
9.321 3.001 0.609
7.816 2.55 0.786
12.783001 4.099 0.178
10.229 3.314 0.501
8.465 2.771 0.705
11.312 3.67 0.362
9.3 3.05 0.611
7.799 2.59 0.787
12.712001 4.15 0.18
10.215 3.368 0.503
8.450001 2.816 0.707
11.287001 3.728 0.364
9.221001 3.078 0.609
7.782001 2.631 0.789
12.703001 4.221 0.183
10.178 3.415 0.504
8.42 2.856 0.708
11.267 3.787 0.367
9.21 3.128 0.611
7.759 2.67 0.79
12.645 4.274 0.185
10.157001 3.469 0.506
8.412001 2.904 0.711
11.237 3.842 0.369
9.234 3.192 0.616
7.757 2.716 0.793
12.617001 4.338 0.188
10.115001 3.514 0.508
8.398001 2.949 0.713
11.244 3.912 0.372
9.208 3.237 0.618
7.74 2.757 0.795
12.576 4.399 0.19
10.09 3.565 0.51
8.38 2.993 0.715
11.174001 3.953 0.373
9.143001 3.269 0.617
7.718 2.796 0.796
12.569 4.47 0.193
10.058001 3.613 0.511
8.39 3.047 0.718
11.161 4.015 0.376
9.13 3.32 0.619
7.692 2.834 0.797
12.527 4.529 0.195
10.034 3.666 0.513
8.341001 3.08 0.718
11.119 4.066 0.378
9.221001 3.408 0.628
7.655 2.87 0.796
12.514001 4.603 0.198
10.012 3.724 0.515
8.322001 3.132 0.72
11.086 4.134 0.38
9.202001 3.471 0.631
7.637001 2.922 0.799
12.424001 4.666 0.2
9.987 3.793 0.518
8.283 3.183 0.721
11.044001 4.205 0.382
9.068001 3.493 0.626
7.616 2.975 0.801
12.387001 4.75 0.204
9.957001 3.861 0.521
8.254001 3.238 0.723
11.018001 4.282 0.385
9.030001 3.55 0.628
7.586 3.025 0.802
12.332001 4.826 0.206
9.902 3.919 0.522
8.231 3.296 0.725
10.983001 4.356 0.388
8.995001 3.609 0.629
7.569 3.08 0.805
12.302001 4.911 0.209
9.895 3.995 0.525
8.202001 3.351 0.726
10.952001 4.431 0.39
8.97 3.672 0.632
7.543 3.132 0.806
12.27 4.998 0.212
9.848001 4.056 0.527
8.18 3.41 0.729
10.63 4.386 0.382
8.941 3.733 0.634
7.533 3.19 0.81
12.231001 5.08 0.215
9.795 4.114 0.528
8.156 3.467 0.731
10.917001 4.595 0.397
8.919001 3.797 0.636
7.541 3.257 0.815
12.252001 5.188 0.219
9.739 4.17 0.528
8.134001 3.526 0.733
10.205001 4.378 0.374
8.883 3.856 0.638
7.486001 3.297 0.813
12.199 5.265 0.221
9.717 4.242 0.531
8.132 3.593 0.737
10.213 4.466 0.377
8.853001 3.917 0.639
7.451 3.345 0.814
12.143001 5.342 0.223
9.728001 4.328 0.535
8.088 3.643 0.737
10.242001 4.564 0.382
8.866 3.998 0.644
7.425 3.397 0.815
12.115001 5.43 0.225
9.712001 4.403 0.538
8.059 3.699 0.738
10.343 4.696 0.389
8.815001 4.05 0.644
7.394001 3.447 0.816
12.084001 5.517 0.228
9.652 4.457 0.538
8.025001 3.752 0.739
10.727 4.96 0.406
8.771001 4.105 0.644
7.37 3.5 0.818
12.043 5.601 0.229
9.652 4.54 0.541
7.998 3.808 0.741
10.675 5.027 0.407
8.752001 4.171 0.647
7.346 3.553 0.819
12.009001 5.687 0.231
9.616 4.606 0.543
7.974 3.867 0.742
10.662001 5.113 0.41
8.726001 4.235 0.648
7.319 3.605 0.82
11.981001 5.777 0.234
9.585 4.675 0.545
7.956 3.929 0.744
10.616 5.183 0.411
8.705001 4.301 0.65
7.306 3.664 0.823
11.942 5.862 0.235
9.558001 4.745 0.546
7.929 3.986 0.746
10.582001 5.259 0.412
8.683001 4.368 0.652
7.294 3.724 0.825
11.916 5.952 0.236
9.537001 4.819 0.547
7.916 4.051 0.748
10.551001 5.337 0.413
8.666 4.436 0.654
7.279 3.783 0.828
11.885 6.042 0.238
9.511001 4.891 0.549
7.899 4.114 0.75
10.534 5.422 0.415
8.64 4.501 0.655
7.257 3.839 0.829
11.858001 6.133 0.239
9.506001 4.974 0.552
7.874001 4.173 0.751
10.511001 5.504 0.417
8.591001 4.554 0.655
7.228 3.89 0.829
11.833 6.227 0.239
9.472 5.043 0.552
7.842 4.229 0.751
10.562 5.626 0.421
8.591001 4.633 0.658
7.2 3.943 0.83
11.901001 6.37 0.242
9.447001 5.116 0.553
7.816 4.287 0.752
10.481001 5.68 0.419
8.575001 4.705 0.659
7.176 3.997 0.831
11.728001 6.384 0.24
9.415001 5.186 0.554
7.791 4.347 0.753
10.441001 5.754 0.419
8.553 4.772 0.66
7.152 4.053 0.831
11.716001 6.487 0.24
9.393001 5.262 0.554
7.777 4.413 0.754
10.427 5.843 0.42
8.533 4.842 0.661
7.134 4.112 0.833
11.696 6.585001 0.241
9.375 5.34 0.555
7.758 4.477 0.755
10.402 5.927 0.42
8.507 4.909 0.661
7.115 4.169 0.834
11.68 6.685 0.241
9.345 5.412 0.555
7.735 4.539 0.756
10.381001 6.015 0.421
8.496 4.984 0.662
7.092 4.226 0.834
11.717001 6.818 0.241
9.341001 5.499 0.556
7.736001 4.615 0.759
10.376 6.111 0.421
8.48 5.058 0.664
7.09 4.296 0.837
11.731001 6.938 0.242
9.307 5.57 0.555
7.714 4.678 0.758
10.364 6.204 0.421
8.462001 5.129 0.664
7.075 4.358 0.838
11.712001 7.04 0.241
9.328 5.674 0.558
7.712 4.755 0.761
10.330001 6.285 0.42
8.48 5.225 0.666
7.054 4.416 0.838
11.686001 7.139 0.239
9.31 5.755 0.558
7.685 4.815 0.76
10.319 6.38 0.42
8.447001 5.289 0.666
7.033 4.476 0.838
11.669001 7.245 0.238
9.3 5.843 0.558
7.672 4.886 0.761
10.298 6.47 0.419
8.386001 5.337 0.662
7.026 4.544 0.84
11.665001 7.358 0.236
9.280001 5.925 0.557
7.654 4.954 0.761
10.295 6.573 0.418
8.435 5.455 0.667
6.992 4.595 0.838
11.679001 7.484 0.235
9.264001 6.009 0.557
7.637001 5.022 0.761
10.293 6.676 0.417
8.414001 5.528 0.666
6.977 4.66 0.838
11.663 7.595 0.232
9.243 6.092 0.555
7.627 5.096 0.761
10.298 6.785 0.416
8.353001 5.575 0.662
6.979001 4.736 0.84
11.677001 7.724 0.23
9.246 6.191 0.555
7.624001 5.176 0.762
10.3 6.895 0.415
8.361 5.669 0.663
6.958 4.797 0.84
11.670001 7.84 0.227
9.258 6.296 0.555
7.613 5.25 0.762
10.259001 6.975 0.411
8.367001 5.764 0.663
6.954 4.871 0.841
11.672001 7.965 0.223
9.238001 6.381001 0.553
7.598001 5.322 0.761
10.245001 7.075 0.408
8.351001 5.843 0.662
6.961 4.953 0.843
11.661 8.083 0.219
9.216001 6.467 0.55
7.59 5.401 0.761
10.256001 7.194 0.406
8.339001 5.925 0.66
6.961 5.03 0.844
11.721001 8.25 0.216
9.209001 6.562 0.548
7.581 5.479 0.76
10.253 7.303 0.403
8.332001 6.014 0.659
6.937 5.093 0.842
11.765 8.409 0.212
9.194 6.652 0.545
7.561 5.549 0.758
10.256001 7.418 0.4
8.334001 6.109 0.658
6.93 5.167 0.841
11.752001 8.531 0.206
9.196 6.758 0.543
7.558001 5.634 0.757
10.235001 7.516 0.395
8.339001 6.206 0.657
6.922 5.241 0.841
11.741 8.653001 0.2
9.209001 6.872 0.541
7.562 5.724 0.757
10.264001 7.655 0.392
8.339001 6.303 0.655
6.914001 5.316 0.84
11.759001 8.799001 0.194
9.271001 7.023 0.541
7.549 5.802 0.755
10.296 7.796 0.388
8.34 6.4 0.653
6.88 5.372 0.835
11.802001 8.968 0.187
9.265 7.127 0.537
7.559 5.898 0.755
10.302 7.920001 0.383
8.346001 6.502 0.651
6.902 5.472 0.838
11.844001 9.136001 0.18
9.268001 7.239 0.533
7.561 5.991 0.753
10.351001 8.079 0.379
8.313001 6.576 0.646
6.899 5.554 0.837
11.861001 9.288 0.172
9.241 7.326 0.527
7.564 6.084 0.751
10.391001 8.233001 0.374
8.324 6.685 0.643
6.903 5.643 0.836
11.896001 9.459001 0.164
9.259001 7.453001 0.524
7.562 6.176 0.749
10.417001 8.378 0.368
8.33 6.791 0.639
6.893 5.719 0.833
11.959001 9.651 0.155
9.278001 7.581 0.519
7.558001 6.266 0.745
10.441001 8.525001 0.362
8.342 6.903 0.637
6.88 5.796 0.83
11.961 9.798 0.145
9.334001 7.741 0.516
7.557 6.359 0.742
10.478001 8.684 0.355
8.372001 7.033 0.634
6.87 5.875 0.826
12.024 9.998 0.135
9.315001 7.842 0.509
7.579 6.474 0.74
10.517 8.846001 0.347
8.365001 7.133 0.628
6.85 5.947001 0.821
12.063001 10.182 0.123
9.356001 7.995 0.503
7.57 6.565001 0.736
10.530001 8.990001 0.338
8.407001 7.275001 0.626
6.854 6.04 0.819
12.123 10.385 0.11
9.391001 8.144 0.498
7.596 6.685 0.734
10.619 9.202001 0.33
8.429001 7.404 0.621
6.895 6.167 0.821
12.196001 10.604 0.098
9.439 8.308001 0.492
7.612 6.799 0.73
10.646001 9.363001 0.32
8.439 7.523 0.615
6.924 6.286 0.82
12.283001 10.84 0.083
9.452001 8.444 0.483
7.603 6.892 0.724
10.693001 9.544001 0.31
8.455001 7.649 0.609
6.948 6.401 0.818
12.376 11.084001 0.068
9.492001 8.605 0.475
7.608 6.999001 0.718
10.765 9.751 0.299
8.509001 7.811 0.604
6.941 6.49 0.813
12.492001 11.354 0.052
9.515 8.754001 0.466
7.62 7.114 0.713
10.877001 9.998 0.288
8.534 7.951 0.597
6.957 6.602 0.809
12.665001 11.683001 0.034
9.588 8.951 0.459
7.656 7.253 0.709
10.945001 10.209001 0.276
8.568001 8.1 0.59
6.960001 6.702 0.804
12.698001 11.885 0.015
9.647 9.139001 0.448
7.708 7.41 0.706
11.031 10.440001 0.262
8.595 8.244 0.582
6.984 6.824 0.801
11.941001 11.342001 -0.004
9.727 9.35 0.44
7.76 7.569 0.702
11.098001 10.659 0.246
8.636001 8.406 0.573
6.998 6.939 0.795
12.754001 12.293 -0.025
9.743 9.502001 0.426
7.752 7.672 0.692
11.204 10.919001 0.231
8.665 8.556001 0.563
7.019001 7.061 0.79
12.684001 12.407001 -0.049
9.786 9.684 0.413
7.785 7.816 0.686
11.287001 11.160001 0.214
8.725 8.741 0.555
7.137001 7.285 0.795
12.621 12.526001 -0.072
9.854 9.893001 0.4
7.814001 7.960001 0.677
11.399 11.436001 0.195
8.782001 8.926001 0.545
7.054 7.303 0.777
12.558001 12.645 -0.096
10.025001 10.21 0.39
7.862 8.124001 0.67
11.548 11.754001 0.177
8.851001 9.126 0.535
7.214 7.578001 0.784
12.491 12.763 -0.123
10.085 10.421 0.373
7.881001 8.261001 0.659
11.633 12.011001 0.155
8.911 9.320001 0.523
7.151 7.619 0.767
12.416 12.872001 -0.148
10.174001 10.664001 0.357
7.915 8.415 0.649
12.06 12.633 0.134
8.995001 9.541 0.512
7.271 7.858 0.769
12.316001 12.954 -0.175
10.269 10.919001 0.34
7.989 8.615001 0.641
12.003 12.755001 0.108
9.076 9.766001 0.498
7.257 7.954 0.754
11.920001 12.721001 -0.2
10.371 11.183001 0.321
8.103001 8.861 0.635
11.663 12.571001 0.078
9.146001 9.981001 0.484
7.282001 8.094001 0.745
11.468 12.416 -0.22
10.464001 11.445001 0.3
8.178 9.070001 0.624
11.556001 12.633 0.049
9.223001 10.206 0.468
7.329 8.26 0.736
11.504001 12.634001 -0.251
10.495001 11.643001 0.277
8.214001 9.236 0.61
10.864 12.048 0.018
9.348001 10.489 0.452
7.361001 8.412001 0.723
11.297001 12.585001 -0.278
10.747001 12.09 0.257
8.269 9.427 0.596
10.691001 12.024 -0.01
9.418 10.715 0.434
7.420001 8.597 0.714
10.681001 12.071 -0.294
10.48 11.955001 0.222
8.349 9.649 0.582
10.458 11.927001 -0.039
1.919 2.213 0.083
7.493001 8.8 0.704
10.392 11.911 -0.318
1.907 2.206 0.035
8.465 9.917001 0.569
1.871 2.164 -0.012
1.908 2.231 0.077
7.51 8.938001 0.688
1.888 2.194 -0.063
1.901 2.23 0.029
8.535001 10.134001 0.552
1.9 2.228 -0.018
1.899 2.251 0.072
7.626 9.199 0.679
1.889 2.227 -0.07
1.888 2.244 0.023
8.634001 10.388 0.535
1.891 2.248 -0.024
1.882 2.261 0.066
7.716001 9.429001 0.666
1.879 2.246 -0.076
1.87 2.253 0.017
8.485001 10.345 0.501
1.877 2.263 -0.03
1.873 2.279 0.06
7.808001 9.665001 0.652
1.866 2.262 -0.082
1.869 2.283 0.011
8.285001 10.232 0.464
1.87 2.284 -0.037
1.862 2.296 0.053
7.888 9.89 0.635
1.855 2.281 -0.089
1.861 2.302 0.005
1.806 2.259 0.095
1.857 2.299 -0.043
1.851 2.312 0.047
8.011001 10.171 0.621
1.841 2.294 -0.095
1.851 2.321 -0.001
1.832 2.321 0.09
1.848 2.319 -0.05
1.839 2.327 0.04
7.986001 10.264001 0.593
1.834 2.317 -0.102
1.839 2.336 -0.008
1.837 2.356 0.084
1.828 2.324 -0.057
1.829 2.344 0.033
7.951 10.342001 0.562
1.82 2.33 -0.109
1.826 2.349 -0.015
1.822 2.365 0.077
1.812 2.334 -0.064
1.819 2.358 0.026
7.903 10.401 0.531
1.812 2.352 -0.117
1.818 2.368 -0.022
1.817 2.386 0.07
1.802 2.35 -0.071
1.807 2.372 0.019
7.862 10.465 0.499
1.801 2.368 -0.124
1.802 2.375 -0.03
1.814 2.409 0.062
1.801 2.379 -0.079
1.794 2.382 0.011
7.679 10.334001 0.457
1.794 2.39 -0.132
1.792 2.391 -0.037
1.799 2.416 0.055
1.789 2.392 -0.087
1.786 2.399 0.003
1.779 2.419 0.098
1.782 2.404 -0.14
1.781 2.403 -0.045
1.793 2.435 0.047
1.776 2.403 -0.094
1.771 2.406 -0.004
1.777 2.443 0.091
1.764 2.409 -0.148
1.769 2.414 -0.053
1.777 2.438 0.039
1.768 2.421 -0.103
1.774 2.435 -0.012
1.774 2.462 0.083
1.758 2.43 -0.156
1.76 2.429 -0.061
1.772 2.455 0.03
1.759 2.436 -0.111
1.756 2.435 -0.02
1.767 2.475 0.074
1.744 2.44 -0.164
1.75 2.441 -0.07
1.763 2.466 0.022
1.748 2.447 -0.119
1.753 2.455 -0.029
1.761 2.488 0.066
1.73 2.449 -0.173
1.742 2.455 -0.078
1.751 2.471 0.013
1.739 2.461 -0.128
1.744 2.465 -0.037
1.753 2.497 0.057
1.726 2.47 -0.182
1.731 2.463 -0.087
1.748 2.488 0.004
1.73 2.473 -0.137
1.731 2.468 -0.046
1.745 2.504 0.048
1.715 2.48 -0.191
1.728 2.48 -0.096
1.741 2.496 -0.003
1.725 2.49 -0.146
1.731 2.489 -0.055
1.731 2.502 0.039
1.706 2.493 -0.2
1.718 2.489 -0.105
1.734 2.505 -0.012
1.707 2.486 -0.155
1.724 2.497 -0.064
1.731 2.517 0.03
1.697 2.505 -0.21
1.712 2.5 -0.114
1.727 2.511 -0.022
1.697 2.493 -0.164
1.72 2.509 -0.074
1.726 2.523 0.021
1.688 2.514 -0.219
1.709 2.513 -0.124
1.724 2.521 -0.031
1.69 2.503 -0.173
1.706 2.504 -0.083
1.721 2.528 0.011
1.677 2.519 -0.228
1.704 2.523 -0.133
1.714 2.518 -0.04
1.69 2.521 -0.183
1.702 2.512 -0.092
1.714 2.528 0.002
1.676 2.538 -0.239
1.697 2.527 -0.143
1.712 2.525 -0.05
1.682 2.525 -0.193
1.699 2.519 -0.101
1.716 2.538 -0.007
1.668 2.544 -0.249
1.689 2.528 -0.152
1.713 2.535 -0.06
1.681 2.538 -0.203
1.689 2.514 -0.111
1.704 2.527 -0.017
1.671 2.564 -0.26
1.692 2.543 -0.163
1.71 2.537 -0.069
1.679 2.546 -0.213
1.69 2.523 -0.121
1.705 2.531 -0.026
1.664 2.568 -0.27
1.688 2.547 -0.173
1.704 2.533 -0.079
1.663 2.532 -0.222
1.689 2.527 -0.13
1.704 2.531 -0.036
1.656 2.567 -0.279
1.681 2.542 -0.182
1.704 2.535 -0.089
1.666 2.545 -0.233
1.687 2.527 -0.14
1.703 2.529 -0.045
1.65 2.568 -0.289
1.678 2.541 -0.191
1.706 2.538 -0.098
1.657 2.537 -0.241
1.686 2.528 -0.15
1.705 2.529 -0.055
1.645 2.567 -0.299
1.68 2.546 -0.202
1.701 2.527 -0.107
1.661 2.546 -0.252
1.695 2.538 -0.16
1.705 2.523 -0.064
1.643 2.568 -0.309
1.674 2.536 -0.211
1.701 2.523 -0.117
1.658 2.542 -0.262
1.696 2.537 -0.17
1.712 2.525 -0.074
1.644 2.572 -0.319
1.676 2.537 -0.22
1.708 2.526 -0.127
1.661 2.545 -0.272
1.693 2.527 -0.179
1.712 2.515 -0.084
1.646 2.575 -0.33
1.68 2.538 -0.23
1.707 2.516 -0.136
1.664 2.546 -0.282
1.692 2.517 -0.188
1.719 2.513 -0.093
1.643 2.567 -0.339
1.675 2.522 -0.239
1.71 2.509 -0.145
1.66 2.533 -0.29
1.701 2.52 -0.198
1.718 2.499 -0.102
1.648 2.568 -0.349
1.685 2.527 -0.249
1.713 2.5 -0.154
1.67 2.539 -0.301
1.7 2.505 -0.207
1.726 2.494 -0.111
1.652 2.565 -0.359
1.682 2.511 -0.257
1.721 2.496 -0.163
1.672 2.53 -0.31
1.7 2.491 -0.215
1.731 2.485 -0.12
1.648 2.548 -0.367
1.69 2.507 -0.267
1.725 2.486 -0.172
1.671 2.515 -0.318
1.708 2.487 -0.224
1.739 2.477 -0.129
1.66 2.552 -0.378
1.694 2.496 -0.276
1.733 2.478 -0.181
1.677 2.508 -0.327
1.713 2.476 -0.233
1.746 2.468 -0.137
1.658 2.533 -0.385
1.699 2.486 -0.284
1.736 2.463 -0.189
1.682 2.497 -0.336
1.719 2.465 -0.241
1.749 2.45 -0.145
1.669 2.531 -0.396
1.71 2.483 -0.294
1.741 2.449 -0.197
1.699 2.503 -0.347
1.723 2.451 -0.249
1.756 2.437 -0.154
1.674 2.519 -0.404
1.709 2.461 -0.3
1.753 2.443 -0.206
1.702 2.487 -0.354
1.731 2.439 -0.257
1.766 2.426 -0.162
1.681 2.508 -0.412
1.715 2.446 -0.308
1.755 2.422 -0.213
1.708 2.471 -0.362
1.737 2.424 -0.265
1.769 2.406 -0.169
1.688 2.494 -0.42
1.722 2.432 -0.316
1.771 2.419 -0.222
1.716 2.459 -0.37
1.742 2.406 -0.272
1.784 2.4 -0.177
1.693 2.476 -0.427
1.741 2.434 -0.326
1.776 2.4 -0.229
1.72 2.438 -0.376
1.761 2.406 -0.281
1.794 2.387 -0.185
1.698 2.456 -0.434
1.742 2.409 -0.332
1.786 2.387 -0.237
1.729 2.425 -0.384
1.769 2.391 -0.288
1.802 2.371 -0.192
1.709 2.445 -0.442
1.751 2.394 -0.339
1.792 2.368 -0.243
1.739 2.412 -0.391
1.777 2.373 -0.295
1.804 2.344 -0.198
1.716 2.426 -0.448
1.767 2.387 -0.347
1.803 2.354 -0.251
1.754 2.403 -0.399
1.784 2.355 -0.302
1.812 2.327 -0.205
1.727 2.412 -0.455
1.778 2.373 -0.354
1.808 2.331 -0.256
1.758 2.38 -0.405
1.797 2.343 -0.309
1.824 2.313 -0.212
1.737 2.396 -0.462
1.786 2.354 -0.36
1.816 2.313 -0.263
1.769 2.364 -0.411
1.799 2.317 -0.314
1.827 2.288 -0.217
1.742 2.371 -0.467
1.792 2.333 -0.366
1.829 2.301 -0.269
1.775 2.341 -0.417
1.814 2.306 -0.321
1.84 2.275 -0.224
1.76 2.363 -0.475
1.8 2.312 -0.371
1.838 2.281 -0.275
1.785 2.323 -0.423
1.822 2.286 -0.326
1.849 2.255 -0.229
1.769 2.343 -0.48
1.811 2.296 -0.377
1.846 2.262 -0.281
1.8 2.312 -0.429
1.834 2.271 -0.332
1.856 2.234 -0.235
1.78 2.324 -0.486
1.825 2.282 -0.383
1.854 2.242 -0.286
1.809 2.292 -0.435
1.841 2.249 -0.337
1.869 2.22 -0.241
1.794 2.31 -0.492
1.84 2.27 -0.39
1.86 2.218 -0.291
1.822 2.277 -0.44
1.848 2.227 -0.342
1.881 2.203 -0.246
1.807 2.294 -0.498
1.84 2.238 -0.393
1.867 2.196 -0.295
1.835 2.26 -0.446
1.863 2.214 -0.348
7.361001 8.506001 -0.979
1.813 2.268 -0.501
1.855 2.225 -0.398
4.86 5.639 -0.778
1.841 2.236 -0.45
1.861 2.181 -0.35
7.423 8.46 -1.001
1.819 2.242 -0.504
1.854 2.192 -0.401
4.91 5.618 -0.793
1.852 2.217 -0.454
4.882 5.641 -0.927
7.443 8.364 -1.017
1.835 2.229 -0.51
1.91 2.227 -0.415
4.95 5.584 -0.808
1.897 2.237 -0.467
4.927 5.611 -0.942
5.056 5.602 -0.698
1.853 2.216 -0.516
1.935 2.223 -0.423
5.006 5.568 -0.824
1.955 2.271 -0.483
4.984 5.595 -0.958
5.096 5.566 -0.712
1.939 2.285 -0.541
1.959 2.218 -0.43
5.07 5.558 -0.841
1.969 2.255 -0.488
3.429 3.795 -0.663
5.148 5.543 -0.726
1.95 2.263 -0.545
1.984 2.213 -0.437
5.115 5.527 -0.855
1.982 2.236 -0.492
1.933 2.108 -0.375
3.514 3.729 -0.5
1.968 2.249 -0.55
2.002 2.201 -0.442
3.532 3.762 -0.594
2.003 2.225 -0.498
1.954 2.099 -0.381
3.542 3.704 -0.509
1.983 2.231 -0.555
2.028 2.196 -0.449
3.565 3.742 -0.603
2.015 2.205 -0.502
1.969 2.085 -0.386
3.579 3.689 -0.518
1.993 2.209 -0.558
2.045 2.181 -0.454
3.584 3.707 -0.609
2.031 2.189 -0.506
1.992 2.078 -0.391
3.608 3.665 -0.525
2.011 2.193 -0.563
2.06 2.165 -0.458
3.617 3.686 -0.618
2.052 2.178 -0.512
2.021 2.077 -0.398
3.645 3.648 -0.534
2.012 2.161 -0.563
2.081 2.154 -0.464
3.661 3.675 -0.628
2.075 2.169 -0.518
2.037 2.062 -0.403
3.689 3.638 -0.544
2.021 2.137 -0.565
2.098 2.139 -0.468
3.681 3.641 -0.634
2.094 2.155 -0.523
2.053 2.047 -0.406
4.98 4.839 -0.738
1.973 2.053 -0.551
2.126 2.134 -0.475
3.72 3.625 -0.643
2.114 2.142 -0.528
2.069 2.032 -0.411
1.816 1.739 -0.27
1.929 1.976 -0.538
2.139 2.114 -0.478
4.919 4.722 -0.852
2.134 2.13 -0.533
3.729 3.608 -0.741
1.933 1.823 -0.289
1.84 1.855 -0.512
2.171 2.114 -0.485
1.938 1.833 -0.336
1.755 1.724 -0.438
1.838 1.752 -0.365
5.07 4.71 -0.76
1.911 1.897 -0.532
1.839 1.763 -0.411
5.024 4.68 -0.874
1.808 1.749 -0.451
1.928 1.81 -0.384
5.077 4.647 -0.764
1.817 1.775 -0.504
1.866 1.761 -0.417
5.057 4.639 -0.881
1.831 1.744 -0.456
1.955 1.807 -0.389
5.125 4.62 -0.773
1.812 1.742 -0.502
1.958 1.82 -0.437
1.98 1.789 -0.345
1.863 1.746 -0.463
1.956 1.78 -0.389
2.002 1.778 -0.302
1.831 1.733 -0.506
2.14 1.958 -0.477
1.995 1.775 -0.348
5.686 5.247 -1.411
5.253 4.708 -1.046
1.996 1.746 -0.302
5.287 4.922 -1.458
4.592 4.137 -1.024
5.134 4.499 -0.897
6.368001 5.784 -1.578
5.165 4.558 -1.029
5.178 4.459 -0.786
2.132 1.953 -0.586
4.622 4.1 -1.029
5.177 4.468 -0.905
6.389 5.711 -1.58
5.292 4.598 -1.053
2.041 1.731 -0.31
1.724 1.554 -0.473
4.652 4.062 -1.035
2.036 1.73 -0.356
5.438 4.785 -1.342
2.001 1.712 -0.398
2.047 1.71 -0.311
1.621 1.438 -0.443
2.01 1.727 -0.446
2.034 1.702 -0.355
5.483 4.748 -1.35
2.017 1.699 -0.4
2.004 1.648 -0.304
1.618 1.412 -0.441
2.013 1.703 -0.446
2.003 1.65 -0.349
2.014 1.716 -0.494
5.208 4.317 -1.033
2.071 1.677 -0.315
1.625 1.396 -0.442
4.731 3.94 -1.046
2.005 1.626 -0.35
6.678 5.6 -1.635
1.982 1.618 -0.392
5.294 4.222 -0.805
1.641 1.387 -0.444
1.979 1.622 -0.436
5.28 4.216 -0.92
2.003 1.653 -0.489
2.034 1.634 -0.402
5.337 4.191 -0.811
1.694 1.408 -0.457
1.963 1.584 -0.432
5.323 4.184 -0.926
1.967 1.597 -0.479
5.332 4.216 -1.051
5.359 4.142 -0.814
1.752 1.432 -0.471
4.8 3.81 -1.053
5.348 4.139 -0.929
1.964 1.57 -0.477
5.242 4.08 -1.031
5.376 4.09 -0.815
1.803 1.451 -0.483
4.819 3.764 -1.055
5.364 4.085 -0.931
2.031 1.597 -0.491
5.511 4.222 -1.082
5.404 4.048 -0.819
2.16 1.709 -0.577
4.839 3.72 -1.056
5.386 4.038 -0.933
6.651 5.144 -1.604
5.449 4.107 -1.067
5.585 4.118 -0.845
2.336 1.818 -0.621
4.867 3.681 -1.059
5.472 4.037 -0.945
6.742 5.13 -1.62
5.475 4.061 -1.069
5.656 4.104 -0.854
2.381 1.823 -0.631
4.875 3.627 -1.057
5.221 3.792 -0.9
5.394 4.038 -1.292
5.104 3.726 -0.994
5.679 4.055 -0.856
5.283 3.978 -1.395
4.897 3.585 -1.059
5.235 3.74 -0.9
5.054 3.721 -1.206
5.117 3.674 -0.993
8.228001 5.783 -1.238
5.006 3.707 -1.316
4.91 3.536 -1.058
5.245 3.688 -0.899
5.321 3.854 -1.264
5.142 3.633 -0.995
5.477 3.787 -0.822
5.322 3.875 -1.393
4.924 3.489 -1.057
5.286 3.657 -0.904
5.617 4.001 -1.33
4.982 3.463 -0.961
5.449 3.708 -0.816
5.567 3.986 -1.451
4.933 3.437 -1.055
5.281 3.594 -0.9
4.911 3.44 -1.158
5.021 3.434 -0.966
5.432 3.637 -0.811
4.899 3.45 -1.272
4.956 3.397 -1.056
5.245 3.511 -0.891
5.355 3.689 -1.258
5.151 3.464 -0.987
5.392 3.551 -0.803
5.335 3.693 -1.378
4.946 3.335 -1.05
5.163 3.401 -0.875
5.352 3.626 -1.252
5.186 3.431 -0.99
5.356 3.47 -0.795
5.369 3.654 -1.381
4.974 3.297 -1.052
5.206 3.372 -0.879
5.866 3.907 -1.366
5.155 3.354 -0.981
5.327 3.395 -0.788
5.82 3.894 -1.491
4.407 2.873 -0.928
5.325 3.393 -0.896
4.369 2.861 -1.013
5.204 3.329 -0.986
5.927 3.715 -0.874
4.345 2.858 -1.108
4.464 2.861 -0.936
5.701 3.572 -0.956
4.442 2.86 -1.026
5.606 3.527 -1.058
5.994 3.695 -0.881
4.383 2.833 -1.112
4.482 2.824 -0.936
5.819 3.585 -0.972
4.443 2.812 -1.021
5.194 3.213 -0.977
6.019 3.648 -0.882
4.374 2.778 -1.105
4.457 2.761 -0.927
5.576 3.378 -0.928
4.441 2.762 -1.017
5.159 3.137 -0.966
6.036 3.598 -0.881
4.38 2.734 -1.101
4.467 2.72 -0.925
4.347 2.588 -0.721
4.438 2.713 -1.012
4.592 2.744 -0.856
4.36 2.554 -0.634
4.383 2.688 -1.097
4.322 2.586 -0.891
4.323 2.53 -0.714
4.243 2.548 -0.962
4.302 2.527 -0.799
4.394 2.531 -0.636
4.199 2.53 -1.046
4.228 2.485 -0.868
4.345 2.499 -0.714
4.223 2.492 -0.954
4.25 2.453 -0.786
4.47 2.531 -0.645
4.317 2.555 -1.07
4.216 2.435 -0.862
4.388 2.481 -0.719
4.218 2.446 -0.948
4.314 2.446 -0.794
6.104 3.395 -0.877
4.384 2.549 -1.082
4.378 2.485 -0.891
4.425 2.458 -0.721
4.471 2.547 -1.001
4.401 2.452 -0.807
6.162 3.368 -0.882
4.591 2.621 -1.128
4.626 2.579 -0.937
4.497 2.454 -0.73
5.157 2.885 -1.149
4.462 2.442 -0.814
6.197001 3.328 -0.883
6.575 3.687 -1.608
5.269 2.885 -1.063
5.767 3.092 -0.933
5.213 2.864 -1.156
4.521 2.431 -0.822
6.122 3.23 -0.869
6.596 3.632 -1.605
5.35 2.877 -1.074
5.84 3.075 -0.94
5.238 2.826 -1.156
5.327 2.813 -0.964
6.259 3.243 -0.884
6.707 3.625 -1.624
5.29 2.793 -1.057
5.861 3.031 -0.939
5.078 2.689 -1.115
5.468 2.835 -0.985
6.298 3.205 -0.886
4.988 2.646 -1.202
5.352 2.775 -1.065
6.04 3.067 -0.964
5.037 2.618 -1.101
5.826 2.966 -1.045
6.321 3.158 -0.885
4.993 2.6 -1.197
5.569 2.834 -1.103
5.86 2.921 -0.931
5.06 2.581 -1.101
5.596 2.796 -0.999
6.348001 3.113 -0.885
5.024 2.566 -1.199
5.572 2.783 -1.098
5.944 2.909 -0.94
5.075 2.541 -1.099
5.824 2.856 -1.035
6.377 3.07 -0.885
5.04 2.526 -1.197
5.501 2.695 -1.079
6.123 2.94 -0.964
5.099 2.504 -1.099
5.702 2.743 -1.008
6.427001 3.036 -0.887
5.06 2.488 -1.196
5.508 2.648 -1.076
6.014 2.833 -0.942
5.112 2.462 -1.097
5.628 2.657 -0.991
6.455 2.992 -0.887
5.084 2.451 -1.196
5.495 2.591 -1.068
6.006001 2.776 -0.936
5.137 2.427 -1.097
5.535 2.562 -0.97
11.335001 5.154 -1.551
5.096 2.409 -1.193
5.403 2.499 -1.045
6.078 2.755 -0.943
5.162 2.391 -1.097
5.469 2.483 -0.954
6.427001 2.866 -0.875
5.105 2.366 -1.19
5.397 2.447 -1.039
6.187 2.75 -0.956
5.309 2.411 -1.123
5.649 2.514 -0.981
6.465 2.827 -0.876
5.13 2.33 -1.19
5.433 2.415 -1.041
6.323 2.755 -0.972
5.426 2.415 -1.143
5.872 2.562 -1.014
5.865 2.514 -0.791
5.456 2.428 -1.26
5.5 2.395 -1.049
5.827 2.489 -0.891
5.71 2.49 -1.197
5.536 2.367 -0.952
5.822001 2.446 -0.781
5.679 2.476 -1.305
5.386 2.298 -1.023
5.808 2.431 -0.885
5.362 2.29 -1.119
5.345 2.239 -0.915
5.86 2.412 -0.782
5.327 2.275 -1.218
5.359 2.24 -1.013
5.556 2.277 -0.842
5.336 2.232 -1.108
5.379 2.207 -0.916
5.901 2.379 -0.784
5.349 2.236 -1.218
5.368 2.197 -1.01
5.561 2.233 -0.839
5.355 2.193 -1.107
5.375 2.159 -0.911
5.938 2.344 -0.785
5.371 2.198 -1.217
5.384 2.157 -1.008
5.922 2.327 -0.889
5.377 2.156 -1.106
5.397 2.122 -0.911
6.192 2.394 -0.815
5.385 2.156 -1.214
5.409 2.121 -1.008
6.433 2.475 -0.961
5.397 2.117 -1.105
5.419 2.085 -0.91
6.896 2.609 -0.903
5.408 2.119 -1.214
5.43 2.083 -1.007
6.57 2.473 -0.977
5.419 2.079 -1.105
5.442 2.049 -0.91
10.127001 3.748 -1.32
5.44 2.084 -1.216
5.458 2.048 -1.008
6.547 2.411 -0.969
5.432 2.038 -1.102
5.458 2.01 -0.908
13.106001 4.745 -1.7
5.454 2.043 -1.214
5.474 2.009 -1.007
6.887001 2.479 -1.015
5.457 2.002 -1.103
6.52 2.347 -1.08
13.116 4.643 -1.693
5.479 2.006 -1.214
10.215 3.664 -1.87
10.151 3.573 -1.489
10.349001 3.71 -2.082
9.914001 3.488 -1.636
13.249001 4.583 -1.702
6.256001 2.237 -1.38
9.862 3.456 -1.798
10.457001 3.597 -1.527
9.841001 3.447 -1.972
9.941001 3.417 -1.633
13.281001 4.489 -1.698
6.288 2.196 -1.381
9.388 3.213 -1.704
12.847001 4.315 -1.867
9.38 3.207 -1.871
9.931001 3.334 -1.624
10.289001 3.397 -1.309
9.368 3.194 -2.049
9.516001 3.18 -1.719
12.918 4.236 -1.869
9.503 3.172 -1.887
10.303 3.375 -1.677
13.307 4.287 -1.686
9.493 3.158 -2.067
10.021001 3.268 -1.803
13.828001 4.426 -1.992
12.076 3.933 -2.389
10.339001 3.305 -1.676
10.482 3.296 -1.321
10.382001 3.369 -2.252
10.121 3.219 -1.813
13.454 4.2 -1.929
12.149 3.858 -2.393
10.179001 3.174 -1.643
10.160001 3.116 -1.275
10.468 3.312 -2.261
9.636001 2.988 -1.719
10.151 3.09 -1.449
12.203001 3.777 -2.394
10.151 3.085 -1.631
10.197001 3.047 -1.274
10.351001 3.191 -2.227
9.731001 2.941 -1.729
10.201 3.026 -1.45
12.334001 3.72 -2.41
10.191001 3.017 -1.631
10.248 2.984 -1.274
10.489 3.149 -2.247
9.693001 2.853 -1.715
10.240001 2.959 -1.449
9.424001 2.767 -1.833
10.653001 3.072 -1.698
10.3 2.922 -1.275
10.569 3.089 -2.256
9.371 2.685 -1.651
10.294001 2.895 -1.45
9.291 2.655 -1.801
9.264001 2.599 -1.47
10.338 2.854 -1.274
3.59 1.02 -0.763
9.355 2.608 -1.642
10.239 2.802 -1.437
3.614 1.004 -0.697
9.303 2.539 -1.47
10.370001 2.784 -1.272
3.572 0.987 -0.756
9.364 2.538 -1.637
9.34 2.485 -1.305
3.599 0.972 -0.692
9.329 2.475 -1.469
10.417001 2.719 -1.273
9.519 2.556 -2.009
9.395 2.474 -1.636
9.360001 2.419 -1.303
3.618 0.949 -0.693
9.34 2.407 -1.464
11.819 2.996 -1.437
9.554001 2.491 -2.008
9.429001 2.411 -1.636
9.404 2.36 -1.303
3.63 0.924 -0.693
9.404 2.352 -1.469
11.81 2.906 -1.43
9.729 2.461 -2.038
9.485001 2.353 -1.639
11.805 2.874 -1.629
3.642 0.9 -0.693
9.442 2.291 -1.469
11.85 2.828 -1.429
9.745001 2.389 -2.034
9.52 2.289 -1.639
11.838 2.794 -1.628
3.673 0.879 -0.696
10.52 2.433 -1.264
9.740001 2.314 -2.026
10.124001 2.359 -1.737
10.528001 2.407 -1.442
3.684 0.854 -0.696
10.571 2.367 -1.265
9.925 2.282 -2.057
10.111 2.28 -1.729
10.573001 2.34 -1.443
3.701 0.83 -0.696
10.610001 2.299 -1.264
10.468 2.327 -2.163
10.048 2.19 -1.712
10.628 2.274 -1.445
3.717 0.805 -0.697
11.963 2.546 -1.835
10.660001 2.232 -1.266
6.09 1.308 -1.254
6.103 1.285 -1.036
10.678 2.207 -1.447
3.738 0.782 -0.699
6.127 1.259 -0.936
10.708 2.165 -1.266
5.973 1.237 -1.226
6.094 1.238 -1.031
6.076 1.211 -0.82
3.752 0.757 -0.699
6.039001 1.197 -0.92
10.759001 2.097 -1.268
5.869 1.171 -1.201
6.019 1.179 -1.016
5.887 1.131 -0.792
3.769 0.732 -0.7
5.828 1.112 -0.885
5.834 1.095 -0.685
5.711 1.097 -1.166
5.798 1.093 -0.975
5.777 1.068 -0.774
3.762 0.703 -0.697
5.824 1.069 -0.881
10.888 1.967 -1.274
5.581 1.031 -1.136
5.891 1.067 -0.988
5.869 1.043 -0.784
3.775 0.678 -0.697
5.783 1.02 -0.873
5.595 0.97 -0.652
5.533 0.981 -1.123
5.919 1.029 -0.99
5.58 0.952 -0.743
3.813 0.657 -0.702
5.669 0.959 -0.853
5.567 0.926 -0.647
3.821 0.649 -0.773
5.955 0.992 -0.993
5.547 0.906 -0.737
5.414 0.893 -0.995
5.475 0.887 -0.821
10.943001 1.744 -1.268
3.813 0.62 -0.77
5.979 0.953 -0.994
5.596 0.875 -0.741
5.264 0.83 -0.965
5.309 0.822 -0.794
10.944 1.666 -1.264
5.235 0.813 -1.054
5.988 0.911 -0.993
5.775 0.862 -0.762
5.184 0.78 -0.948
5.199 0.768 -0.776
10.964001 1.593 -1.262
5.165 0.764 -1.037
6.025 0.874 -0.997
5.484 0.78 -0.722
5.16 0.739 -0.941
5.101 0.717 -0.759
10.98 1.518 -1.261
5.157 0.725 -1.033
6.051 0.834 -0.999
5.193 0.702 -0.682
5.185 0.705 -0.943
5.004 0.668 -0.743
11.129001 1.461 -1.274
5.177 0.69 -1.035
6.07 0.794 -0.999
5.511 0.706 -0.722
5.206 0.671 -0.945
4.936 0.624 -0.731
11.172001 1.389 -1.276
5.199 0.656 -1.037
6.206 0.767 -1.019
5.960001 0.722 -0.779
5.22 0.635 -0.945
4.847 0.578 -0.716
4.86 0.57 -0.553
4.949 0.588 -0.985
4.814 0.561 -0.789
4.821 0.55 -0.628
4.794 0.549 -0.866
4.777 0.537 -0.704
4.847 0.535 -0.55
4.74 0.53 -0.942
4.817 0.527 -0.788
5.056 0.542 -0.658
5.066 0.544 -0.914
4.704 0.495 -0.692
6.103 0.631 -0.692
4.699 0.491 -0.932
6.142 0.629 -1.003
5.108 0.512 -0.663
5.243 0.526 -0.944
4.631 0.455 -0.68
6.107 0.59 -0.69
4.63 0.451 -0.917
4.76 0.454 -0.776
4.667 0.435 -0.604
4.557 0.425 -0.819
4.558 0.416 -0.668
13.446001 1.207 -1.517
4.541 0.41 -0.898
6.960001 0.615 -1.132
4.646 0.401 -0.6
5.089 0.438 -0.913
4.512 0.381 -0.66
13.111001 1.087 -1.477
4.498 0.374 -0.888
6.918 0.563 -1.124
4.605 0.366 -0.594
5.291 0.419 -0.948
4.514 0.349 -0.659
12.951 0.984 -1.456
4.391 0.334 -0.865
12.696001 0.945 -2.059
12.822001 0.931 -1.652
5.137 0.37 -0.919
4.406 0.311 -0.642
5.811 0.402 -0.652
4.307 0.297 -0.848
5.778 0.389 -0.936
5.809 0.381 -0.747
5.11 0.332 -0.913
4.363 0.278 -0.635
5.734 0.357 -0.642
4.221 0.261 -0.83
12.515 0.757 -2.024
4.639 0.273 -0.596
5.154 0.299 -0.92
4.321 0.245 -0.628
5.665 0.314 -0.633
4.215 0.231 -0.827
4.19 0.224 -0.677
4.444 0.231 -0.57
5.185 0.265 -0.924
4.242 0.211 -0.616
5.589 0.272 -0.624
4.232 0.202 -0.83
4.163 0.194 -0.671
4.498 0.203 -0.576
5.08 0.224 -0.904
4.192 0.18 -0.608
5.512 0.23 -0.615
4.237 0.172 -0.83
4.078 0.161 -0.657
2.189 0.083 -0.28
5.242 0.194 -0.932
4.186 0.15 -0.606
2.155 0.075 -0.24
4.257 0.143 -0.833
4.043 0.132 -0.651
2.199 0.069 -0.281
4.835 0.145 -0.859
4.201 0.122 -0.608
2.182 0.061 -0.242
4.26 0.113 -0.833
2.112 0.054 -0.339
2.204 0.054 -0.281
2.189 0.05 -0.388
2.21 0.049 -0.319
2.194 0.047 -0.244
2.178 0.042 -0.426
2.192 0.041 -0.352
2.191 0.038 -0.279
2.19 0.035 -0.388
2.195 0.033 -0.317
2.197 0.032 -0.244
2.177 0.027 -0.425
2.201 0.024 -0.28
2.183 0.02 -0.387
3.999 0.034 -0.577
2.194 0.017 -0.243
4.221 0.023 -0.824
3.868 0.019 -0.621
2.214 0.009 -0.282
3.833 0.008 -0.679
3.833 0.006 -0.553
2.207 0.002 -0.244
3.783 -0.005 -0.738
3.796 -0.006 -0.609
2.225 -0.005 -0.283
3.806 -0.017 -0.674
3.819 -0.019 -0.551
2.216 -0.012 -0.245
3.921 -0.032 -0.765
3.778 -0.032 -0.606
5.0 -0.046 -0.636
4.948 -0.057 -0.877
3.779 -0.045 -0.545
2.221 -0.027 -0.246
4.34 -0.066 -0.847
3.7 -0.057 -0.593
10.904 -0.175 -1.388
10.775001 -0.198 -1.909
3.783 -0.07 -0.545
2.223 -0.042 -0.246
4.348 -0.097 -0.848
3.662 -0.082 -0.587
6.094 -0.139 -0.775
6.048 -0.153 -1.072
3.782 -0.096 -0.545
2.231 -0.057 -0.247
6.039001 -0.177 -1.178
3.624 -0.106 -0.581
10.657001 -0.316 -1.356
4.748 -0.153 -0.841
3.776 -0.122 -0.544
2.235 -0.072 -0.247
6.097 -0.221 -1.19
3.579 -0.129 -0.574
6.134 -0.223 -0.781
6.095 -0.239 -1.08
3.762 -0.147 -0.542
2.242 -0.087 -0.248
10.370001 -0.449 -2.024
3.538 -0.152 -0.567
10.485001 -0.453 -1.335
4.666 -0.215 -0.827
3.667 -0.168 -0.529
2.247 -0.103 -0.249
6.914001 -0.347 -1.35
3.499 -0.174 -0.561
10.304001 -0.515 -1.312
4.632 -0.245 -0.821
3.616 -0.19 -0.522
2.253 -0.118 -0.249
6.889 -0.394 -1.346
3.451 -0.195 -0.554
10.186001 -0.577 -1.297
4.555 -0.273 -0.808
3.618 -0.215 -0.522
2.255 -0.133 -0.25
7.019001 -0.45 -1.372
3.422 -0.217 -0.549
10.076 -0.64 -1.284
4.513 -0.302 -0.801
3.521 -0.234 -0.508
2.263 -0.149 -0.251
9.903001 -0.705 -1.937
3.384 -0.238 -0.543
3.431 -0.241 -0.437
4.534 -0.334 -0.805
3.433 -0.251 -0.496
5.315 -0.386 -0.59
3.667 -0.286 -0.717
3.335 -0.258 -0.536
3.43 -0.264 -0.437
4.445 -0.358 -0.79
3.396 -0.272 -0.491
5.258 -0.418 -0.584
3.677 -0.313 -0.72
3.3 -0.277 -0.531
3.381 -0.283 -0.431
4.385 -0.384 -0.78
3.368 -0.292 -0.487
5.28 -0.455 -0.586
2.277 -0.209 -0.446
3.255 -0.296 -0.524
3.369 -0.305 -0.43
2.302 -0.217 -0.409
2.739 -0.256 -0.397
5.264 -0.489 -0.585
2.272 -0.225 -0.445
2.295 -0.224 -0.37
2.348 -0.228 -0.3
2.306 -0.234 -0.411
2.299 -0.231 -0.333
2.312 -0.23 -0.257
3.886 -0.412 -0.763
2.528 -0.265 -0.408
2.323 -0.242 -0.297
4.738 -0.514 -0.845
2.345 -0.252 -0.34
2.347 -0.249 -0.261
3.809 -0.43 -0.748
3.171 -0.354 -0.512
2.936 -0.325 -0.376
4.207 -0.485 -0.751
3.25 -0.371 -0.472
2.342 -0.265 -0.261
3.768 -0.452 -0.741
2.632 -0.312 -0.425
2.346 -0.276 -0.301
2.322 -0.284 -0.415
2.317 -0.28 -0.337
2.347 -0.281 -0.262
2.302 -0.292 -0.453
2.321 -0.291 -0.376
2.34 -0.291 -0.3
2.325 -0.3 -0.416
2.332 -0.298 -0.339
2.352 -0.298 -0.263
2.424 -0.325 -0.478
2.585 -0.342 -0.419
2.329 -0.306 -0.299
2.342 -0.319 -0.419
2.303 -0.31 -0.336
2.317 -0.309 -0.259
2.268 -0.32 -0.448
2.278 -0.317 -0.369
2.312 -0.319 -0.297
2.28 -0.326 -0.409
2.296 -0.325 -0.335
2.331 -0.327 -0.261
2.27 -0.336 -0.449
2.424 -0.354 -0.394
2.238 -0.324 -0.288
2.277 -0.342 -0.409
3.156 -0.468 -0.461
3.545 -0.521 -0.398
3.729 -0.579 -0.739
2.984 -0.457 -0.486
3.444 -0.523 -0.445
6.432 -1.011 -1.158
3.132 -0.487 -0.459
3.511 -0.54 -0.395
3.729 -0.605 -0.74
2.949 -0.472 -0.481
3.387 -0.537 -0.438
6.424 -1.055 -1.158
3.366 -0.546 -0.494
3.522 -0.565 -0.397
3.701 -0.627 -0.735
2.919 -0.487 -0.476
3.375 -0.558 -0.437
6.35 -1.087 -1.146
3.176 -0.537 -0.466
3.471 -0.581 -0.392
3.647 -0.643 -0.726
2.893 -0.503 -0.473
3.395 -0.585 -0.441
6.299 -1.123 -1.139
3.121 -0.55 -0.459
3.444 -0.6 -0.389
3.603 -0.661 -0.718
2.877 -0.521 -0.471
3.422 -0.613 -0.445
6.26 -1.16 -1.134
3.121 -0.571 -0.46
3.436 -0.622 -0.389
2.844 -0.542 -0.568
2.831 -0.532 -0.464
2.886 -0.537 -0.376
2.825 -0.543 -0.513
2.834 -0.538 -0.418
2.854 -0.536 -0.324
2.803 -0.554 -0.561
2.81 -0.548 -0.462
2.835 -0.547 -0.37
2.797 -0.558 -0.508
2.809 -0.553 -0.416
2.831 -0.551 -0.322
2.794 -0.572 -0.56
2.81 -0.567 -0.463
2.811 -0.562 -0.367
2.811 -0.58 -0.512
2.8 -0.571 -0.415
2.82 -0.568 -0.321
3.595 -0.762 -0.722
2.823 -0.59 -0.466
4.641 -0.991 -0.847
3.025 -0.638 -0.449
4.662 -0.972 -0.532
4.602 -1.009 -0.926
2.849 -0.615 -0.471
4.595 -0.982 -0.603
4.568 -1.008 -0.835
3.038 -0.662 -0.452
4.61 -0.993 -0.527
4.559 -1.032 -0.919
2.885 -0.643 -0.478
3.394 -0.749 -0.446
4.569 -1.041 -0.837
3.076 -0.692 -0.459
4.62 -1.027 -0.529
4.511 -1.054 -0.912
2.93 -0.674 -0.486
4.536 -1.033 -0.598
4.527 -1.063 -0.831
3.069 -0.711 -0.459
4.577 -1.049 -0.526
4.479 -1.079 -0.907
2.998 -0.711 -0.499
4.537 -1.065 -0.599
4.488 -1.086 -0.826
3.019 -0.721 -0.452
4.534 -1.071 -0.522
4.44 -1.101 -0.901
3.114 -0.761 -0.519
4.5 -1.087 -0.595
4.447 -1.108 -0.82
3.002 -0.738 -0.45
4.491 -1.092 -0.518
4.395 -1.122 -0.894
4.467 -1.111 -0.592
4.408 -1.13 -0.814
2.983 -0.755 -0.448
4.465 -1.116 -0.516
4.358 -1.144 -0.888
4.374 -1.131 -0.732
4.424 -1.131 -0.588
4.372 -1.153 -0.809
2.996 -0.779 -0.451
4.423 -1.137 -0.512
4.315 -1.164 -0.881
4.351 -1.156 -0.73
4.387 -1.153 -0.584
4.331 -1.173 -0.804
3.006 -0.803 -0.454
4.379 -1.156 -0.508
4.278 -1.186 -0.876
4.313 -1.177 -0.725
4.343 -1.172 -0.58
4.295 -1.194 -0.799
3.014 -0.827 -0.456
4.34 -1.176 -0.505
4.248 -1.208 -0.871
4.28 -1.199 -0.721
4.293 -1.189 -0.574
4.257 -1.215 -0.793
3.026 -0.852 -0.459
4.309 -1.198 -0.502
4.204 -1.226 -0.864
4.242 -1.218 -0.716
4.177 -1.186 -0.56
4.218 -1.234 -0.788
3.04 -0.877 -0.462
4.266 -1.216 -0.498
4.186 -1.252 -0.863
4.205 -1.238 -0.712
4.142 -1.205 -0.556
4.216 -1.264 -0.789
3.057 -0.904 -0.465
4.234 -1.237 -0.495
4.206 -1.289 -0.869
4.226 -1.275 -0.717
3.129 -0.933 -0.421
4.234 -1.3 -0.794
3.07 -0.93 -0.468
3.18 -0.951 -0.373
4.228 -1.327 -0.875
4.246 -1.312 -0.721
3.241 -0.989 -0.437
4.257 -1.339 -0.8
3.071 -0.952 -0.469
3.222 -0.987 -0.378
4.131 -1.327 -0.857
4.232 -1.338 -0.721
3.285 -1.026 -0.444
4.136 -1.331 -0.779
3.072 -0.975 -0.471
3.136 -0.983 -0.369
4.121 -1.355 -0.857
4.15 -1.342 -0.708
4.132 -1.32 -0.559
4.147 -1.365 -0.783
3.073 -0.997 -0.472
4.173 -1.337 -0.492
3.112 -1.046 -0.648
3.148 -1.041 -0.538
4.203 -1.373 -0.57
3.106 -1.045 -0.587
3.077 -1.021 -0.473
4.271 -1.399 -0.505
3.086 -1.06 -0.644
3.121 -1.055 -0.535
3.126 -1.044 -0.425
3.079 -1.059 -0.584
3.08 -1.044 -0.475
3.137 -1.05 -0.371
3.048 -1.07 -0.638
3.064 -1.058 -0.526
3.1 -1.057 -0.422
3.081 -1.082 -0.585
3.067 -1.062 -0.474
3.088 -1.056 -0.366
4.327 -1.552 -0.907
3.367 -1.188 -0.579
3.103 -1.081 -0.423
4.324 -1.551 -0.823
4.2 -1.485 -0.65
3.222 -1.125 -0.382
4.376 -1.602 -0.92
4.393 -1.582 -0.757
4.26 -1.515 -0.582
4.388 -1.607 -0.837
4.352 -1.571 -0.675
4.269 -1.521 -0.508
4.396 -1.642 -0.926
4.419 -1.624 -0.763
4.242 -1.539 -0.58
4.333 -1.619 -0.828
4.329 -1.594 -0.672
4.25 -1.545 -0.506
4.37 -1.666 -0.922
4.432 -1.662 -0.767
4.234 -1.567 -0.58
4.449 -1.695 -0.852
4.444 -1.669 -0.691
4.279 -1.586 -0.51
3.755 -1.46 -0.794
4.461 -1.705 -0.773
4.234 -1.598 -0.581
4.471 -1.738 -0.858
4.474 -1.713 -0.697
4.488 -1.696 -0.536
3.763 -1.491 -0.797
4.493 -1.751 -0.78
4.497 -1.73 -0.618
4.503 -1.784 -0.866
4.497 -1.755 -0.702
4.512 -1.738 -0.539
3.759 -1.519 -0.798
4.507 -1.79 -0.783
4.522 -1.773 -0.622
4.615 -1.863 -0.889
4.524 -1.799 -0.707
4.54 -1.782 -0.543
3.735 -1.537 -0.794
4.838 -1.957 -0.842
4.571 -1.826 -0.63
4.809 -1.978 -0.927
4.863 -1.97 -0.761
4.866 -1.945 -0.583
3.718 -1.559 -0.792
4.806 -1.981 -0.838
4.605 -1.873 -0.635
4.477 -1.875 -0.865
4.823 -1.989 -0.756
4.849 -1.974 -0.581
3.691 -1.575 -0.787
4.589 -1.925 -0.801
4.819 -1.996 -0.665
4.45 -1.897 -0.861
4.629 -1.944 -0.726
4.653 -1.928 -0.558
3.664 -1.592 -0.783
4.734 -2.022 -0.828
4.773 -2.012 -0.659
3.779 -1.64 -0.732
4.75 -2.03 -0.746
4.785 -2.018 -0.574
2.898 -1.282 -0.62
4.628 -2.011 -0.81
4.732 -2.029 -0.654
4.141 -1.828 -0.803
4.634 -2.015 -0.728
4.691 -2.012 -0.563
2.93 -1.318 -0.628
4.614 -2.04 -0.809
4.627 -2.018 -0.64
4.138 -1.858 -0.804
4.614 -2.041 -0.726
4.644 -2.026 -0.558
2.821 -1.291 -0.606
4.591 -2.064 -0.805
4.635 -2.056 -0.642
3.953 -1.805 -0.769
4.594 -2.066 -0.723
4.622 -2.05 -0.555
2.771 -1.289 -0.596
4.572 -2.09 -0.803
4.61 -2.079 -0.638
4.07 -1.89 -0.792
4.589 -2.098 -0.723
4.6 -2.075 -0.552
2.74 -1.296 -0.59
6.943 -3.226 -1.22
4.582 -2.101 -0.635
4.052 -1.912 -0.79
6.949 -3.229 -1.095
7.002 -3.21 -0.841
2.693 -1.295 -0.58
6.912 -3.264 -1.215
6.960001 -3.242 -0.964
4.046 -1.94 -0.789
6.917 -3.266 -1.091
6.953001 -3.238 -0.834
2.721 -1.329 -0.587
6.851 -3.287 -1.206
6.909 -3.27 -0.957
4.039 -1.968 -0.788
6.855 -3.288 -1.081
6.914001 -3.271 -0.829
3.79 -1.88 -0.818
6.8 -3.314 -1.197
6.861001 -3.298 -0.95
4.022 -1.99 -0.786
6.806 -3.316 -1.073
6.859 -3.296 -0.822
3.84 -1.935 -0.829
6.76 -3.345 -1.19
6.809 -3.324 -0.942
4.024 -2.022 -0.786
6.764 -3.346 -1.066
6.813 -3.324 -0.815
3.98 -2.037 -0.861
5.837 -2.933 -1.028
6.622 -3.282 -0.916
4.047 -2.064 -0.791
5.848 -2.936 -0.922
5.958 -2.95 -0.712
3.985 -2.07 -0.862
5.801 -2.958 -1.021
5.84 -2.937 -0.807
4.04 -2.092 -0.79
5.803 -2.958 -0.914
5.84 -2.935 -0.697
4.009 -2.113 -0.867
5.766 -2.984 -1.015
5.805 -2.963 -0.801
4.046 -2.125 -0.791
5.764 -2.981 -0.907
5.804 -2.96 -0.691
4.029 -2.155 -0.872
5.731 -3.009 -1.008
5.766 -2.986 -0.794
4.073 -2.17 -0.796
5.741 -3.011 -0.903
5.77 -2.985 -0.685
4.053 -2.198 -0.877
5.7 -3.036 -1.002
5.733 -3.011 -0.789
4.074 -2.202 -0.796
5.715 -3.041 -0.898
5.736 -3.01 -0.68
4.067 -2.237 -0.88
5.668 -3.061 -0.996
5.712 -3.042 -0.784
4.095 -2.245 -0.8
5.678 -3.063 -0.89
5.702 -3.033 -0.674
4.094 -2.284 -0.886
5.641 -3.089 -0.99
5.681 -3.067 -0.778
4.112 -2.285 -0.802
5.649 -3.089 -0.885
5.672 -3.058 -0.668
4.117 -2.328 -0.89
5.601 -3.109 -0.981
5.646 -3.09 -0.772
4.13 -2.326 -0.805
5.609 -3.109 -0.877
5.647 -3.086 -0.663
4.072 -2.333 -0.88
4.121 -2.318 -0.721
5.618 -3.116 -0.766
4.084 -2.331 -0.795
4.282 -2.405 -0.668
5.618 -3.111 -0.657
4.034 -2.342 -0.871
4.081 -2.326 -0.713
4.127 -2.319 -0.561
4.049 -2.341 -0.787
4.09 -2.327 -0.636
4.128 -2.316 -0.481
4.005 -2.356 -0.864
4.046 -2.336 -0.705
4.093 -2.33 -0.554
4.014 -2.351 -0.779
4.058 -2.339 -0.63
4.091 -2.325 -0.475
3.979 -2.37 -0.857
4.019 -2.35 -0.699
4.067 -2.345 -0.549
3.99 -2.367 -0.773
4.031 -2.353 -0.624
4.064 -2.339 -0.469
3.954 -2.385 -0.851
3.993 -2.364 -0.693
4.049 -2.363 -0.544
3.968 -2.382 -0.768
4.006 -2.367 -0.618
4.037 -2.352 -0.464
3.929 -2.399 -0.844
3.963 -2.375 -0.686
4.022 -2.377 -0.538
3.931 -2.389 -0.759
3.992 -2.388 -0.614
4.012 -2.366 -0.458
3.898 -2.409 -0.836
3.938 -2.388 -0.679
3.998 -2.391 -0.533
3.907 -2.403 -0.752
3.967 -2.401 -0.608
3.979 -2.375 -0.452
3.884 -2.429 -0.831
3.91 -2.4 -0.673
3.973 -2.404 -0.527
3.882 -2.416 -0.745
3.937 -2.411 -0.6
3.966 -2.395 -0.447
3.856 -2.439 -0.823
3.898 -2.42 -0.668
3.942 -2.414 -0.52
3.853 -2.426 -0.738
3.908 -2.421 -0.594
3.942 -2.408 -0.442
3.82 -2.444 -0.813
3.868 -2.429 -0.66
3.911 -2.422 -0.513
3.823 -2.434 -0.729
3.874 -2.427 -0.585
3.91 -2.416 -0.435
3.798 -2.457 -0.807
3.841 -2.439 -0.653
3.884 -2.432 -0.506
3.811 -2.453 -0.724
3.856 -2.443 -0.58
3.885 -2.427 -0.429
3.768 -2.465 -0.797
3.814 -2.448 -0.646
3.858 -2.442 -0.5
3.782 -2.461 -0.717
3.83 -2.453 -0.573
3.862 -2.439 -0.423
3.756 -2.483 -0.792
3.792 -2.46 -0.639
3.832 -2.452 -0.493
3.76 -2.473 -0.709
3.808 -2.464 -0.566
3.839 -2.45 -0.417
3.756 -2.509 -0.79
3.773 -2.473 -0.632
3.813 -2.465 -0.487
3.772 -2.506 -0.708
3.788 -2.477 -0.56
3.814 -2.46 -0.41
3.782 -2.552 -0.792
3.767 -2.495 -0.628
3.799 -2.482 -0.482
3.783 -2.539 -0.707
3.813 -2.518 -0.56
3.798 -2.475 -0.404
3.809 -2.596 -0.794
3.798 -2.54 -0.629
3.806 -2.512 -0.478
3.811 -2.583 -0.709
3.807 -2.54 -0.555
3.83 -2.521 -0.404
3.822 -2.63 -0.793
3.815 -2.577 -0.628
3.81 -2.539 -0.475
3.827 -2.619 -0.708
3.823 -2.575 -0.553
3.825 -2.542 -0.399
3.844 -2.67 -0.794
3.834 -2.614 -0.628
3.842 -2.584 -0.475
3.85 -2.659 -0.708
3.844 -2.614 -0.552
3.86 -2.59 -0.398
3.851 -2.7 -0.791
3.852 -2.651 -0.626
3.862 -2.623 -0.472
3.865 -2.694 -0.707
3.862 -2.65 -0.55
3.891 -2.635 -0.396
3.87 -2.737 -0.791
3.87 -2.687 -0.624
3.867 -2.65 -0.468
3.882 -2.729 -0.705
3.876 -2.684 -0.547
3.909 -2.671 -0.393
4.919 -3.509 -1.0
3.885 -2.721 -0.622
3.895 -2.693 -0.466
4.947 -3.508 -0.892
3.885 -2.713 -0.543
3.9 -2.688 -0.386
4.893 -3.52 -0.988
4.965 -3.507 -0.788
3.907 -2.724 -0.463
4.924 -3.521 -0.882
4.969 -3.499 -0.688
5.029 -3.497 -0.492
4.877 -3.536 -0.978
4.937 -3.516 -0.777
4.987 -3.506 -0.583
4.906 -3.536 -0.872
4.963 -3.523 -0.68
5.017 -3.516 -0.483
4.856 -3.549 -0.968
4.913 -3.527 -0.767
4.973 -3.524 -0.574
4.888 -3.55 -0.861
4.934 -3.531 -0.669
4.989 -3.526 -0.472
4.889 -3.599 -0.967
4.904 -3.547 -0.758
4.955 -3.539 -0.565
4.884 -3.574 -0.854
4.921 -3.548 -0.66
4.965 -3.536 -0.463
4.853 -3.599 -0.952
4.898 -3.569 -0.749
4.937 -3.552 -0.554
4.892 -3.606 -0.847
4.917 -3.571 -0.652
4.946 -3.549 -0.453
4.821 -3.601 -0.939
4.876 -3.578 -0.738
4.937 -3.579 -0.547
4.841 -3.593 -0.83
4.909 -3.59 -0.642
4.928 -3.561 -0.443
4.807 -3.614 -0.928
4.866 -3.595 -0.729
4.925 -3.595 -0.537
4.82 -3.601 -0.819
4.885 -3.597 -0.631
4.941 -3.596 -0.435
4.785 -3.62 -0.915
4.855 -3.61 -0.718
4.907 -3.606 -0.526
4.802 -3.61 -0.808
4.858 -3.6 -0.619
4.913 -3.599 -0.424
4.765 -3.627 -0.904
4.838 -3.62 -0.708
4.878 -3.607 -0.515
4.784 -3.618 -0.796
4.851 -3.618 -0.609
4.895 -3.609 -0.414
4.753 -3.638 -0.893
4.824 -3.631 -0.697
4.873 -3.625 -0.505
4.775 -3.632 -0.786
4.823 -3.618 -0.597
4.874 -3.616 -0.403
4.745 -3.652 -0.882
4.811 -3.641 -0.686
4.857 -3.635 -0.494
4.769 -3.647 -0.776
4.81 -3.628 -0.586
4.856 -3.623 -0.392
4.733 -3.661 -0.871
4.792 -3.647 -0.674
4.842 -3.644 -0.483
4.75 -3.651 -0.763
4.814 -3.651 -0.577
4.839 -3.63 -0.381
4.724 -3.671 -0.86
4.781 -3.656 -0.663
4.83 -3.654 -0.473
4.728 -3.652 -0.75
4.801 -3.659 -0.566
4.829 -3.642 -0.37
4.709 -3.676 -0.847
4.764 -3.661 -0.651
4.819 -3.664 -0.462
4.722 -3.663 -0.74
4.792 -3.67 -0.555
4.812 -3.647 -0.359
4.701 -3.685 -0.836
4.759 -3.673 -0.64
4.802 -3.668 -0.45
4.704 -3.664 -0.727
4.782 -3.678 -0.544
4.803 -3.657 -0.348
4.691 -3.691 -0.824
4.745 -3.677 -0.628
4.788 -3.673 -0.438
4.705 -3.679 -0.717
4.769 -3.683 -0.532
4.788 -3.662 -0.337
4.685 -3.699 -0.813
4.727 -3.677 -0.616
4.778 -3.68 -0.427
4.707 -3.693 -0.707
4.765 -3.693 -0.521
4.773 -3.665 -0.325
4.676 -3.704 -0.8
4.719 -3.684 -0.604
4.774 -3.69 -0.416
4.703 -3.702 -0.696
4.756 -3.699 -0.51
4.765 -3.673 -0.314
4.668 -3.708 -0.788
4.708 -3.686 -0.592
4.761 -3.693 -0.404
4.694 -3.705 -0.683
4.745 -3.702 -0.498
4.755 -3.677 -0.303
4.658 -3.709 -0.776
4.708 -3.696 -0.581
4.758 -3.702 -0.393
4.694 -3.714 -0.672
4.734 -3.704 -0.486
4.751 -3.686 -0.292
4.655 -3.715 -0.764
4.709 -3.706 -0.57
4.753 -3.708 -0.382
4.682 -3.713 -0.66
4.729 -3.709 -0.474
4.762 -3.704 -0.281
4.651 -3.718 -0.752
4.708 -3.713 -0.559
4.745 -3.711 -0.37
4.678 -3.716 -0.648
4.722 -3.711 -0.462
4.759 -3.711 -0.27
4.645 -3.719 -0.74
4.703 -3.715 -0.547
4.74 -3.714 -0.358
4.671 -3.716 -0.635
4.722 -3.718 -0.451
4.754 -3.715 -0.258
4.645 -3.723 -0.728
4.702 -3.72 -0.536
4.731 -3.715 -0.347
4.669 -3.719 -0.624
4.714 -3.717 -0.439
4.748 -3.717 -0.247
4.636 -3.718 -0.715
4.699 -3.722 -0.524
4.732 -3.721 -0.335
4.669 -3.722 -0.612
4.718 -3.724 -0.428
4.747 -3.721 -0.235
4.651 -3.732 -0.705
4.691 -3.719 -0.511
4.725 -3.719 -0.323
4.666 -3.721 -0.6
4.71 -3.721 -0.415
4.74 -3.72 -0.223
4.654 -3.735 -0.694
4.694 -3.723 -0.5
4.725 -3.722 -0.311
4.663 -3.719 -0.588
4.705 -3.718 -0.403
4.74 -3.723 -0.212
4.658 -3.737 -0.682
4.693 -3.723 -0.488
4.721 -3.72 -0.299
4.658 -3.715 -0.575
4.701 -3.716 -0.391
4.732 -3.718 -0.2
4.657 -3.734 -0.67
4.701 -3.728 -0.477
4.727 -3.725 -0.288
4.669 -3.721 -0.564
4.708 -3.72 -0.38
4.733 -3.719 -0.188
4.656 -3.73 -0.658
4.696 -3.722 -0.465
4.721 -3.72 -0.276
4.681 -3.728 -0.554
4.707 -3.718 -0.368
4.735 -3.72 -0.176
4.666 -3.733 -0.647
4.701 -3.722 -0.453
4.725 -3.721 -0.265
4.683 -3.725 -0.542
4.71 -3.718 -0.356
4.736 -3.719 -0.165
4.666 -3.727 -0.635
4.702 -3.719 -0.441
4.73 -3.722 -0.253
4.685 -3.721 -0.53
4.719 -3.72 -0.345
4.742 -3.721 -0.154
4.674 -3.727 -0.624
4.706 -3.716 -0.43
4.733 -3.719 -0.241
4.694 -3.721 -0.519
4.724 -3.718 -0.334
4.747 -3.72 -0.142
4.675 -3.719 -0.611
4.718 -3.719 -0.419
4.736 -3.716 -0.23
4.703 -3.72 -0.508
4.729 -3.715 -0.322
4.752 -3.719 -0.13
4.678 -3.711 -0.599
4.722 -3.714 -0.407
4.743 -3.715 -0.218
4.713 -3.719 -0.497
4.73 -3.708 -0.311
4.758 -3.716 -0.119
4.694 -3.714 -0.589
4.734 -3.713 -0.396
4.75 -3.712 -0.207
4.718 -3.712 -0.485
4.74 -3.706 -0.299
4.769 -3.717 -0.107
4.702 -3.708 -0.578
4.739 -3.706 -0.385
4.761 -3.711 -0.196
4.728 -3.708 -0.474
4.748 -3.703 -0.288
4.777 -3.714 -0.096
4.717 -3.706 -0.567
4.744 -3.699 -0.373
4.768 -3.706 -0.184
4.736 -3.702 -0.463
4.758 -3.699 -0.277
4.781 -3.707 -0.085
4.731 -3.704 -0.557
4.756 -3.696 -0.362
4.769 -3.696 -0.173
4.749 -3.697 -0.452
4.77 -3.695 -0.266
4.79 -3.702 -0.073
4.739 -3.695 -0.546
4.763 -3.687 -0.351
4.771 -3.684 -0.162
4.76 -3.692 -0.441
4.781 -3.69 -0.255
4.802 -3.699 -0.062
4.755 -3.69 -0.535
4.773 -3.68 -0.34
4.784 -3.681 -0.151
4.778 -3.689 -0.431
4.796 -3.687 -0.244
4.816 -3.696 -0.051
4.77 -3.685 -0.525
4.781 -3.67 -0.329
4.816 -3.69 -0.14
4.783 -3.676 -0.419
4.808 -3.68 -0.233
4.831 -3.692 -0.04
4.785 -3.678 -0.515
4.793 -3.662 -0.319
4.835 -3.688 -0.13
4.805 -3.674 -0.41
4.819 -3.671 -0.222
4.838 -3.682 -0.029
4.803 -3.672 -0.504
4.819 -3.663 -0.308
4.842 -3.676 -0.119
4.803 -3.654 -0.398
4.829 -3.661 -0.212
4.856 -3.679 -0.018
4.819 -3.664 -0.494
4.837 -3.658 -0.298
4.862 -3.673 -0.108
4.825 -3.65 -0.388
4.843 -3.652 -0.202
4.867 -3.669 -0.008
4.829 -3.65 -0.484
4.856 -3.652 -0.289
4.872 -3.662 -0.097
4.841 -3.641 -0.378
4.856 -3.642 -0.191
4.889 -3.666 0.002
4.848 -3.642 -0.474
4.871 -3.642 -0.279
4.889 -3.654 -0.087
4.856 -3.63 -0.369
4.866 -3.628 -0.181
4.9 -3.654 0.013
4.874 -3.638 -0.465
4.89 -3.634 -0.268
4.906 -3.646 -0.077
4.879 -3.624 -0.359
4.882 -3.618 -0.171
4.915 -3.644 0.023
