# .PCD v0.7 - Point Cloud Data file format
VERSION 0.7
FIELDS x y z
SIZE 4 4 4
TYPE F F F
COUNT 1 1 1
WIDTH 1561
HEIGHT 1
VIEWPOINT 0 0 0 1 0 0 0
POINTS 1561
DATA ascii
2.6703722 2.7474773 -1.2201612
12.083906 5.1452603 0.71611655
2.9962587 2.8260899 -1.2313882
12.09009 5.1640019 1.0230964
3.6538436 2.9811471 -1.3176757
12.087041 5.1806674 1.333088
3.9434385 3.0536942 -1.279781
12.109856 5.2037859 1.6460396
6.3776221 3.6216104 -1.7070955
12.092783 5.2170281 1.9557108
7.0077329 3.7775972 -1.6578763
11.784056 5.1564717 2.2142642
0.93784016 2.3271117 -1.1146094
8.2329407 4.0464563 -1.6782396
1.0460154 2.3524046 -1.1265678
1.1432537 2.375689 -1.1275492
10.75485 4.6583481 -1.560981
1.2273922 2.3964667 -1.1171712
10.99961 4.7312436 -1.3088897
1.3756496 2.4311082 -1.1339867
11.031008 4.7543254 -1.0319304
1.4504695 2.4504051 -1.1101267
12.097877 5.0229349 -0.80856061
1.7719792 2.5231032 -1.1897799
12.103777 5.0415483 -0.50217605
1.8453872 2.5428438 -1.1519964
12.118275 5.0620975 -0.19804534
2.1290026 2.608716 -1.191196
12.121993 5.0800934 0.10669112
2.4431455 2.682102 -1.2271069
12.112864 5.095139 0.41379723
2.7137048 2.7467186 -1.2328824
12.129875 5.116447 0.7207166
2.9801278 2.8110969 -1.2251911
12.12825 5.1333003 1.0278696
3.6399524 2.9645782 -1.3123302
12.127052 5.1504631 1.3387809
3.8519092 3.0186384 -1.2555628
12.136319 5.1701875 1.6505893
6.3921795 3.6029601 -1.7080469
12.13451 5.1872964 1.9631906
7.0419302 3.7614825 -1.6622796
11.745283 5.1075783 2.2073128
0.95902151 2.3270564 -1.1266884
8.3846407 4.0564952 -1.7021877
1.03514 2.3455236 -1.119419
9.7693272 4.3858137 -1.6878996
1.144374 2.3709965 -1.1272861
10.808401 4.6392274 -1.5650799
1.2704819 2.4002821 -1.1385928
10.971972 4.692698 -1.303687
1.3839793 2.4272902 -1.1371385
11.003329 4.715631 -1.0275543
1.517813 2.4588733 -1.1401626
12.136952 4.9968834 -0.80831552
1.6815802 2.4971871 -1.1497645
12.148713 5.0168958 -0.50134826
1.8269366 2.532023 -1.1435521
12.153493 5.0351453 -0.1962911
2.1967773 2.6157212 -1.215668
12.161094 5.0540862 0.1091708
2.4580185 2.676831 -1.231185
12.14998 5.068716 0.41693836
2.7009027 2.734658 -1.2275642
12.168903 5.0904713 0.72468567
3.0724082 2.821456 -1.2514775
12.165276 5.1068769 1.0324014
3.5369647 2.929908 -1.2829131
12.175592 5.1268802 1.345351
3.8490252 3.0055969 -1.2534957
12.177035 5.1447082 1.6570485
6.4003887 3.5854139 -1.7078609
7.0831242 3.7496121 -1.6683377
11.707204 5.0637321 2.2004654
0.9550944 2.3212736 -1.1233441
8.019537 3.9463711 -1.6366233
1.0243759 2.338115 -1.1122404
10.124147 4.4334192 -1.737671
1.1387182 2.364269 -1.1232084
10.826085 4.6074715 -1.5643756
1.282311 2.3967376 -1.143696
10.943218 4.6498251 -1.2980732
1.3854005 2.4212584 -1.1367993
10.976486 4.6730442 -1.0229604
1.4925402 2.4468625 -1.1275046
12.175082 4.9657197 -0.80770874
1.6254983 2.4781585 -1.1245021
12.192711 4.987092 -0.50020242
1.8450494 2.5281427 -1.1497468
12.185813 5.002634 -0.1942604
2.1143224 2.589294 -1.1834172
12.203143 5.0238605 0.11194979
2.4971945 2.6755555 -1.2436103
12.193934 5.0390148 0.4205943
2.6846044 2.7206986 -1.2209792
12.205046 5.0588923 0.72865415
3.1050344 2.8169501 -1.2597933
12.220739 5.0799589 1.0387894
3.6229694 2.9356828 -1.3048218
12.207755 5.0943766 1.3501718
3.8084946 2.9826398 -1.2419729
12.220679 5.1150069 1.6640406
6.4129434 3.5662208 -1.7083826
7.0904388 3.7271271 -1.6674304
11.675733 5.0172009 2.1949313
0.95114714 2.3155179 -1.12
8.4029522 4.0042276 -1.700179
1.028946 2.3338282 -1.1139323
9.9209633 4.3546038 -1.7047284
1.1572372 2.3624287 -1.1323564
10.835932 4.5739026 -1.5627098
1.2626555 2.3867679 -1.1325326
10.912371 4.6067171 -1.292279
1.367349 2.4112611 -1.1269838
10.943648 4.6293201 -1.0179363
1.5690758 2.4559178 -1.1615685
12.22092 4.9361405 -0.80749583
1.7533938 2.4975431 -1.1785166
12.234694 4.956614 -0.49899092
1.8285557 2.5169494 -1.1419938
12.237541 4.9744639 -0.19230141
2.1676645 2.5918989 -1.2022917
12.24318 4.9929719 0.11470147
2.464185 2.6587899 -1.2307981
12.231989 5.0077248 0.42400685
2.662653 2.7056537 -1.2125933
12.248891 5.0289583 0.7331574
3.0925994 2.8026028 -1.2547051
12.256764 5.0481691 1.0434177
3.4331858 2.8814394 -1.2517408
12.253369 5.0649357 1.356568
3.9179761 2.9925365 -1.2674493
12.266191 5.0855393 1.6713134
6.4254451 3.5469704 -1.7089021
12.15646 5.0768628 1.9687014
7.0765891 3.6999819 -1.6623685
11.642188 4.9704213 2.1890209
0.96572381 2.3133826 -1.1279355
8.3378029 3.9618499 -1.6864187
1.0215459 2.3271794 -1.1087286
9.9648857 4.3313532 -1.7083982
1.1601968 2.3574102 -1.1330005
10.814651 4.5334454 -1.5572102
1.2622063 2.3807476 -1.1313124
10.881366 4.5638132 -1.286497
1.3598728 2.4035041 -1.1223425
10.947639 4.5940866 -1.0157167
1.5920453 2.4536786 -1.171031
12.258906 4.9045615 -0.8068676
1.7460004 2.4885781 -1.1742336
12.278557 4.9263558 -0.49782214
1.7427549 2.4916396 -1.1063737
12.275559 4.9429011 -0.19027418
2.1603887 2.5816445 -1.1983727
12.29093 4.9636564 0.11761884
2.4162745 2.6391392 -1.2128252
12.273857 4.9771323 0.42760029
2.6499717 2.6927035 -1.2072254
12.294612 4.9992404 0.73780417
3.0913851 2.7907171 -1.2529671
12.292717 5.016192 1.0480542
3.4094911 2.8637087 -1.2438791
12.295052 5.0343404 1.3625289
3.8849559 2.9712653 -1.2578012
12.303924 5.0540094 1.6775187
6.4340754 3.5268357 -1.7085729
12.153657 5.0360961 1.9689353
7.0415268 3.6683509 -1.6531638
11.602735 4.9225044 2.1820099
0.96849549 2.3089125 -1.1286923
8.1837759 3.9007924 -1.6574565
1.0192486 2.3215623 -1.1064821
9.7630501 4.2546716 -1.6758373
1.1769896 2.3550668 -1.1411961
10.79518 4.4935589 -1.5519578
1.2652415 2.3754203 -1.1318971
10.850207 4.521112 -1.2807268
1.3488241 2.3950958 -1.1159816
11.00217 4.570015 -1.0173093
1.5810225 2.4445372 -1.1649257
12.298768 4.87321 -0.80632913
1.6861662 2.4691455 -1.1474366
12.316501 4.8945484 -0.49647972
1.8118428 2.4981906 -1.1331047
12.323261 4.9133267 -0.18827319
2.1365201 2.5680671 -1.1882473
12.32888 4.9318714 0.12035481
2.4405811 2.6346178 -1.2200704
12.321503 4.9476371 0.43146259
2.7082205 2.6945021 -1.2247329
12.330546 4.9670467 0.74180412
3.123982 2.7858899 -1.2612655
12.34024 4.9866958 1.0537709
3.3554513 2.8397813 -1.227821
12.334726 5.0030699 1.3682765
3.8822885 2.9566197 -1.2556461
12.360876 5.0267634 1.6864402
6.4503012 3.5082877 -1.7099316
12.143029 4.9935689 1.9679002
7.0159554 3.6389956 -1.645857
11.572679 4.8770909 2.1767979
0.96443975 2.3034441 -1.1253656
8.2992601 3.8995004 -1.6749257
1.0630527 2.3250091 -1.1308292
10.116068 4.2996449 -1.7252045
1.1746632 2.3493056 -1.1390227
10.76736 4.454134 -1.5458707
1.2874637 2.3741331 -1.1424299
10.822346 4.4814658 -1.2754664
1.3607028 2.3915861 -1.120834
11.056201 4.5476875 -1.0190005
1.544808 2.4309344 -1.147385
12.3439 4.8452053 -0.8062073
1.711129 2.4672756 -1.1571615
12.359719 4.8661079 -0.49541429
1.7951273 2.4876838 -1.1253909
12.352823 4.8818789 -0.18632311
2.0683138 2.5462468 -1.1616081
12.372092 4.9034748 0.12309146
2.4350855 2.6244943 -1.2170038
12.362731 4.9188533 0.43495286
2.7196577 2.6870391 -1.2272164
12.379511 4.9400187 0.74661231
3.12445 2.7749774 -1.2601196
12.37553 4.956583 1.0583017
3.3087237 2.8184383 -1.2138691
12.383512 4.9760799 1.3750321
12.405693 4.9988332 1.6936243
6.4547205 3.4884939 -1.7088236
12.13562 4.9542561 1.9673669
7.0649304 3.6269426 -1.6533232
11.538159 4.8331265 2.170728
0.95198089 2.296159 -1.1169022
8.2375269 3.85886 -1.6618801
1.0333618 2.3141837 -1.1128322
9.8751221 4.2155619 -1.6869969
1.1654565 2.3419385 -1.1330591
10.743731 4.413723 -1.5401601
1.2869748 2.3680551 -1.1412054
10.790896 4.4391661 -1.2697202
1.3691083 2.3869827 -1.1239418
11.100899 4.5209394 -1.0198324
1.5462424 2.4244268 -1.1470212
12.381674 4.8130069 -0.80554748
1.7217165 2.4620368 -1.1606494
12.403384 4.8351727 -0.49421045
1.8295941 2.4868848 -1.1381725
12.40039 4.8518577 -0.18429892
2.0921896 2.5425599 -1.1694286
12.419658 4.8734345 0.12604636
2.4445236 2.6168303 -1.219075
12.406352 4.8880167 0.43866748
2.7106352 2.6747997 -1.22305
12.419194 4.9082913 0.75089788
3.0892563 2.7561812 -1.2483555
12.411262 4.9240174 1.0629687
3.4079242 2.826371 -1.239336
12.419169 4.9435039 1.3803519
3.8709245 2.9270236 -1.2499841
12.441278 4.9661994 1.699592
6.4459491 3.4646857 -1.7046933
12.118954 4.9105825 1.9653686
7.0622721 3.6024919 -1.6505386
11.50971 4.7885695 2.1658533
0.95289278 2.2919667 -1.1166677
8.2135897 3.8296449 -1.6556289
1.0463077 2.3119814 -1.1194725
10.233877 4.2613311 -1.7371947
1.1612871 2.3362226 -1.1299635
10.722991 4.3782439 -1.5351574
1.2915853 2.3636448 -1.1427267
10.774017 4.4043274 -1.2657447
1.3667082 2.3810291 -1.1219261
11.144654 4.4980564 -1.0208809
1.4704 2.4040017 -1.1115212
12.428158 4.7872448 -0.80562842
1.686857 2.4488807 -1.1447898
12.445995 4.8085618 -0.49324951
1.8218675 2.4786291 -1.1341479
12.448868 4.8265624 -0.18252297
2.0679483 2.5303555 -1.1593808
12.460312 4.846436 0.12863913
2.4369938 2.6069109 -1.2153951
12.445015 4.8606563 0.44196564
2.7930088 2.6819398 -1.2483994
12.46366 4.8822064 0.7553376
3.0951505 2.7471533 -1.248922
12.46343 4.8996978 1.069003
3.5277512 2.8393612 -1.2704817
12.46347 4.9174652 1.3865533
3.9897714 2.9387174 -1.2777884
12.470003 4.9366589 1.7044981
6.4538121 3.4469194 -1.704499
12.106962 4.8727827 1.9640665
7.0974436 3.5886431 -1.6554276
11.466765 4.7453985 2.1581867
0.94551426 2.2854211 -1.111267
8.3162069 3.8214779 -1.6705612
1.0731556 2.3112965 -1.1339265
10.217918 4.2224336 -1.7318783
1.1572999 2.3295865 -1.1268176
10.691736 4.334559 -1.5284035
1.2700673 2.3533511 -1.1306627
10.742712 4.3604074 -1.2599094
1.3946959 2.3796389 -1.1344694
11.195541 4.4699965 -1.0220093
1.4628577 2.3956661 -1.10706
12.470184 4.7531657 -0.80501831
1.7156031 2.4466736 -1.15601
12.484145 4.7736487 -0.49173722
1.834501 2.4729571 -1.1381068
12.48898 4.7920818 -0.18032019
2.0937505 2.5264211 -1.1678572
12.498467 4.8115315 0.13154569
12.490946 4.8275023 0.44591793
2.7110617 2.6547298 -1.2207673
12.505651 4.8481827 0.75990665
3.1052096 2.7368801 -1.2504896
12.507295 4.8661208 1.0745372
3.3958874 2.7996452 -1.2334256
12.511127 4.8847575 1.3933766
4.0596533 2.9374442 -1.2932953
12.525282 4.9056511 1.7133309
6.5045938 3.4338593 -1.7133608
12.100137 4.8292451 1.9637667
7.1835241 3.5806589 -1.6698488
11.438462 4.6991477 2.153405
0.94645524 2.2809684 -1.1110183
8.2499161 3.7821493 -1.6569755
1.0535939 2.3028319 -1.1218594
10.216556 4.190568 -1.7290508
1.1583654 2.3245428 -1.1265357
10.671163 4.2974048 -1.5233082
1.2641716 2.3467209 -1.1267567
10.718211 4.322258 -1.2550741
1.3941251 2.3736088 -1.1332911
11.237693 4.4441829 -1.0227734
1.4443567 2.3861306 -1.0977381
12.513128 4.7238483 -0.80475044
1.7115581 2.4390628 -1.1533153
12.529075 4.7447433 -0.49067864
1.8341347 2.4656825 -1.1369869
12.528042 4.7619762 -0.17836292
2.130425 2.5253878 -1.1805089
12.541435 4.7822585 0.13432774
2.4446104 2.5893152 -1.2156621
12.526052 4.7966213 0.44919035
2.7149138 2.6457143 -1.2208436
12.546579 4.8185296 0.76423049
3.1413734 2.732969 -1.2599124
12.552058 4.8373227 1.080007
3.4722896 2.8027697 -1.2527353
12.548023 4.8542876 1.3988247
4.0796022 2.9276764 -1.2967558
12.556286 4.8738923 1.7186552
6.522233 3.4165676 -1.7151918
12.099943 4.7919183 1.9644862
7.2054768 3.5622702 -1.6720073
11.405267 4.6564674 2.1476486
0.95427209 2.2771239 -1.1148306
8.1724977 3.7378411 -1.6412652
1.0632865 2.2989783 -1.1264749
9.9731255 4.1068044 -1.6906024
1.1682333 2.320395 -1.1309302
10.629873 4.2521634 -1.5153911
1.2917907 2.3453982 -1.1399392
10.682693 4.2779512 -1.2488812
1.3830168 2.3649588 -1.1269177
11.27283 4.4124098 -1.022715
1.4529104 2.3808544 -1.1006391
12.560877 4.6904998 -0.80441082
1.7094737 2.4309869 -1.151352
12.570982 4.710186 -0.48924741
1.7973146 2.4508049 -1.1211919
12.579751 4.7294817 -0.17617027
2.0473073 2.5008955 -1.1483692
12.587256 4.7485437 0.13742016
2.3889382 2.5688086 -1.1951429
12.579658 4.7646265 0.45351803
2.7602327 2.6432846 -1.2340542
12.588411 4.7840414 0.76882339
3.1363001 2.7196355 -1.2570251
12.595765 4.8032498 1.0855668
3.387624 2.7731109 -1.2285082
12.597472 4.8214908 1.4059008
4.0674124 2.9098897 -1.2922012
12.597862 4.8394256 1.7256083
6.5173173 3.392206 -1.7118325
12.09478 4.7489109 1.9644972
7.1624045 3.5282023 -1.661254
11.386251 4.6127048 2.1446636
0.9518013 2.2720697 -1.1125349
8.2414503 3.7256446 -1.6507413
1.069417 2.2950795 -1.1291559
10.262894 4.132618 -1.7302649
1.1762269 2.3165245 -1.1344146
10.603197 4.2141924 -1.5096054
1.2559639 2.3335187 -1.1207172
10.66183 4.2409282 -1.2444484
1.3966296 2.3614831 -1.1326138
11.320729 4.3873405 -1.0238899
1.5224079 2.387152 -1.1313552
12.589976 4.6579704 -0.80343235
1.6527464 2.4139667 -1.1262039
12.613819 4.6804237 -0.48811361
1.8371795 2.4509473 -1.1361643
12.614761 4.6981373 -0.17418016
2.0119021 2.486618 -1.1341922
12.63401 4.7196126 0.14030822
2.3459842 2.5520985 -1.1792108
12.624406 4.7353497 0.45725098
2.7265399 2.6271536 -1.222128
12.63702 4.7555833 0.77370608
3.138464 2.7090755 -1.2564353
12.634549 4.7727652 1.0905187
3.5495472 2.7919407 -1.270776
12.630334 4.7897925 1.4109167
4.1274376 2.9076211 -1.3054287
12.640347 4.8097825 1.7325872
6.5271735 3.3733304 -1.7119778
12.090493 4.710824 1.9645737
7.1745844 3.5079088 -1.6615371
11.40661 4.5819397 2.149096
0.95100904 2.2673161 -1.1112632
8.2212667 3.6960371 -1.6450874
1.084129 2.2925992 -1.1367474
10.259322 4.100316 -1.7271532
1.1894321 2.3135026 -1.1407226
10.588085 4.1786518 -1.5052497
1.2851982 2.3330433 -1.1348311
10.672114 4.2101359 -1.2430686
1.4049022 2.357008 -1.1357304
1.5038522 2.3776214 -1.1220335
12.642507 4.6299434 -0.80362058
1.6776526 2.4117143 -1.1359091
12.656592 4.6504364 -0.48696867
1.8074254 2.4384496 -1.1233526
12.667344 4.6701522 -0.17222412
2.0891891 2.4928198 -1.1619668
12.682663 4.6908321 0.14325075
2.4762313 2.5670505 -1.2231678
12.657356 4.7034526 0.46046671
2.7115519 2.6146464 -1.2162075
12.679709 4.7256675 0.77819836
3.1538258 2.7009449 -1.2597318
12.683017 4.7440844 1.096385
3.5481153 2.779521 -1.2691017
12.67675 4.7607441 1.4175316
4.1951389 2.9064548 -1.3204978
12.688581 4.7811327 1.7403972
6.5331397 3.353683 -1.7112807
12.089956 4.6735878 1.9652847
7.2484798 3.4992797 -1.6737996
11.453824 4.5567627 2.1586435
0.94692123 2.2614553 -1.1079146
8.2520151 3.6729474 -1.6478013
1.0800555 2.2863021 -1.1334975
10.133838 4.0410619 -1.7060452
1.1992826 2.3091819 -1.1451079
10.561944 4.1370749 -1.4992647
1.2723185 2.3245885 -1.1272891
10.72024 4.1824923 -1.2450749
1.4026248 2.3499496 -1.1336533
12.942962 4.6271019 -1.1379474
1.462013 2.3634303 -1.1020643
12.897879 4.6362925 -0.81357527
1.5918865 2.3892667 -1.0983583
12.721803 4.6198082 -0.48611176
1.7135984 2.4140339 -1.0849339
12.707057 4.6345305 -0.16996275
2.0705545 2.4806292 -1.1539279
12.724339 4.6555796 0.14629874
2.4893703 2.5592332 -1.2264818
12.706816 4.6698771 0.46465871
2.7305546 2.6071327 -1.221011
12.719344 4.6900859 0.78269207
3.1977987 2.696537 -1.2712698
12.720635 4.7081151 1.101439
3.5925896 2.7739818 -1.2795886
12.722075 4.7264009 1.424191
4.0298028 2.8603098 -1.2787505
12.729913 4.7459707 1.7473859
6.5260868 3.3290191 -1.7075071
12.076658 4.6291361 1.9640068
7.2881751 3.4809935 -1.6791531
11.494129 4.5254965 2.1669776
0.97144473 2.2613852 -1.122009
8.401763 3.6782031 -1.6711822
1.0894828 2.2834773 -1.1381712
1.1914623 2.3032331 -1.1401497
10.534118 4.1034799 -1.4937257
1.2908578 2.3228252 -1.1360286
10.766765 4.1625271 -1.2475111
1.3946998 2.343442 -1.1290832
12.9867 4.6010299 -1.1388237
1.4684254 2.3591883 -1.1042253
12.990681 4.6198015 -0.81600857
1.6002316 2.3850365 -1.1011474
12.99714 4.6391635 -0.49121508
1.8468333 2.4310646 -1.1371936
12.793939 4.6175818 -0.1683158
2.0663056 2.473021 -1.1514964
12.768033 4.6302185 0.14892127
2.4684918 2.5476398 -1.2183352
12.74066 4.6426606 0.4677217
2.6682844 2.5875723 -1.2001899
12.760976 4.6644154 0.78694582
3.1561306 2.6793826 -1.2579929
12.771967 4.6844234 1.1074317
3.6859841 2.780062 -1.3034816
12.769394 4.7019486 1.4307972
4.1124344 2.8634634 -1.2976238
12.769339 4.7199473 1.7538629
6.5295162 3.3115165 -1.706531
12.067287 4.5948567 1.9631857
7.3132238 3.4655421 -1.6821859
11.52692 4.5013313 2.1737523
0.94865412 2.2525358 -1.1074179
8.3917141 3.6469812 -1.6669792
1.0784925 2.2760913 -1.1309953
10.015054 3.956969 -1.6838152
1.2047747 2.2994206 -1.1464142
10.505745 4.0618925 -1.4875263
1.2779317 2.3144307 -1.1284902
10.814794 4.1343498 -1.249491
1.3977226 2.3373146 -1.1295834
13.040062 4.5666852 -1.1397308
1.4661075 2.3519382 -1.1022227
13.03821 4.5843935 -0.81555974
1.6652613 2.3886573 -1.1278174
13.0447 4.603785 -0.48983112
1.8134662 2.4173179 -1.1228869
13.045673 4.6219902 -0.16643956
2.0401788 2.4597478 -1.1407223
13.060864 4.6429496 0.15743399
2.4311893 2.5310993 -1.2042885
12.80959 4.6123939 0.47283104
2.7511432 2.5912094 -1.2253457
12.810245 4.6303105 0.79213917
3.1697929 2.6694281 -1.2606521
12.817245 4.6495447 1.1132344
3.7057505 2.7694845 -1.3073076
12.808724 4.6659417 1.4367983
4.0521164 2.837266 -1.2814728
12.818291 4.6858916 1.7619715
6.5646653 3.2945242 -1.7119795
12.063399 4.5525322 1.9634945
7.3122478 3.4395149 -1.6796721
11.569004 4.4700384 2.1824756
0.93596315 2.2456884 -1.0989801
8.4589567 3.631325 -1.675959
1.0846319 2.2717762 -1.1336538
10.196434 3.9570174 -1.7073828
1.2093066 2.2944736 -1.1479889
10.482716 4.0235128 -1.4821532
1.3125315 2.3140788 -1.1452622
10.852584 4.106111 -1.250622
1.4167131 2.3341274 -1.1378208
13.081126 4.5322652 -1.1398983
1.4600908 2.3444865 -1.0986112
13.083238 4.5507517 -0.81513393
1.6738466 2.3829925 -1.1305264
13.079926 4.5683336 -0.4882676
1.7377038 2.3971825 -1.0918339
13.086806 4.5876751 -0.16423717
2.0287261 2.4495974 -1.1354735
13.109846 4.6101079 0.16059868
2.4534652 2.5254436 -1.2108487
13.093889 4.6253181 0.4876765
2.7737522 2.5846629 -1.2313651
13.002026 4.6257968 0.80712831
3.1908851 2.66137 -1.26556
12.861994 4.6167717 1.118919
3.7139211 2.7575705 -1.3081163
12.855321 4.6335959 1.4435931
3.972362 2.8089144 -1.2607508
12.856993 4.6520143 1.7685905
6.5937638 3.2775707 -1.716231
12.062827 4.5132442 1.9643165
7.3631611 3.424181 -1.6873157
11.618328 4.4421897 2.1925554
0.95203859 2.2438684 -1.1079416
8.4556398 3.6061432 -1.6733249
1.0820354 2.2667069 -1.1314392
10.275824 3.941829 -1.7164868
1.2084726 2.2893369 -1.146778
10.456878 3.9888053 -1.4767694
1.3046682 2.3075557 -1.1404806
10.877805 4.0795674 -1.2508347
1.4052322 2.3267329 -1.1315184
13.1271 4.5034866 -1.1407492
1.4863679 2.3430181 -1.1097169
13.12926 4.5220203 -0.81505847
1.5475187 2.3562479 -1.0761003
13.141706 4.5425582 -0.48765573
1.7848177 2.3984528 -1.1097207
13.132856 4.5590315 -0.16230021
2.1152983 2.4566691 -1.1666423
13.151959 4.5807099 0.16338024
2.4736671 2.5204415 -1.21682
13.12811 4.5945148 0.4909372
2.6135643 2.5485065 -1.1794431
13.165549 4.6197867 0.82000542
3.2060275 2.6535745 -1.2688755
13.158155 4.6366677 1.1478677
3.5768788 2.7223768 -1.2703334
12.904862 4.6064739 1.4505955
4.2372913 2.8420799 -1.3235879
12.898618 4.6234016 1.7755057
6.6088643 3.2606461 -1.7176875
12.059375 4.4780426 1.9645685
7.4077239 3.4103487 -1.6939805
11.655211 4.41609 2.2002108
0.96822178 2.2414014 -1.116868
8.5189323 3.5892797 -1.6816221
1.0915984 2.262871 -1.1360573
10.166692 3.8893619 -1.698118
1.1728412 2.2782314 -1.1267288
10.439466 3.9517665 -1.4721208
1.3163304 2.303395 -1.1455518
10.931152 4.0537505 -1.2534547
1.4009982 2.3198051 -1.1286085
13.166038 4.4682727 -1.1407523
1.43341 2.328156 -1.0849171
13.174141 4.4879012 -0.81460857
1.5487185 2.3497312 -1.0757371
13.184643 4.508091 -0.48626679
1.699725 2.3773537 -1.0750518
13.181701 4.5257039 -0.16008654
2.1112454 2.4475708 -1.1641283
13.198829 4.5470076 0.16652746
2.3370407 2.4885566 -1.1687942
13.190643 4.5638309 0.49573547
2.7302189 2.5577884 -1.2153608
13.212324 4.5861144 0.82501495
3.1872776 2.6386766 -1.2621535
13.204843 4.6030426 1.1538006
3.6249685 2.7175348 -1.2818416
13.207061 4.6220155 1.4874232
4.2131042 2.8230531 -1.3162963
12.95857 4.5931916 1.7851707
6.6012583 3.2371728 -1.7139826
12.050817 4.437324 1.9641019
7.4004993 3.3844845 -1.6904165
11.692835 4.3855095 2.2081156
0.95888042 2.2351103 -1.1104759
8.3254395 3.5283368 -1.6468278
1.0994316 2.258729 -1.1396917
10.279841 3.8757432 -1.7117623
1.2087402 2.2780516 -1.1452243
10.408235 3.9124804 -1.4658369
1.3279854 2.2991695 -1.1506194
10.982483 4.0272942 -1.2558712
1.4038861 2.3139973 -1.1291264
13.214714 4.4345741 -1.1414539
1.4724368 2.3278353 -1.1016803
13.218934 4.4535375 -0.81414497
1.5444307 2.3423572 -1.0730581
13.229474 4.473742 -0.48491469
1.6457927 2.3616889 -1.0527997
13.226529 4.4914045 -0.15785396
2.1053066 2.4382052 -1.1609312
13.245623 4.513052 0.16968776
2.3984952 2.489311 -1.1888372
13.225596 4.5277877 0.49928579
2.7678313 2.5535688 -1.2261524
13.249218 4.5503845 0.82935405
3.1969249 2.6285455 -1.2637335
13.247545 4.5684423 1.159381
3.5661874 2.6948035 -1.2648733
13.249664 4.5874295 1.4938401
4.2675362 2.8172569 -1.3279941
12.987312 4.5568037 1.7904475
6.6302257 3.2198997 -1.7182186
12.051826 4.3985114 1.965237
7.3893185 3.358021 -1.6861126
11.738097 4.3561954 2.2175002
0.93414193 2.2269564 -1.0949163
8.4291544 3.5199249 -1.6620634
1.0847747 2.2515929 -1.1305983
10.316517 3.8505366 -1.7145503
1.2201452 2.2744043 -1.1505733
10.405892 3.880307 -1.4631845
1.3272014 2.2933872 -1.1494138
11.031439 4.0022478 -1.2581984
1.4102691 2.3090696 -1.1313766
13.26486 4.403367 -1.1424181
1.4969702 2.3254719 -1.1119368
13.265196 4.4216909 -0.8138994
1.5509931 2.3370702 -1.0750329
13.271822 4.4412251 -0.48363617
1.7776246 2.3754992 -1.1041679
13.268886 4.4589362 -0.1557412
2.084399 2.4270375 -1.1522821
13.285999 4.4802108 0.17259429
2.3981402 2.4805102 -1.1877224
13.275768 4.4967999 0.5034368
2.6470003 2.524539 -1.1868151
13.303256 4.5200763 0.8348012
3.1627779 2.6120267 -1.2526362
13.29757 4.5374641 1.1655712
3.6733065 2.7000489 -1.2921566
13.299577 4.5564704 1.5010526
4.1029115 2.7762561 -1.2869807
13.038901 4.5269613 1.7989072
6.6338444 3.1996033 -1.7170895
12.046507 4.3608389 1.965282
7.3719869 3.3320663 -1.6807737
11.777123 4.327713 2.2256737
0.97244084 2.2275186 -1.1171026
8.4202318 3.4907918 -1.6582878
1.0770451 2.2452214 -1.1254131
10.326113 3.8186996 -1.7133045
1.2141261 2.2678545 -1.1465086
10.446899 3.8534415 -1.4655739
1.3193859 2.2862384 -1.1445976
1.3970343 2.3008571 -1.1241883
13.309446 4.3684731 -1.14281
1.4294193 2.3089006 -1.0806495
13.307866 4.386507 -0.81331635
1.5411884 2.3288999 -1.0700417
13.328315 4.4084411 -0.48254979
1.7531008 2.3643913 -1.0935727
13.321439 4.4255304 -0.15349217
2.1173935 2.4237683 -1.1634738
13.334605 4.4461179 0.17582391
2.4633787 2.4813192 -1.2090186
13.322358 4.4624257 0.50755435
2.7335842 2.5280144 -1.2131248
13.3498 4.4856544 0.83984911
3.1894424 2.6046164 -1.2591887
13.347953 4.5037889 1.1719099
3.7920949 2.7057574 -1.3224101
13.328339 4.5189409 1.5058848
4.1649384 2.7717183 -1.3005307
13.073309 4.4912758 1.8050307
6.6395521 3.1783426 -1.7163074
12.043406 4.321362 1.9657687
7.4188194 3.3152616 -1.6876297
11.814522 4.2964983 2.2336106
0.98354363 2.2238278 -1.1229399
8.4524069 3.4667387 -1.6612624
1.0831592 2.2405195 -1.1280506
10.451278 3.8036463 -1.7284433
1.2203778 2.2627394 -1.1490004
10.49013 3.8247273 -1.4680774
1.3062948 2.2780437 -1.137072
11.751081 4.04775 -1.3215963
1.3856143 2.2926304 -1.1178406
13.350443 4.3302379 -1.1427722
1.4287344 2.3021095 -1.0794733
13.352838 4.3489804 -0.81268144
1.5423727 2.3220189 -1.0696594
13.367403 4.3698945 -0.48087937
1.6843789 2.3464508 -1.0654939
13.360533 4.3870387 -0.15108082
2.1263237 2.4161973 -1.1657295
13.371719 4.4072742 0.17893483
2.4275935 2.4658759 -1.1956604
13.363377 4.4243288 0.51154649
2.7467337 2.5191271 -1.2161131
13.39275 4.4478402 0.84477115
3.1725168 2.5896392 -1.2529991
13.394745 4.4666934 1.1780314
3.7868471 2.69063 -1.3196065
13.392635 4.4850492 1.5150056
4.1214037 2.7493675 -1.2886031
13.125579 4.4561348 1.8137823
6.6492815 3.1564016 -1.7162882
12.032782 4.2783084 1.9650869
7.4328771 3.2915058 -1.688081
11.852217 4.2628989 2.241679
0.99454474 2.2206419 -1.1288056
8.5132217 3.45031 -1.6692798
1.0943437 2.2370932 -1.1336582
10.427167 3.7680149 -1.7225362
1.2335072 2.259208 -1.1552815
10.524797 3.7984004 -1.4698513
1.3125279 2.2733243 -1.1394614
11.790337 4.0185881 -1.3228513
1.3865744 2.2869487 -1.1175256
13.400355 4.2982759 -1.1436969
1.5545223 2.3141007 -1.1352792
13.398862 4.3164196 -0.81239867
1.6493481 2.3311684 -1.1140319
13.417407 4.3379946 -0.47975609
1.7518457 2.3496008 -1.0913261
13.410531 4.3552103 -0.14893845
2.0532579 2.3975115 -1.1379298
13.429596 4.3767891 0.18227941
2.3953118 2.45228 -1.183654
13.427106 4.3949246 0.51637888
2.7653246 2.512202 -1.2209522
13.436744 4.4150352 0.84957063
3.1762185 2.5792651 -1.252959
13.432773 4.4328909 1.1831572
3.8195343 2.6829331 -1.327032
13.399256 4.4458222 1.5171835
4.4832988 2.7915208 -1.3742027
13.171105 4.4244881 1.8214526
6.6546512 3.1363561 -1.7155746
12.023222 4.2401161 1.9644748
7.4949317 3.2781138 -1.6979605
11.902632 4.2358804 2.2520952
0.96971798 2.212687 -1.113258
8.5213575 3.4253669 -1.668511
1.1055244 2.2336063 -1.1392627
10.46752 3.7426476 -1.7258422
1.2291284 2.2532432 -1.1521739
10.563328 3.7725072 -1.4720814
1.3364605 2.2709923 -1.1508217
11.837399 3.9904716 -1.3248421
1.3982629 2.2827489 -1.1223412
13.454146 4.2666807 -1.1448885
1.5718322 2.3102257 -1.1422558
13.444817 4.2836123 -0.81210351
1.6759975 2.3283648 -1.1244643
13.455499 4.303895 -0.47833472
1.7584913 2.3436873 -1.093136
13.462436 4.3234363 -0.14678305
2.0340502 2.3870168 -1.1299876
13.469654 4.3430505 0.18523204
2.469846 2.4544394 -1.2081516
13.465164 4.360889 0.52003324
2.6667991 2.4879427 -1.1888454
13.486557 4.3829918 0.85479736
3.1817944 2.5691574 -1.2534696
13.484468 4.4012246 1.1895849
3.708719 2.6535387 -1.2964437
13.488021 4.42065 1.5290627
4.4241037 2.7678859 -1.3586433
13.218506 4.3929367 1.8294119
6.6793056 3.119242 -1.7190224
12.015493 4.202322 1.9641824
7.4928756 3.2545073 -1.6955874
11.947185 4.207571 2.2614183
0.98586261 2.2098572 -1.1221646
8.4321508 3.3839309 -1.6514316
1.0994555 2.2275012 -1.1350586
10.555111 3.722357 -1.735716
1.230038 2.2476723 -1.1518648
10.596231 3.7435465 -1.4734951
1.342737 2.2658129 -1.1531857
11.859175 3.9559338 -1.3242785
1.3902965 2.2754655 -1.1177293
13.498405 4.2307897 -1.1452292
1.5149696 2.2957172 -1.1158788
13.493058 4.2484241 -0.81175339
1.6533551 2.3181834 -1.1140676
13.51168 4.2699914 -0.47719052
1.7873372 2.3404143 -1.1036447
13.504803 4.2873344 -0.14447367
1.8827419 2.3575058 -1.073486
13.517931 4.3079252 0.18851459
2.3400433 2.4264572 -1.1628443
13.507484 4.3248472 0.52401853
2.7269864 2.4865565 -1.2067603
13.532772 4.3475647 0.8598969
3.2255027 2.5638945 -1.2649635
13.544347 4.3681288 1.1969022
3.6399972 2.6302161 -1.2769905
13.53013 4.3846178 1.5355542
4.5362854 2.769129 -1.384091
13.25842 4.3573928 1.8364092
6.7118673 3.1018786 -1.7240562
12.009958 4.1627169 1.9643308
7.49681 3.2303896 -1.6942494
11.986219 4.1758237 2.2697694
0.99167132 2.2062211 -1.1249844
8.4808426 3.3669095 -1.6575702
1.0915381 2.2218192 -1.1299118
10.551967 3.6918809 -1.7329787
1.2325772 2.2429795 -1.1525298
10.632362 3.718931 -1.4755815
1.3524352 2.2617588 -1.1573801
11.921493 3.9319956 -1.3278559
1.4036987 2.2717896 -1.1234161
13.549678 4.2008162 -1.1463907
1.5611602 2.2961223 -1.13588
13.548335 4.2191424 -0.81203723
1.7274848 2.3220756 -1.1445357
13.557122 4.2391648 -0.47607055
1.7606673 2.3302407 -1.0923901
13.556171 4.257515 -0.14242855
2.1444602 2.3869998 -1.1687925
13.577176 4.2793851 0.19181192
2.4069793 2.4278326 -1.1847978
13.558779 4.2951145 0.52820456
2.637655 2.4648867 -1.1776991
13.582043 4.3174863 0.86501229
3.2290289 2.554033 -1.2649523
13.583709 4.3364387 1.2021104
3.6015782 2.6131961 -1.2657397
13.575282 4.3539615 1.5422454
4.3054295 2.7216275 -1.3275806
13.277941 4.3232379 1.8403735
6.6975322 3.080076 -1.7192487
12.036687 4.1331415 1.9697276
7.4438419 3.2007298 -1.6823349
12.026413 4.1486173 2.278254
0.99760711 2.201694 -1.1277544
8.5712738 3.3508575 -1.67023
1.1097095 2.2185042 -1.139392
10.657419 3.6715174 -1.7452078
1.2335074 2.2370701 -1.1522026
10.675262 3.6890991 -1.4780279
1.3481038 2.2547932 -1.1543422
11.96708 3.8984752 -1.3293806
1.4352009 2.2692833 -1.1375844
13.596148 4.1622434 -1.1467073
1.5948709 2.2934506 -1.1501168
13.590893 4.1800175 -0.81124222
1.7140191 2.3126752 -1.1379637
13.621445 4.2034116 -0.47494376
1.8320421 2.3320694 -1.1195749
13.600736 4.2187538 -0.13995662
2.1085849 2.3731847 -1.1546451
13.62174 4.2405968 0.19516857
2.3502839 2.4102736 -1.1644477
13.599346 4.2557893 0.53225923
2.6052322 2.4498601 -1.1664189
13.638332 4.280633 0.87097239
3.2480824 2.5442548 -1.2692318
13.632037 4.298357 1.2084845
3.6190035 2.6020174 -1.2690468
13.61761 4.3149748 1.5488979
4.3232913 2.7082756 -1.3304029
13.286782 4.279768 1.8430789
6.7011557 3.0570331 -1.7179712
12.074117 4.0983839 1.9771188
7.5100827 3.1843805 -1.6927611
12.069524 4.1148696 2.2874892
0.99669504 2.1963184 -1.1264493
8.5913544 3.3241796 -1.6712151
1.1157556 2.2136102 -1.1420194
10.688371 3.6397417 -1.7468526
1.2256505 2.2300804 -1.1471887
10.716121 3.6587439 -1.4802296
1.3455216 2.2480805 -1.1522032
12.006676 3.8638306 -1.3303365
1.423649 2.2611542 -1.1312428
13.644474 4.1237078 -1.1471504
1.5216215 2.2769136 -1.1164349
13.641248 4.1418481 -0.81080639
1.7609327 2.3111699 -1.1567883
13.652067 4.1622086 -0.4730148
1.7925899 2.3189664 -1.1031688
13.645197 4.1797471 -0.1374725
2.145329 2.3692088 -1.1671376
13.658292 4.2003455 0.19835098
2.4738359 2.4171762 -1.2054605
13.655599 4.218698 0.53707159
2.5992365 2.4386234 -1.1634749
13.676789 4.2406859 0.87569237
3.2290111 2.5291665 -1.2625031
13.67829 4.2596927 1.2146868
3.8721864 2.6232491 -1.3345199
13.642177 4.2729516 1.5534722
13.273978 4.232831 1.8427233
6.7105193 3.0348003 -1.7179387
12.109508 4.063108 1.9841956
7.5120769 3.1585157 -1.6909736
12.097023 4.0783544 2.2937744
0.99388361 2.1918969 -1.1241906
8.4071398 3.2752166 -1.6389397
1.1164075 2.2092986 -1.1417803
10.678822 3.6101334 -1.7433791
1.226343 2.2255011 -1.1469351
10.753745 3.6358097 -1.4826281
1.340933 2.242559 -1.149246
12.042879 3.8375134 -1.3315849
1.399287 2.252985 -1.1190082
13.687257 4.094306 -1.1478541
1.5187966 2.2711577 -1.1145182
13.697912 4.1145411 -0.81127858
1.7032148 2.2978563 -1.1318488
13.712727 4.1355281 -0.47236329
1.9543114 2.3336246 -1.1659887
13.701898 4.152554 -0.13552476
2.2041559 2.3698814 -1.187917
13.705086 4.1716843 0.20127138
2.4110973 2.4011724 -1.1833205
13.696436 4.1891804 0.54069138
2.6913042 2.4427419 -1.191563
13.729409 4.2129674 0.88098764
3.2399712 2.5209768 -1.2647283
13.726873 4.2313981 1.220719
3.6878448 2.5870321 -1.2849039
13.614099 4.2327976 1.5514537
4.294745 2.6760504 -1.321048
13.271299 4.197556 1.8434943
6.7326159 3.0195267 -1.7210912
12.157105 4.038733 1.993058
7.4897799 3.1350784 -1.6850722
1.0032021 2.1877079 -1.1289939
8.730072 3.2906685 -1.6899935
1.1033641 2.2021506 -1.1336541
10.660549 3.5713277 -1.7380874
1.2324829 2.220228 -1.1494192
11.644363 3.7242033 -1.5846199
1.331205 2.2350421 -1.1435262
12.084281 3.8027105 -1.3327035
1.436156 2.2508769 -1.1357232
13.749237 4.0572157 -1.1492391
1.5942025 2.2734258 -1.1474093
13.742166 4.0749226 -0.81053615
1.7446225 2.2954493 -1.148355
13.757009 4.0959072 -0.47073042
1.9444265 2.3240631 -1.1611829
13.748158 4.1133003 -0.13301198
1.9909866 2.3337851 -1.108972
13.759241 4.1336274 0.2049014
2.4332023 2.3942115 -1.1898116
13.75252 4.1514921 0.54553461
2.8102858 2.4474509 -1.2278099
13.781486 4.1746264 0.88671362
3.2475021 2.5095193 -1.2657013
13.776891 4.1928039 1.227321
3.5574841 2.5559194 -1.2493153
13.565772 4.179534 1.5474164
4.2430248 2.6533206 -1.3073219
13.264091 4.1516714 1.8439655
6.7089071 2.9927096 -1.7140089
12.202078 4.0045433 2.0017805
7.5403109 3.1159182 -1.6925116
1.0124294 2.1840441 -1.1338276
8.6458464 3.2526557 -1.6740311
1.1023408 2.1970615 -1.1324061
10.784858 3.5560908 -1.7532231
1.2191993 2.2133679 -1.141637
11.657216 3.6910086 -1.5836465
1.3337859 2.2297213 -1.1441156
12.124947 3.7721255 -1.3340554
1.4549663 2.247169 -1.1439339
13.794595 4.0225921 -1.1497788
1.6277878 2.271059 -1.161664
13.791517 4.0409284 -0.81033468
1.7400936 2.2881045 -1.1456791
13.810358 4.0624881 -0.46958962
1.9713821 2.3199911 -1.1709363
13.797549 4.0793891 -0.13076206
2.0816214 2.3374963 -1.1412944
13.814555 4.1005945 0.20831582
2.4400952 2.3863182 -1.1912501
13.801844 4.1176577 0.54983282
2.6923196 2.4226892 -1.1898726
13.822864 4.1395817 0.89147246
3.268158 2.501091 -1.2705927
13.831977 4.1598539 1.234218
3.4920127 2.5354953 -1.2310055
13.577436 4.1407094 1.5503128
4.4534621 2.6669295 -1.3561659
13.259949 4.1113095 1.8447205
6.7487445 2.9770675 -1.7207402
12.238504 3.9734049 2.0089669
7.5611649 3.0954275 -1.6945647
13.555978 4.194325 2.575305
1.0079546 2.1788492 -1.1305184
8.6828089 3.2311258 -1.6780764
1.1030377 2.1921711 -1.1321353
10.757988 3.5200214 -1.7470368
1.2339947 2.2097194 -1.1488377
11.736922 3.666759 -1.5905057
1.3452375 2.2253914 -1.1491792
12.173438 3.7423954 -1.3361326
1.4000902 2.2348986 -1.1171658
13.845794 3.9885378 -1.1507195
1.6123497 2.2628012 -1.1540138
13.834859 4.0058441 -0.80984473
1.6951991 2.2760305 -1.1261032
13.851748 4.0271187 -0.46816498
1.9798272 2.3135612 -1.1734319
13.848844 4.0454907 -0.12849692
2.0248389 2.3228791 -1.1197433
13.863856 4.0664158 0.2116023
2.5128226 2.3864417 -1.2150109
13.849123 4.0832739 0.55404985
2.729661 2.4178224 -1.2006317
13.870085 4.1051755 0.8966651
3.2429986 2.4868193 -1.2623023
13.875182 4.1248779 1.240009
3.6434267 2.5428922 -1.2697002
13.5831 4.1009612 1.5525109
13.204769 4.0633941 1.8382084
6.7419786 2.9551871 -1.7175307
12.280721 3.9429498 2.0171397
7.5293388 3.0679526 -1.6866702
13.598559 4.1602082 2.5845554
1.0035427 2.1731043 -1.1271789
8.6477394 3.1968153 -1.6700199
1.1038053 2.1866674 -1.131831
10.859231 3.4967625 -1.7585868
1.2277904 2.2030437 -1.1447673
11.77977 3.6328199 -1.5927297
1.3389993 2.2183461 -1.1452541
12.214585 3.7068806 -1.3372144
1.4189684 2.2304692 -1.1253372
13.897623 3.9491503 -1.1513665
1.6551257 2.2604299 -1.1722642
13.886734 3.9665489 -0.80942893
1.7916256 2.2796121 -1.1656315
13.90366 3.9878244 -0.46667209
1.9494994 2.3016493 -1.1606566
13.894814 4.0054383 -0.1259433
1.8784792 2.2971208 -1.065459
13.907842 4.0260782 0.21503785
2.5029118 2.3751729 -1.2106372
13.908887 4.0452414 0.55912924
2.6723549 2.4001305 -1.1816598
13.919899 4.0657263 0.90229213
3.1301553 2.4606347 -1.2287076
13.932788 4.0865746 1.2474031
3.6587508 2.5310807 -1.272483
13.638492 4.0633297 1.560829
13.208879 4.0195589 1.8403362
6.7355051 2.9307823 -1.7141827
12.329338 3.9086108 2.0265493
7.5017195 3.0383253 -1.6793659
13.653404 4.1226158 2.5963199
0.93567622 2.1612077 -1.0862378
8.637784 3.1675527 -1.6662467
1.0854157 2.1794863 -1.1208043
10.753827 3.448688 -1.741261
1.2250334 2.1971056 -1.1425885
11.832082 3.6020699 -1.5962093
1.322016 2.2105455 -1.1359845
12.288909 3.6777284 -1.3415252
1.4665703 2.2294168 -1.1471609
13.947027 3.9117429 -1.152001
1.6233419 2.2499917 -1.1573027
13.944107 3.9302764 -0.80940986
1.8201447 2.2754507 -1.1767461
13.961074 3.951566 -0.4654364
1.9097983 2.2893305 -1.1442941
13.950245 3.968996 -0.12350567
2.1335843 2.318763 -1.1576562
13.963253 3.9896502 0.21863678
2.4853539 2.3636413 -1.2037489
13.950399 4.0069523 0.5632292
2.7818339 2.4029951 -1.2149037
13.983098 4.0304532 0.90878379
3.2367249 2.4619296 -1.2582477
13.984047 4.0496559 1.2541105
3.5644088 2.5067508 -1.2465962
13.675732 4.0253716 1.5669184
4.6511064 2.6448362 -1.3990293
13.20469 3.9770195 1.8412089
6.7637353 2.9120178 -1.7183442
12.375605 3.8759787 2.0355222
7.5303717 3.0173378 -1.6828101
13.707808 4.0872073 2.6079657
0.96369034 2.159502 -1.1022568
8.5511122 3.1305776 -1.6500367
1.1103779 2.1770968 -1.1342016
10.913369 3.4361875 -1.7612656
1.2274904 2.1920536 -1.1432345
11.854466 3.5694916 -1.5963526
1.3369852 2.2065256 -1.1428338
12.327309 3.6459029 -1.3426429
1.4889507 2.2257957 -1.1570598
13.999956 3.8771148 -1.1530362
1.6096418 2.2420874 -1.1504718
13.999072 3.8959725 -0.80942476
1.7678162 2.2627606 -1.1541108
14.014096 3.9170153 -0.46423715
1.947811 2.286279 -1.1583818
14.003268 3.9345305 -0.12119521
2.231807 2.3218687 -1.1926215
14.022201 3.9559908 0.22220866
2.4092848 2.346144 -1.1771522
14.00533 3.972852 0.56786859
2.7907002 2.3942928 -1.216745
14.024134 3.9944229 0.91359317
3.2610991 2.4537511 -1.2642254
14.030925 4.0144653 1.2603161
3.7562931 2.5173602 -1.2957767
13.734188 3.9927077 1.5754585
4.5989466 2.6236176 -1.3853886
13.202009 3.9372058 1.8422257
6.7567787 2.8901825 -1.715138
12.419541 3.845088 2.044059
7.5138955 2.9921582 -1.6778775
13.752067 4.0526156 2.6176262
1.0173942 2.1604137 -1.1335285
8.6738091 3.1209099 -1.6682913
1.1196668 2.173346 -1.1388261
11.031374 3.4198346 -1.7755581
1.2334094 2.18767 -1.145769
11.915925 3.5438349 -1.6011946
1.3447837 2.2020516 -1.1461222
12.355458 3.6149228 -1.3429625
1.4788806 2.2190871 -1.1516397
14.050494 3.8445277 -1.1540617
1.6558855 2.2409394 -1.1703891
14.047685 3.8631945 -0.80929542
1.7778257 2.2574127 -1.1575979
14.060757 3.883996 -0.46303466
1.9375757 2.2782865 -1.1536636
14.051917 3.9018412 -0.11901775
2.2402699 2.3151491 -1.1949277
14.070832 3.9232988 0.22540896
2.2916093 2.3250062 -1.1366022
14.055895 3.9405086 0.57218957
2.8336408 2.3899786 -1.229277
14.080566 3.9628649 0.91940784
3.1821623 2.4344165 -1.2406548
14.087252 3.9829321 1.2673329
3.8193331 2.5129089 -1.3112388
13.78241 3.9609241 1.5827016
13.175357 3.8966165 1.8397382
6.7962337 2.8751693 -1.7219071
12.46506 3.8165329 2.0528059
7.643579 2.9859149 -1.7005558
13.803709 4.0214119 2.6286495
1.0232087 2.1556587 -1.1362873
8.6422453 3.0875318 -1.6609054
1.1238521 2.1681201 -1.1404706
11.032119 3.3827274 -1.7729864
1.2394438 2.1822677 -1.1482468
11.946604 3.5074849 -1.6019938
1.345584 2.1957896 -1.1457762
12.406144 3.5796199 -1.3449063
1.4743326 2.2118633 -1.148716
14.101937 3.8039682 -1.1546488
1.6622678 2.234256 -1.1724172
14.095213 3.8222094 -0.80863786
1.7549132 2.2473302 -1.1472081
14.11824 3.8442581 -0.46161035
1.91636 2.2678375 -1.1445336
14.105431 3.8616889 -0.11639544
2.2208533 2.3038964 -1.1869463
14.124342 3.8831358 0.22914752
2.4190974 2.3293502 -1.1787256
14.117268 3.9014599 0.57743073
2.829339 2.3784266 -1.2268976
14.126037 3.9217308 0.92481005
3.1703126 2.4209149 -1.2361587
14.132647 3.9418106 1.2736613
3.7922702 2.4956634 -1.302924
13.833488 3.9215703 1.5906109
13.202495 3.8560452 1.8452274
6.8031063 2.852262 -1.7214428
12.50943 3.7805839 2.0616176
7.7133036 2.9675894 -1.7115877
13.850393 3.9815423 2.6389866
1.0237908 2.15099 -1.1360303
8.6866713 3.0663345 -1.6662039
1.1244693 2.1631706 -1.1401975
11.107025 3.3583503 -1.7810732
1.245383 2.1774926 -1.1507596
11.945061 3.4716728 -1.5993716
1.3623093 2.1917548 -1.1535089
12.444311 3.5471852 -1.3459938
1.45886 2.2043607 -1.1407278
14.152636 3.7682719 -1.1555043
1.6721729 2.2287047 -1.1761072
14.155889 3.7877853 -0.80887842
1.735532 2.2385929 -1.1384066
14.165055 3.8081439 -0.46023914
1.9153987 2.2604883 -1.1434151
14.152246 3.8256571 -0.11405228
2.2443042 2.2982059 -1.194662
14.173126 3.8473434 0.23251718
2.5125713 2.3304605 -1.2094194
14.166016 3.8657293 0.58182657
2.8286502 2.3685205 -1.2257718
14.178678 3.8865161 0.93051052
3.1544278 2.4084096 -1.2306463
14.181241 3.9061124 1.2800946
3.7399278 2.4774096 -1.288173
13.891709 3.8880191 1.5991971
4.4053292 2.5568032 -1.3358334
13.171988 3.8127079 1.8422985
6.7862444 2.8293176 -1.7161787
12.555095 3.7492507 2.070518
7.6654177 2.9385402 -1.7007757
13.900238 3.9470091 2.6498041
1.0226785 2.1458762 -1.1347407
8.8391571 3.0552678 -1.6890035
1.1164131 2.157131 -1.1350327
11.154576 3.3283963 -1.7851856
1.2390226 2.1712322 -1.1467128
11.991066 3.4390767 -1.6021074
1.3559083 2.1851282 -1.1496081
1.4668285 2.1987872 -1.143787
14.17383 3.726249 -1.1541706
1.6274904 2.2174611 -1.1555064
14.200912 3.7485728 -0.80824399
1.7841985 2.2361712 -1.1579388
14.218058 3.7698934 -0.45883998
1.9701412 2.2581997 -1.1639605
14.20525 3.7874973 -0.11154225
2.1648672 2.2815588 -1.164971
14.23207 3.8098958 0.23629379
2.5703096 2.3268428 -1.2279741
14.214989 3.8271387 0.58637905
2.8280044 2.3580146 -1.2246113
14.23154 3.8484228 0.93636966
3.1117921 2.3925364 -1.217448
14.237967 3.8685439 1.2874408
3.7338116 2.4635859 -1.2854471
13.946219 3.8511035 1.6074688
4.4729757 2.5488844 -1.3505383
13.155381 3.7689023 1.841463
6.8336773 2.8121524 -1.7244294
12.602915 3.7156084 2.0798824
7.6097846 2.9074643 -1.6884359
13.960051 3.9109297 2.6626434
1.0232674 2.1409183 -1.1344671
8.8483839 3.0278037 -1.6884135
1.1100758 2.1512949 -1.1308457
11.196143 3.2975397 -1.7884631
1.2449731 2.1660974 -1.1492063
11.979709 3.3998852 -1.5982202
1.3370066 2.1774242 -1.1394604
13.779801 3.6183579 -1.4632874
1.4765874 2.1933358 -1.1476949
14.143361 3.6782815 -1.1493161
1.6173627 2.209697 -1.1502836
14.196213 3.7034256 -0.80537403
1.7537856 2.2260087 -1.1445202
14.255061 3.7295151 -0.45708796
1.969207 2.2502573 -1.1628096
14.256163 3.7488227 -0.10902164
2.1359017 2.2703047 -1.1536444
14.277011 3.7704816 0.23973401
2.5752175 2.3176739 -1.2287194
14.271786 3.7892401 0.59133291
2.7893021 2.3437138 -1.2116331
14.288273 3.8105233 0.94253016
3.0346398 2.3734241 -1.1944253
14.280756 3.8289769 1.2934772
3.7623172 2.4533732 -1.2917565
13.996693 3.8134041 1.6152837
4.7207441 2.5593517 -1.407673
13.177929 3.7301381 1.8462586
6.8557754 2.792048 -1.7273209
12.650649 3.6817083 2.089262
7.6009555 2.8817496 -1.6848934
14.002229 3.8722808 2.6721349
1.0272099 2.1368215 -1.1362565
8.7884302 2.99634 -1.6768242
1.1227928 2.1477098 -1.1374128
11.241101 3.2710001 -1.7925034
1.2384981 2.1605384 -1.1451983
12.10009 3.3794832 -1.6098313
1.3162115 2.1703646 -1.1284642
13.786147 3.5808485 -1.4613905
1.4736254 2.1874526 -1.1456872
14.114125 3.6358595 -1.1448909
1.6526686 2.206887 -1.1653142
14.162991 3.660367 -0.80155039
1.7269164 2.2171912 -1.1326889
14.229785 3.6871436 -0.45431036
1.9941409 2.2456548 -1.1718224
14.280547 3.7120972 -0.10682967
2.155473 2.2647901 -1.160032
14.327223 3.7367148 0.24305232
2.5082359 2.3027115 -1.2053902
14.308057 3.7539046 0.59504223
2.7732296 2.333051 -1.2058214
14.344311 3.7775209 0.94841921
2.9266236 2.3529985 -1.1627581
14.34064 3.7965124 1.300946
3.7463162 2.440099 -1.2866076
14.050434 3.7810163 1.6233039
13.195878 3.6955967 1.8502301
6.8658361 2.7732332 -1.7278839
12.701678 3.6526759 2.0990553
7.6445255 2.8644681 -1.6913806
14.053469 3.8397391 2.6832271
1.0260873 2.1314201 -1.1349519
8.8114138 2.9687479 -1.6783845
1.1269035 2.1424241 -1.1390547
11.089637 3.2175469 -1.7688617
1.2426939 2.1548996 -1.1467391
12.19354 3.3488271 -1.6178567
1.3115585 2.1637425 -1.1254485
13.979426 3.5555701 -1.4760745
1.452734 2.1789365 -1.1351187
14.081672 3.5854716 -1.1397823
1.6425498 2.1987081 -1.1600688
14.120574 3.6086822 -0.79687071
1.7995414 2.2160823 -1.162127
14.197302 3.6362715 -0.45094687
1.9560696 2.2338445 -1.1562037
14.254045 3.6616714 -0.10432379
2.1545949 2.2558122 -1.1588686
14.304717 3.686542 0.24492717
2.4772515 2.289818 -1.1940516
14.327258 3.7085047 0.59831357
2.7592216 2.3208725 -1.2005076
14.381343 3.7340729 0.95331705
3.0562172 2.3540554 -1.1987171
14.397377 3.7554088 1.3084847
3.7883425 2.4302332 -1.2963732
14.101015 3.7401655 1.6312902
4.6331892 2.5194917 -1.384546
13.198831 3.6518357 1.8523449
6.8451281 2.7473316 -1.7216586
12.73776 3.6144729 2.1066215
7.6728992 2.8410254 -1.6946942
14.103549 3.7989683 2.6943829
1.0231639 2.1264811 -1.1326656
8.8536091 2.9462883 -1.68331
1.1344153 2.1380086 -1.1426772
11.323874 3.2081034 -1.7989978
1.2185863 2.1476576 -1.1333843
12.242942 3.3176711 -1.6211071
1.337139 2.1602948 -1.1376334
14.005705 3.517036 -1.4758153
1.4786395 2.1751583 -1.1466941
14.121906 3.5481334 -1.1399387
1.6195513 2.1903164 -1.1492164
14.119142 3.566848 -0.79433906
1.8187048 2.2108264 -1.1694012
14.162096 3.5905764 -0.44784051
1.9810259 2.2286813 -1.1651856
14.210907 3.6148977 -0.10215516
2.209806 2.2528079 -1.1781089
14.271553 3.6406517 0.24624845
2.3837588 2.2725875 -1.1618447
14.294137 3.6624994 0.59875178
2.7012749 2.3059669 -1.1816914
14.362169 3.6894255 0.95389509
3.0937569 2.3470993 -1.2085152
14.411883 3.714514 1.3117503
3.7646444 2.4154954 -1.2891805
14.162758 3.7055511 1.640429
13.187358 3.6113114 1.8522109
6.8318396 2.7249305 -1.7172267
12.794775 3.5832906 2.1175551
7.671536 2.8174417 -1.692688
14.156851 3.7635438 2.7060211
1.0254139 2.1216464 -1.1334064
8.8861074 2.9209895 -1.6865383
1.1314969 2.1324568 -1.1404389
11.357252 3.1755376 -1.8011364
1.2421113 2.1438715 -1.1452062
12.282631 3.2830095 -1.6230854
1.3556192 2.1557965 -1.1462257
14.05396 3.4780025 -1.4773915
1.4919485 2.1698539 -1.1522943
14.172254 3.5090122 -1.1406124
1.6093292 2.1827009 -1.1440023
14.16954 3.527791 -0.79394829
1.8213298 2.2036631 -1.1697638
14.182702 3.548331 -0.44575325
1.978143 2.2205698 -1.163314
14.187774 3.5678923 -0.099806041
2.2069631 2.2440107 -1.1762867
14.234541 3.5919354 0.24759723
2.3488185 2.2604685 -1.1493
14.261148 3.6140904 0.59932184
2.7137599 2.2970459 -1.1846839
14.327279 3.6405451 0.95345283
3.1121922 2.3375561 -1.2128133
14.381051 3.6658731 1.3107734
3.7525451 2.4011829 -1.2849567
14.204963 3.6657963 1.6473548
4.5278888 2.4790444 -1.3573812
13.170116 3.5677803 1.851355
6.8809838 2.7071691 -1.7258475
12.838249 3.5478699 2.1263309
7.6428523 2.7898099 -1.6855001
14.204491 3.7245576 2.7166884
1.0207711 2.1163156 -1.1300924
8.8969135 2.8934767 -1.6862582
1.1425035 2.1279261 -1.1459877
11.408292 3.1444645 -1.8057166
1.2162271 2.1363163 -1.13091
1.3258849 2.1475713 -1.1307465
14.102104 3.4386899 -1.4789529
1.4908041 2.1633654 -1.1510957
14.230444 3.4703858 -1.1418053
1.6684053 2.1805699 -1.1694613
14.225811 3.4890409 -0.79380465
1.7539274 2.1909008 -1.1410754
14.238999 3.5096011 -0.44439316
1.9603608 2.2112689 -1.1556742
14.24408 3.5292072 -0.097239643
2.2528522 2.2392631 -1.1920856
14.255047 3.5494437 0.25044072
2.4971778 2.2639816 -1.1982571
14.245883 3.5677638 0.6007669
2.7357435 2.2888668 -1.1906192
14.296199 3.5923028 0.95328712
3.178534 2.332072 -1.2307298
14.346108 3.6169977 1.3094035
3.8040531 2.392566 -1.2972466
14.262851 3.6275244 1.6561937
4.1454062 2.4292657 -1.2664627
13.160609 3.5252256 1.851626
6.8501639 2.6818478 -1.7176567
12.891429 3.5132952 2.1367664
7.6493254 2.7656064 -1.6848781
14.267641 3.6870646 2.7303739
1.0229642 2.1117685 -1.1308491
8.9920301 2.8752565 -1.6997356
1.1447527 2.1230447 -1.146686
11.44721 3.1141183 -1.8087658
1.2202837 2.1313574 -1.1324883
12.339723 3.2132456 -1.6246469
1.2978691 2.1399906 -1.1161869
14.159811 3.4026225 -1.4815403
1.5112737 2.1588597 -1.1601063
14.278344 3.4330776 -1.1424582
1.6435117 2.172174 -1.1578101
14.275744 3.451992 -0.79352653
1.7195927 2.181499 -1.1261865
14.29693 3.4733551 -0.44320053
1.9108801 2.2000468 -1.1358111
14.29207 3.4920118 -0.094823942
2.2255316 2.2289178 -1.1814793
14.310974 3.5130708 0.2540876
2.5547903 2.2598145 -1.2167833
14.293806 3.530653 0.60523033
2.7005079 2.2764277 -1.178906
14.320263 3.5526226 0.9570334
2.9590857 2.3028426 -1.1675007
14.340447 3.5740721 1.3107485
3.8323224 2.3824522 -1.3035631
14.320382 3.5915313 1.6649061
4.3194504 2.4308896 -1.3061894
13.152706 3.4853632 1.8520441
6.8834772 2.6636913 -1.723057
12.936438 3.4799356 2.1457708
7.6751671 2.7445736 -1.6879731
14.312866 3.6498864 2.7405531
1.0165681 2.1063664 -1.126524
8.9613934 2.843766 -1.6927683
1.1487627 2.1179557 -1.1483394
11.488228 3.0816379 -1.8119589
1.2314222 2.1265314 -1.1377752
12.414753 3.1812172 -1.6306593
1.3484554 2.1376855 -1.14081
14.211723 3.3631251 -1.4834323
1.5010641 2.1516857 -1.1546621
14.344282 3.3945816 -1.1441531
1.6368771 2.1648474 -1.1542109
14.331808 3.412643 -0.79335225
1.687103 2.1720216 -1.1120509
14.349058 3.4336238 -0.44172838
1.9674375 2.1966698 -1.1570104
14.352155 3.4531202 -0.092214607
2.0162175 2.2042341 -1.1051744
14.361091 3.4732053 0.25773507
2.5557234 2.2503195 -1.216262
14.35382 3.4918728 0.61044538
2.7186325 2.2678678 -1.1836607
14.370274 3.5128191 0.96282113
3.1308556 2.3060014 -1.2153653
14.376499 3.5328341 1.31626
3.8548543 2.3709273 -1.3083304
14.378074 3.5526214 1.6737781
4.2432575 2.4096568 -1.2872078
13.123257 3.4408932 1.8494641
6.9188285 2.6442111 -1.7287856
12.989437 3.4447997 2.1562343
7.6521187 2.7177184 -1.6818925
14.373872 3.6115401 2.753896
