# .PCD v0.7 - Point Cloud Data file format
VERSION 0.7
FIELDS x y z
SIZE 4 4 4
TYPE F F F
COUNT 1 1 1
WIDTH 1427
HEIGHT 1
VIEWPOINT 0 0 0 1 0 0 0
POINTS 1427
DATA ascii
-4.0081887 -15.00052 2.482604
-1.5539578 -1.2896891 -0.79365766
-4.0029168 -14.95049 2.8935583
-1.5517567 -1.2728208 -0.70369434
-1.6669067 -1.9247174 -0.72469223
-2.2060888 -4.8621917 1.5132176
-1.4305528 -0.57464021 -0.43753541
-2.1613946 -4.6039524 1.6273549
-1.0181874 1.7700139 -0.29561937
-1.4566519 -0.67533404 -0.38161179
-1.0217522 1.7503605 -0.29170775
-1.4553093 -0.66440278 -0.31137553
-1.016566 1.7806327 -0.2633256
-1.511696 -0.97597104 -0.26354119
-1.2480503 0.46348512 -0.83952916
-1.510965 -0.96812308 -0.18676519
-1.2704922 0.33840719 -0.84235215
-1.5088451 -0.95258439 -0.11092497
-1.2863418 0.25102478 -0.82487643
-1.5120656 -0.96681255 -0.035759252
-1.3029106 0.15975741 -0.80504417
-1.3479409 -0.092439391 -0.83530772
-2.2071605 -4.8194714 0.3139722
-1.3751637 -0.24334872 -0.82207024
-2.3313205 -5.4999738 0.53206551
-1.4032187 -0.39861161 -0.80320287
-2.3976448 -5.8583655 0.75268793
-1.4476615 -0.64592844 -0.80083847
-4.0585804 -15.040373 2.0745375
-1.4501708 -0.65647876 -0.73143876
-4.0609741 -15.033337 2.4882171
-1.5630628 -1.2880657 -0.79373717
-2.2189901 -4.8434978 1.1632969
-1.5659994 -1.3002522 -0.70920587
-2.2193072 -4.8368349 1.3344008
-1.6724854 -1.8936344 -0.72004116
-2.2283342 -4.8780799 1.5172884
-1.4399256 -0.58504689 -0.43922204
-2.1822698 -4.6160297 1.63095
-1.017969 1.7789667 -0.29097155
-1.4801323 -0.75591046 -0.3911007
-1.0193728 1.7717701 -0.28103662
-1.5390569 -1.0764003 -0.3489922
-1.5200934 -0.96836579 -0.26323095
-1.2515599 0.47342131 -0.83554423
-1.5186319 -0.95657939 -0.18642513
-1.2772825 0.3321225 -0.8454541
-1.5150385 -0.93317264 -0.11066233
-1.2930791 0.24655649 -0.82708824
-1.517949 -0.9454211 -0.035922717
-1.307937 0.16640678 -0.80306804
-1.5241504 -0.97560555 0.04047915
-1.3543714 -0.089346133 -0.83473599
-1.5321969 -1.0158093 0.11836048
-1.3820405 -0.24015975 -0.82154644
-1.4074851 -0.37827867 -0.79783475
-2.1259446 -4.2426782 0.59282637
-1.4543539 -0.63487446 -0.79842162
-2.2441518 -4.8782916 0.82564318
-1.457585 -0.64919722 -0.73015404
-2.2459133 -4.8795037 0.99663258
-1.5629281 -1.2283971 -0.78158677
-2.2437084 -4.8590622 1.1664319
-2.1595962 -4.3945808 1.248396
-1.6905907 -1.9244716 -0.72552848
-1.4475032 -0.57964587 -0.4387548
-2.1823106 -4.5014234 1.6035576
-1.0180144 1.7861724 -0.28725556
-1.5058951 -0.84614348 -0.40171567
-1.0175095 1.7896379 -0.27214542
-1.0191739 1.781109 -0.26334921
-1.527362 -0.95485222 -0.26252648
-1.2569767 0.47255793 -0.83639657
-1.5240512 -0.93323064 -0.18557578
-1.2841129 0.32586101 -0.84855664
-1.5218517 -0.91768533 -0.11047722
-1.2931581 0.27882406 -0.81489778
-1.5240754 -0.9259901 -0.036078792
-1.3156296 0.15825453 -0.8065058
-1.5307413 -0.95812774 0.039955869
-1.3621514 -0.09370143 -0.83669484
-1.5392828 -1.0002868 0.11756591
-1.387183 -0.22755012 -0.81808233
-2.2241287 -4.6700082 0.4699215
-1.4130242 -0.36551619 -0.79464185
-2.1481435 -4.2547841 0.59420264
-1.4564453 -0.59903866 -0.7895236
-1.4646095 -0.63998109 -0.7284168
-1.5684664 -1.2014962 -0.77637315
-2.266351 -4.8629146 1.1675686
-2.1736312 -4.3600454 1.2421674
-1.7095989 -1.9591223 -0.73165262
-1.4568511 -0.58396912 -0.43964171
-2.2254972 -4.6199913 1.633394
-1.020425 1.7794223 -0.29099402
-1.5116978 -0.83292621 -0.40044433
-1.0189594 1.7880864 -0.27304611
-1.0209792 1.7777619 -0.26505691
-1.5260848 -0.90230298 -0.2591781
-1.2594798 0.48419881 -0.83159995
-1.5293519 -0.91597551 -0.18497179
-1.2856328 0.3449527 -0.84096897
-1.5234166 -0.88077414 -0.10985796
-1.2998557 0.27058619 -0.81854498
-1.5267751 -0.89496547 -0.036271859
-1.3291674 0.11483434 -0.82279563
-1.5350142 -0.93495536 0.039278656
-1.3660499 -0.081389859 -0.832955
-1.5444165 -0.98103809 0.11657921
-1.3945546 -0.23200603 -0.81990576
-2.24224 -4.6666198 0.46975422
-1.4169008 -0.34912658 -0.79035354
-1.4825184 -0.69859582 -0.81601596
-2.2799728 -4.849432 0.82263768
-1.4695284 -0.62518835 -0.72531092
-2.2829056 -4.8565364 0.99397874
-1.5766258 -1.1959851 -0.77563882
-2.287636 -4.8729763 1.1697221
-1.6546969 -1.6099192 -0.76852906
-2.1899338 -4.3509998 1.2408738
-1.7269934 -1.9920309 -0.73745036
-2.3734627 -5.3064985 1.6136965
-1.464524 -0.58454967 -0.43997994
-2.1653178 -4.2059898 1.532388
-1.0194582 1.791847 -0.28448179
-1.5188642 -0.82145178 -0.39940789
-1.9939628 -3.3097346 -0.55296326
-1.4994165 -0.71235919 -0.24661343
-1.2652115 0.48156178 -0.8332603
-1.5330302 -0.88476884 -0.18378286
-1.288717 0.35871065 -0.83567655
-1.5277432 -0.85349202 -0.10944136
-1.3072704 0.26249927 -0.82219994
-1.5300201 -0.86177593 -0.036482643
-1.3450599 0.064214282 -0.84180188
-1.5383841 -0.90175408 0.038318526
-1.371379 -0.072652854 -0.83048797
-1.5498166 -0.95764697 0.11537989
-1.4020903 -0.23251946 -0.82056117
-1.424077 -0.34580398 -0.78988039
-2.2932107 -4.8128433 0.64987981
-1.4882051 -0.68174309 -0.81210697
-2.3007061 -4.8434739 0.82219982
-2.3063121 -4.8641796 0.99549651
-1.5899507 -1.2113895 -0.77940714
-1.6612018 -1.5826563 -0.76392436
-2.2100031 -4.3491855 1.2410668
-1.740139 -1.9935546 -0.73819995
-2.1538053 -4.0509901 1.3374467
-1.4724376 -0.58102882 -0.43978667
-2.1731603 -4.1431484 1.5176687
-1.0246005 1.7712132 -0.29567829
-1.5235552 -0.80030525 -0.39724532
-1.5638342 -1.0048342 -0.34346089
-1.0228508 1.7818086 -0.26338363
-1.4870979 -0.60498369 -0.23957217
-1.2716886 0.4734914 -0.83733761
-1.5363723 -0.85563296 -0.18267368
-1.2914071 0.3724083 -0.83038139
-1.5332872 -0.83613026 -0.1092134
-1.3123013 0.26537025 -0.82153034
-1.5340662 -0.83655304 -0.036657065
-1.3506373 0.067207128 -0.84118104
-1.5421667 -0.87455523 0.037527252
-1.3794734 -0.080752492 -0.83371079
-1.5537653 -0.930439 0.11398398
-1.4077736 -0.22558208 -0.81886041
-2.3095558 -4.7999487 0.47997451
-1.4297087 -0.33687669 -0.78777206
-1.4790641 -0.59079742 -0.78874493
-2.3209393 -4.8415918 0.82225049
-2.4422679 -5.4528131 1.0825187
-1.6175696 -1.3037671 -0.79950333
-1.6765709 -1.6057323 -0.76873565
-4.2864866 -14.829628 3.296329
-1.7585521 -2.0262012 -0.74401081
-1.4813515 -0.58536321 -0.4406735
-2.1874049 -4.1205997 1.5128083
-1.0215844 1.7940632 -0.2835733
-1.5290383 -0.78100371 -0.39531246
-1.0223855 1.790571 -0.27219155
-1.5699193 -0.98537207 -0.34194991
-1.0244945 1.7802845 -0.26424497
-1.4839103 -0.54460055 -0.23569649
-1.2764308 0.47628555 -0.83658028
-1.5369995 -0.8107143 -0.18088789
-1.2953928 0.38072383 -0.82737994
-1.5326904 -0.7853061 -0.10833156
-1.3169452 0.2719833 -0.81942487
-1.535794 -0.79749167 -0.036890026
-1.3565708 0.070287786 -0.84056556
-1.5463399 -0.84725279 0.036730811
-1.3851202 -0.07384526 -0.83187807
-1.5585027 -0.90508521 0.1126836
-1.4167602 -0.23356152 -0.821872
-2.3223226 -4.754766 0.47668242
-1.431321 -0.30518126 -0.77914238
-2.2765679 -4.5159516 0.62081873
-1.4824957 -0.56446683 -0.78234076
-2.3458939 -4.8569293 0.82444513
-1.5683581 -1.0008931 -0.8158251
-4.4317322 -15.334051 2.5380311
-1.6222968 -1.2729148 -0.79347861
-1.6919838 -1.6247582 -0.77283144
-4.4823322 -15.545765 3.4382558
-1.770301 -2.0198743 -0.74349856
-2.1535957 -3.8598688 1.2964624
-1.488875 -0.57985049 -0.44021168
-2.2110341 -4.1397424 1.5182499
-1.5371335 -0.77534014 -0.39495096
-1.0233153 1.792582 -0.27131349
-1.5755051 -0.96394867 -0.34026083
-1.4897592 -0.5312283 -0.23498538
-1.2790463 0.48986867 -0.83098519
-1.5067792 -0.61299098 -0.17245133
-1.3011143 0.37997779 -0.82819617
-1.5219759 -0.6854955 -0.10647706
-1.3172334 0.30057615 -0.80867469
-1.5372962 -0.75844896 -0.037122298
-1.3621266 0.075230882 -0.83927369
-1.5479945 -0.8081919 0.035608511
-1.3844904 -0.035281233 -0.81929052
-1.5615196 -0.87189806 0.1109803
-1.4228351 -0.2265047 -0.82017744
-2.3580587 -4.824934 0.4820663
-1.4424587 -0.32258788 -0.78465486
-2.2876129 -4.467072 0.61616659
-1.486155 -0.54004157 -0.77643597
-2.3642783 -4.8391023 0.8225584
-1.5664555 -0.94169021 -0.80230653
-1.6268498 -1.2420632 -0.78745401
-2.443975 -5.2162676 1.2306777
-1.702531 -1.6186477 -0.77221799
-4.3756971 -14.745948 3.282866
-1.7789369 -1.9980226 -0.74045396
-1.4971446 -0.57820481 -0.44029343
-2.3303318 -4.6294432 1.6394812
-1.5441409 -0.76175791 -0.39369798
-1.0257046 1.7875851 -0.27399886
-1.5815204 -0.94240892 -0.33857772
-1.50078 -0.54121619 -0.23586385
-1.2815224 0.5053066 -0.82458639
-1.5081152 -0.57398719 -0.17091972
-1.3042651 0.39381623 -0.82290828
-1.5095711 -0.57784021 -0.10446721
-1.3165872 0.33470857 -0.79576659
-1.5318946 -0.68404341 -0.037494019
-1.3698716 0.071037516 -0.8413707
-1.5499462 -0.76904255 0.034481693
-1.3851396 -0.0022437666 -0.80860412
-1.5656818 -0.84252709 0.10947335
-1.4315497 -0.23059325 -0.82201874
-2.3786778 -4.8126245 0.48125592
-1.4602098 -0.37005064 -0.79887819
-2.3039374 -4.4394035 0.61363244
-1.493204 -0.53071165 -0.77452576
-2.3830061 -4.8170819 0.82017732
-2.3276539 -4.5391421 0.94923186
-1.6372396 -1.2379656 -0.78715324
-2.4651601 -5.199913 1.2284505
-1.7094307 -1.591167 -0.7676245
-4.4084988 -14.633116 3.262311
-1.7991371 -2.0302036 -0.74628842
-2.1773505 -3.7853224 1.2812796
-1.5078614 -0.58614647 -0.4417356
-1.0253667 1.7948279 -0.28361115
-1.5472367 -0.73474884 -0.39086324
-1.5851089 -0.91523618 -0.33634871
-1.0269743 1.7881769 -0.26088858
-1.5088874 -0.54158831 -0.2360743
-1.2854999 0.50986004 -0.8230207
-1.5187464 -0.58608371 -0.17159654
-1.3081788 0.40028092 -0.82066834
-1.5165876 -0.57231641 -0.10446886
-1.331407 0.28823033 -0.81455219
-1.514917 -0.56094384 -0.03803888
-1.3604342 0.14786835 -0.81367373
-1.5457606 -0.70663202 0.032715634
-1.3965504 -0.027016375 -0.81752491
-1.5669791 -0.80555528 0.10757502
-1.4386857 -0.23107886 -0.82267618
-2.3505721 -4.5781245 0.46371633
-1.4688939 -0.3761265 -0.80112708
-2.3258719 -4.4511518 0.61499047
-1.4992536 -0.5215615 -0.77260792
-2.400357 -4.8013597 0.81853795
-1.5834639 -0.93027502 -0.80067861
-4.5860996 -15.28871 2.5344603
-1.6609335 -1.305053 -0.80195677
-2.4852579 -5.1917605 1.2275742
-1.7188028 -1.5832193 -0.76664329
-4.4535837 -14.611833 3.2595634
-1.8117138 -2.0316534 -0.74704158
-2.195117 -3.7856658 1.281953
-1.5168573 -0.59036791 -0.44262737
-2.3890078 -4.7047997 1.6596891
-1.5514038 -0.71358025 -0.38870227
-1.5812266 -0.85296732 -0.33090806
-1.5214913 -0.56342578 -0.23773932
-1.2901907 0.51083624 -0.82306898
-1.5286317 -0.59423077 -0.17210457
-1.3135464 0.39951029 -0.82148385
-1.5280877 -0.58830512 -0.10490066
-1.3333352 0.30578363 -0.80812192
-1.5255784 -0.57302392 -0.038067441
-1.3399563 0.27624059 -0.76701677
-1.5276766 -0.57970011 0.029164528
-1.4115474 -0.068465598 -0.8321445
-1.567664 -0.76664841 0.10557698
-1.4450556 -0.22780065 -0.82215703
-2.4057779 -4.7459226 0.4764457
-1.4756681 -0.37275076 -0.80065727
-2.6433566 -5.8652983 0.755656
-1.5127131 -0.54843396 -0.78017044
-2.4172239 -4.7836542 0.81665671
-1.5546324 -0.74726748 -0.75764835
-1.6710849 -1.304939 -0.80246603
-2.3209097 -4.3113694 1.0766906
-1.7333368 -1.6002831 -0.7703793
-4.5063086 -14.626931 3.2639813
-1.8311399 -2.0659339 -0.75318468
-2.2161381 -3.801254 1.2860088
-1.5250735 -0.59068125 -0.44297904
-2.2152584 -3.7896764 1.4350126
-1.5554571 -0.69241387 -0.38654131
-1.5506107 -0.66601706 -0.31404388
-1.5333935 -0.58130825 -0.23914234
-1.2941334 0.51540971 -0.82150388
-1.5443705 -0.62971026 -0.17381087
-1.3185451 0.40056521 -0.82153618
-1.542173 -0.61598676 -0.10556907
-1.3355513 0.32150581 -0.80241179
-1.5346472 -0.57724136 -0.038127217
-1.3752927 0.13367781 -0.81988621
-1.5334448 -0.56826633 0.028811768
-1.4228942 -0.091278061 -0.84043849
-1.5664706 -0.71994495 0.10317784
-1.4525857 -0.23011829 -0.82340503
-2.4198968 -4.7164373 0.47433257
-1.4808491 -0.36182222 -0.79801083
-2.3678913 -4.4647174 0.61672926
-1.5303015 -0.59420604 -0.79272628
-2.4344149 -4.7678461 0.81501341
-1.6068825 -0.9552173 -0.80766845
-2.3850987 -4.5292015 0.94892943
-1.6824497 -1.3105439 -0.80420244
-2.3504763 -4.3595519 1.085457
-1.7455389 -1.6057472 -0.77194047
-4.9671917 -16.54298 3.6421146
-1.8426142 -2.0614917 -0.75299215
-2.2450607 -3.8530886 1.2980969
-1.5328867 -0.58903158 -0.44306064
-2.2371674 -3.8088987 1.4404577
-1.0303725 1.788651 -0.28737822
-1.5618969 -0.68290573 -0.38572836
-1.030159 1.7903479 -0.27315813
-1.5486256 -0.61755097 -0.30984452
-1.5483333 -0.61280572 -0.24147336
-1.2976767 0.5217821 -0.81913328
-2.4474273 -4.7909684 -0.35617331
-1.3246845 0.39620852 -0.82388055
-1.3415412 0.31897166 -0.80390894
-1.5475376 -0.5990262 -0.038122993
-1.3868749 0.10728971 -0.83010471
-1.5429498 -0.57441074 0.02894507
-1.4320099 -0.10290782 -0.84493625
-1.5464624 -0.58736622 0.096360989
-1.4625121 -0.2436305 -0.82818711
-1.5892819 -0.78202081 0.17823696
-1.4915719 -0.37723988 -0.80298495
-2.4068787 -4.554091 0.62581182
-1.5300164 -0.55465597 -0.78282666
-2.4527912 -4.7578197 0.81408668
-1.618094 -0.96477002 -0.81048524
-2.3625226 -4.3336258 0.92045867
-1.6893597 -1.295051 -0.80144548
-1.7503865 -1.576552 -0.76697445
-4.772438 -15.393614 3.4177306
-1.8507695 -2.0415738 -0.75026476
-2.2618017 -3.8475072 1.2974913
-1.5411093 -0.58929902 -0.44341516
-1.0295136 1.7993281 -0.28179777
-1.568873 -0.67122316 -0.38470235
-1.0326279 1.7853878 -0.27584529
-1.5575198 -0.61561984 -0.30994055
-1.5619007 -0.63232237 -0.24302456
-1.3109537 0.48533973 -0.83613396
-1.3330264 0.38477978 -0.82928777
-1.3536793 0.29106128 -0.81550336
-1.389461 0.12710817 -0.82340288
-1.5586095 -0.60374421 0.029713828
-1.4400023 -0.1050555 -0.84628022
-1.5480534 -0.55227268 0.094559163
-1.4713582 -0.24757773 -0.83003604
-1.595349 -0.76437396 0.17696114
-1.5000396 -0.37737161 -0.80361593
-2.4278436 -4.5474987 0.62538826
-1.5382297 -0.55089039 -0.78242064
-2.4744256 -4.7510943 0.81360924
-1.6242932 -0.94548458 -0.80650568
-2.387531 -4.3484545 0.92309022
-1.6978154 -1.281194 -0.79911077
-2.4476507 -4.6129928 1.1301453
-1.7626323 -1.5759056 -0.76746476
-1.8569412 -2.0058794 -0.74501717
-1.5528389 -0.60094571 -0.44540754
-2.2570026 -3.7270477 1.4218006
-1.0318803 1.7944142 -0.28460893
-1.5774214 -0.6693393 -0.3847959
-1.0324024 1.7926716 -0.27229556
-1.5646266 -0.6079337 -0.30949625
-1.0336105 1.7877465 -0.26180416
-2.4803658 -4.74579 -0.52267528
-1.3171715 0.48108754 -0.8386097
-1.3391649 0.38234684 -0.83087397
-2.4912941 -4.7785215 -0.18967415
-1.359708 0.29047966 -0.81628597
-4.722167 -14.823048 0.013824684
-1.390371 0.1523594 -0.81466544
-1.4463996 -0.10170355 -0.84572148
-1.4773605 -0.24038383 -0.82834852
-1.6081614 -0.77993375 0.17818342
-1.5068318 -0.37193331 -0.80261064
-2.4462955 -4.5352826 0.62439454
-1.542219 -0.53017992 -0.77751732
-2.4926467 -4.7348781 0.81194532
-1.5747745 -0.67517447 -0.74257553
-1.7039099 -1.2598028 -0.79513538
-2.443126 -4.49685 1.1106873
-1.7721137 -1.5657605 -0.76613522
-1.8668416 -1.9915667 -0.74325049
-2.3476355 -4.0548425 1.3448608
-1.5611702 -0.59910977 -0.44549888
-2.282547 -3.7572584 1.4300358
-1.5853924 -0.66959536 -0.38510439
-1.5728837 -0.61017245 -0.30993566
-1.0343552 1.7897682 -0.26096755
-1.3263518 0.46063679 -0.84834218
-2.5058141 -4.7658458 -0.35632515
-1.3454819 0.37618184 -0.83398223
-4.7302065 -14.670397 -0.38932082
-1.3594642 0.31527448 -0.80697036
-1.3985411 0.14068601 -0.81946552
-1.4540284 -0.10777556 -0.8483206
-1.4824803 -0.23336631 -0.82665169
-1.5156165 -0.37983108 -0.80540657
-1.5447301 -0.50779152 -0.77210438
-5.673439 -18.724066 2.5409451
-1.5928311 -0.72103667 -0.75401318
-2.4537594 -4.4696174 0.9418025
-1.7095386 -1.2424998 -0.79196453
-2.4273152 -4.3447757 1.0849599
-1.7896333 -1.5981224 -0.77277732
-4.8040676 -14.815515 3.3088992
-1.8846585 -2.0199625 -0.74844718
-1.56938 -0.60133851 -0.44612277
-1.5912411 -0.65808588 -0.38406995
-1.5816504 -0.61227596 -0.31038174
-2.517915 -4.7373538 -0.52309442
-1.3327643 0.45458198 -0.85162473
-2.5301466 -4.7828803 -0.35748732
-1.350945 0.37552178 -0.83480299
-4.8025484 -14.770905 -0.39209431
-1.3634807 0.32192054 -0.80486667
-1.40303 0.14748855 -0.81749785
-9.3008308 -34.471649 0.96437287
-1.4571238 -0.091516539 -0.84332716
-1.6264791 -0.78854978 0.10672408
-1.485065 -0.2131861 -0.82083797
-2.5416446 -4.7917652 0.48057151
-1.5215262 -0.37257585 -0.80385423
-2.4608381 -4.4300003 0.61432815
-1.5539619 -0.51364642 -0.77418649
-5.697669 -18.559793 2.5216198
-1.6317275 -0.8560186 -0.78681016
-2.4491441 -4.3631005 0.92646968
-1.7139591 -1.2174135 -0.7871654
-2.4462531 -4.3425155 1.0850834
-1.7868004 -1.5362544 -0.76164258
-5.7643337 -18.774771 4.0906563
-1.8972819 -2.0211573 -0.74921417
-1.5789689 -0.60729647 -0.44729644
-2.447546 -4.3240199 1.5715576
-1.5935318 -0.62901884 -0.38101661
-1.5913732 -0.61617947 -0.31101388
-2.3234277 -3.797153 -0.45957285
-1.3403225 0.44504991 -0.85652566
-4.6869459 -14.058707 -0.76687598
-1.3591744 0.36413401 -0.84021258
-5.0490828 -15.610891 -0.40990651
-1.3682007 0.32683003 -0.80348802
-5.0585337 -15.630722 0.015226264
-1.4086721 0.15071191 -0.81688917
-9.429059 -34.530464 0.96544385
-1.4622076 -0.082566075 -0.84087086
-1.4883815 -0.19477852 -0.8156178
-1.5274196 -0.3633284 -0.80176222
-2.4883142 -4.4584179 0.61738431
-1.5675731 -0.5363571 -0.78076994
-5.6783924 -18.195492 2.4776177
-1.5918506 -0.63935959 -0.73557675
-1.7297271 -1.2399118 -0.79259694
-2.46456 -4.3322515 1.083865
-1.8035496 -1.5586481 -0.76648843
-4.9324617 -14.919241 3.3326695
-1.9203432 -2.0644917 -0.75697255
-2.6649559 -5.1755533 1.5957186
-1.5886457 -0.61117703 -0.44820565
-2.5653684 -4.7398705 1.6752753
-1.6006061 -0.6212551 -0.38043851
-1.037243 1.7937745 -0.27235028
-1.6038332 -0.63169014 -0.31272084
-2.3430359 -3.8007972 -0.46030879
-1.3450847 0.44803405 -0.85577762
-4.7223797 -13.99303 -0.76502669
-1.3649987 0.36358929 -0.84103918
-5.1068811 -15.620043 -0.41095087
-1.3758128 0.31902158 -0.80715632
-5.1164618 -15.63985 0.014691031
-1.3999879 0.21630915 -0.79324663
-5.1826067 -15.90105 0.45126298
-1.4723423 -0.095793121 -0.84601521
-1.5001673 -0.21362495 -0.82217944
-2.5218825 -4.5199757 0.46032974
-1.537153 -0.37094653 -0.80457294
-2.5023143 -4.4286046 0.61464548
-1.5678245 -0.50051171 -0.77187312
-5.6628981 -17.856625 2.4367383
-1.6559285 -0.8784191 -0.79337847
-1.7407808 -1.241364 -0.79353261
-2.4896078 -4.3507328 1.0876154
-1.816 -1.5618136 -0.76770616
-4.9427099 -14.733361 3.2977638
-1.927163 -2.0365546 -0.75299203
-1.6019357 -0.630467 -0.45128873
-2.4187965 -4.0273404 1.4999487
-1.6149305 -0.64442414 -0.38346404
-1.0381041 1.7958162 -0.27147397
-1.6205057 -0.66460186 -0.31604096
-1.041425 1.7821081 -0.26527229
-1.3531359 0.43676999 -0.8614887
-4.7813654 -14.028424 -0.76765168
-1.3708305 0.36306283 -0.84186673
-5.164772 -15.629015 -0.41200519
-1.3868499 0.29670542 -0.81659579
-5.1749458 -15.650738 0.014153052
-1.4028616 0.23051772 -0.78857243
-9.6821537 -34.627338 0.96698165
-1.4709411 -0.059093572 -0.83406031
-5.2512379 -15.929385 0.88573146
-1.5068604 -0.21008649 -0.82167363
-2.5258074 -4.4473295 0.45497358
-1.5478109 -0.38227615 -0.80847454
-2.5202997 -4.4161882 0.6136415
-1.5784535 -0.509947 -0.77496386
-2.5194817 -4.4048123 0.77279127
-1.6699117 -0.8971383 -0.79848349
-2.5692751 -4.605485 0.96370685
-1.7527425 -1.246593 -0.79528844
-2.5986698 -4.7201838 1.1519901
-1.8392608 -1.6108915 -0.77764332
-4.9985008 -14.742423 3.3013167
-1.9396998 -2.0336039 -0.75313878
-1.6121682 -0.63620144 -0.45247352
-1.6211278 -0.63068783 -0.38221925
-1.0415606 1.7877252 -0.26274022
-2.8643186 -5.8163056 -0.59920418
-1.3561257 0.44877025 -0.85671067
-4.835041 -14.027941 -0.76877236
-1.3727566 0.38062298 -0.83505702
-5.2249317 -15.63317 -0.41302639
-1.3906578 0.30720267 -0.81306016
-5.2352486 -15.654865 0.013547896
-1.4249995 0.164222 -0.81371772
-9.8063393 -34.634712 0.96657073
-1.4841034 -0.083258301 -0.84301257
-9.8495493 -34.770351 1.8551461
-1.5170329 -0.21944919 -0.82529855
-2.5547855 -4.4752765 0.45720991
-1.5532278 -0.36911422 -0.80530202
-2.5534039 -4.4615021 0.61840689
-1.5873833 -0.50980747 -0.77556407
-5.1693745 -15.275839 2.1193235
-1.6814036 -0.90240628 -0.80041659
-2.6597974 -4.8850884 1.0056334
-1.7657957 -1.2535425 -0.79746234
-2.652714 -4.847199 1.1745842
-1.8548386 -1.6233515 -0.7806915
-5.0365314 -14.664702 3.2878628
-1.9561678 -2.0438867 -0.75551891
-1.6220186 -0.63792646 -0.45312303
-2.4551418 -4.0087333 1.4971526
-2.2123926 -3.0454435 -0.66413283
-1.0421956 1.7894336 -0.27506861
-1.0477073 1.7668579 -0.27294832
-2.4897857 -4.1781621 -0.48762575
-1.3598322 0.45343104 -0.85515094
-4.8454275 -13.885646 -0.76342642
-1.3796281 0.37277633 -0.83893538
-5.2767658 -15.643265 -0.41402468
-1.3929924 0.31928182 -0.80879271
-5.2867298 -15.663001 0.013052296
-1.4359764 0.14170884 -0.82259142
-9.9184284 -34.675488 0.96717393
-1.4860811 -0.06521517 -0.8373822
-9.9517241 -34.76828 1.855078
-1.5246699 -0.22350247 -0.82714295
-2.6948085 -4.9729257 0.4948613
-1.5639577 -0.38433871 -0.81028557
-1.6012264 -0.53634781 -0.78314388
-1.6503901 -0.73758197 -0.76142156
-1.7706869 -1.2342346 -0.7938875
-2.6479061 -4.7469072 1.1578008
-1.8537706 -1.5750493 -0.77209139
-5.1691456 -15.012547 3.3581755
-1.9612348 -2.0162525 -0.75152338
-2.4398129 -3.8829076 1.3117146
-1.6280713 -0.63034767 -0.45239732
-2.4735184 -4.0122952 1.4988258
-1.6379335 -0.63069171 -0.38286191
-1.0434718 1.7897457 -0.27508405
-1.0498966 1.763665 -0.2746639
-4.2915792 -11.441495 -0.98617625
-1.3679738 0.44223601 -0.86086488
-4.9059258 -13.92639 -0.76633394
-1.388045 0.36151689 -0.84435153
-5.3339548 -15.647803 -0.41502666
-1.4072925 0.28437167 -0.82328475
-5.3454819 -15.673334 0.012485986
-1.4477954 0.11941642 -0.83147645
-1.495442 -0.074642874 -0.84126496
-2.8010082 -5.3198018 0.33989444
-1.5327247 -0.22546734 -0.82840812
-2.6607339 -4.7430606 0.47765052
-1.5679628 -0.36751094 -0.80602014
-2.8146229 -5.3567677 0.7081461
-1.6047426 -0.51555109 -0.77824473
-1.6310021 -0.62001514 -0.73379529
-1.7780613 -1.2203391 -0.79155552
-2.6583064 -4.6996903 1.1502626
-1.871459 -1.5990673 -0.7773149
-5.2453852 -15.099049 3.3771396
-1.9868234 -2.0669153 -0.76056993
-1.6374296 -0.63213944 -0.45304358
-2.4894292 -3.9963908 1.49579
-1.6472994 -0.63451374 -0.38363594
-1.0488956 1.7726446 -0.28401327
-2.3732038 -3.5585976 -0.58546805
-1.052453 1.7587024 -0.2772288
-4.3170643 -11.381733 -0.98318744
-1.3711156 0.45055434 -0.85769558
-4.9513521 -13.917194 -0.76697469
-1.3909569 0.37175775 -0.8405925
-5.3905106 -15.662642 -0.41619927
-1.418806 0.26031792 -0.83344913
-5.4002447 -15.680386 0.011935652
-1.4584885 0.10074188 -0.83900344
-5.4714718 -15.944422 0.45104364
-1.5058193 -0.089661971 -0.84704614
-2.802273 -5.2351174 0.33554542
-1.5435593 -0.24050334 -0.83379638
-1.5787714 -0.38069439 -0.81046736
-2.6183357 -4.4825044 0.62118936
-1.6044401 -0.48170987 -0.76984215
-2.5870378 -4.3495736 0.76732588
-1.655146 -0.68426198 -0.74980605
-2.7534623 -5.0048304 1.0248405
-1.7796159 -1.1856689 -0.78471363
-2.5634093 -4.2395802 1.0712347
-1.8829774 -1.6002698 -0.77817261
-5.3032951 -15.12316 3.3836963
-2.004389 -2.0869753 -0.76452982
-2.4758384 -3.8760591 1.3117013
-1.6444042 -0.62632936 -0.45259738
-2.5041618 -3.9807234 1.4927666
-1.0473717 1.7835411 -0.29221687
-1.6552429 -0.632523 -0.38373518
-1.0509965 1.7694798 -0.28581184
-2.3849075 -3.5371816 -0.58405554
-1.0489821 1.7783642 -0.26789778
-2.9439385 -5.7556033 -0.59763944
-1.3772789 0.44643953 -0.86017823
-4.9553318 -13.743172 -0.76028514
-1.3973572 0.36764577 -0.84294891
-5.4462061 -15.673424 -0.41730088
-1.4215056 0.27253267 -0.82918799
-5.455081 -15.687252 0.0113766
-1.4625095 0.10950797 -0.83636463
-10.321836 -34.946377 0.97287214
-1.5130895 -0.091751829 -0.84839272
-2.8285289 -5.2511902 0.33638081
-1.548499 -0.23138563 -0.83152354
-2.7511346 -4.936377 0.49249434
-1.5817711 -0.36208907 -0.80565178
-1.623588 -0.52682203 -0.78243136
-2.6069663 -4.350719 0.76781118
-1.662235 -0.67847049 -0.74899721
-2.6787808 -4.6255822 0.96905923
-1.7947226 -1.2061 -0.7897445
-2.7279048 -4.8104124 1.1706296
-1.8892689 -1.5804446 -0.77503264
-2.5703461 -4.1828647 1.2206763
-2.0153697 -2.0801537 -0.76404285
-2.4756808 -3.8035409 1.296289
-1.6576072 -0.64549029 -0.45568717
-2.5269904 -3.9970555 1.4976931
-1.0525781 1.7684373 -0.30063301
-1.6808007 -0.69574505 -0.39151716
-1.0511121 1.7750504 -0.28315505
-2.4024231 -3.530683 -0.58410382
-1.0494937 1.7822297 -0.26621571
-4.3727865 -11.264771 -0.97754335
-1.3836349 0.44427645 -0.8618629
-4.9495592 -13.511694 -0.75115502
-1.4003872 0.37985444 -0.83843398
-5.508729 -15.684386 -0.41853058
-1.4288841 0.26863164 -0.83142805
-5.5142574 -15.684617 0.010704124
-1.4621762 0.13854143 -0.82627833
-10.470312 -35.040714 0.97479904
-1.5165534 -0.075216003 -0.84341335
-5.6021519 -15.984941 0.88871801
-1.5523717 -0.21462917 -0.82690251
-2.6567996 -4.4746566 0.45777449
-1.5883759 -0.35445699 -0.80411828
-1.6335413 -0.53029102 -0.78403902
-2.639605 -4.3916035 0.77327645
-1.7027 -0.80081755 -0.77912998
-1.7977132 -1.1730281 -0.78332746
-2.7659347 -4.8658814 1.1809363
-1.8986975 -1.5679072 -0.77336431
-5.4012318 -15.074148 3.3778701
-1.9962938 -1.9485019 -0.74291527
-2.4967806 -3.8062556 1.2977344
-2.0849717 -2.2930317 -0.6894176
-2.5448277 -3.9845042 1.4955714
-1.047871 1.7927965 -0.28758445
-2.2727323 -2.9627059 -0.65764534
-1.0528668 1.7736522 -0.28406337
-2.4333136 -3.580333 -0.58934593
-1.0512359 1.7808083 -0.26708215
-4.4051542 -11.225546 -0.97605658
-1.3892539 0.44383228 -0.86273623
-4.9841061 -13.453303 -0.74967563
-1.4057529 0.38123372 -0.83850241
-5.5687428 -15.697857 -0.41977128
-1.4313726 0.28275257 -0.82645082
-5.5758505 -15.703899 0.010131519
-1.4714983 0.12733823 -0.83110189
-10.606431 -35.111004 0.97609067
-1.5246682 -0.079006188 -0.84540117
-10.58564 -34.986164 1.866509
-1.5618565 -0.22205773 -0.82994211
-2.7569163 -4.7784443 0.48085228
-1.5968721 -0.35624701 -0.80530548
-2.7068009 -4.577117 0.63139975
-1.6454414 -0.54322714 -0.78814268
-2.6618485 -4.3961396 0.77421594
-1.7173562 -0.82118148 -0.7847029
-2.7139173 -4.5880098 0.96453834
-1.7931339 -1.1135682 -0.77116787
-2.7065039 -4.5512357 1.127071
-1.9166732 -1.5917155 -0.7785995
-2.0223038 -1.9989042 -0.7519753
-2.5193219 -3.8186312 1.301301
-2.5703709 -4.0060472 1.5018791
-1.05604 1.7656782 -0.30253291
-1.0483636 1.7965277 -0.27248752
-2.4173222 -3.4527647 -0.57806611
-1.0515667 1.7846352 -0.26539823
-2.5445082 -3.9338615 -0.4741002
-1.3927633 0.45041615 -0.86037636
-5.0292482 -13.44775 -0.75050187
-1.4107997 0.38254541 -0.83856785
-5.6227179 -15.70035 -0.42074028
-1.4297475 0.3112402 -0.81569684
-5.6304159 -15.708307 0.009538888
-1.481932 0.11061058 -0.83795774
-10.726387 -35.143856 0.97638142
-1.5324138 -0.082871765 -0.84738481
-5.7142258 -15.984861 0.8887558
-1.5685861 -0.22030798 -0.83002937
-2.7740045 -4.7637 0.47986886
-1.6054204 -0.3599892 -0.80703306
-2.6185927 -4.1639838 0.59037018
-1.6453301 -0.51124221 -0.78024089
-2.6789296 -4.3855419 0.77325916
-1.7184545 -0.79071122 -0.77798748
-2.7340839 -4.5868573 0.96485889
-1.8067697 -1.1282257 -0.77497411
-2.6501117 -4.2601929 1.0772104
-1.926735 -1.5870663 -0.77837181
-2.6785495 -4.3599 1.2579596
-2.0359812 -2.0035067 -0.75339878
-2.5518782 -3.8727841 1.3141589
-2.1595986 -2.4743037 -0.71641719
-2.5959473 -4.0315456 1.5091305
-1.0542179 1.7780019 -0.29601586
-1.0504391 1.7933722 -0.27428669
-2.4270074 -3.4255011 -0.57611811
-1.3962401 0.45700616 -0.85801744
-5.0789804 -13.459472 -0.7521137
-1.4126002 0.3963955 -0.8332814
-5.678277 -15.708484 -0.42183843
-1.438269 0.29998028 -0.82081664
-5.6886234 -15.726074 0.0089815492
-1.4834777 0.12852663 -0.83193064
-5.7655516 -15.994812 0.45090777
-1.5397072 -0.084876925 -0.84873569
-10.846887 -35.132561 1.8741274
-1.5709777 -0.201894 -0.82480979
-2.7915359 -4.7508359 0.479029
-1.6164201 -0.3730129 -0.81148863
-2.7234666 -4.4863343 0.62282515
-1.663143 -0.54860592 -0.79084241
-1.729731 -0.79982597 -0.78082681
-1.8219814 -1.1485158 -0.78001273
-2.6749818 -4.2801652 1.0812697
-1.9377756 -1.5861967 -0.7788744
-2.0281472 -1.9259415 -0.7411468
-2.5675755 -3.8625894 1.3126676
-2.1680944 -2.4536293 -0.71413863
-2.6136336 -4.026895 1.5088986
-1.0577534 1.7697905 -0.30070052
-2.3203597 -2.9645572 -0.65980494
-2.4518895 -3.4518621 -0.57921457
-1.0522436 1.7923056 -0.26203117
-2.9815557 -5.4303746 -0.57874036
-1.4018371 0.45660254 -0.85889351
-5.1294727 -13.462571 -0.75342357
-1.4174495 0.39959833 -0.83258736
-5.7380724 -15.719465 -0.4230679
-1.4471873 0.28884277 -0.82594287
-5.7475109 -15.733179 0.008341874
-1.4766798 0.1792866 -0.81369984
-10.981369 -35.235619 0.97761178
-1.544035 -0.073909983 -0.84565568
-10.987355 -35.213009 1.878311
-1.5775818 -0.19815901 -0.82431436
-2.8102279 -4.737607 0.47817051
-1.6254926 -0.37657198 -0.81322587
-1.6722549 -0.5501886 -0.7919507
-1.7291378 -0.76169431 -0.77229762
-2.634907 -4.0622396 0.88783538
-1.8268715 -1.1269567 -0.77604651
-6.8836813 -19.789196 3.7744615
-1.9514941 -1.5927211 -0.78084302
-2.0585964 -1.9913926 -0.75276315
-2.589921 -3.8728311 1.3157989
-2.1783078 -2.4365556 -0.71241581
-2.3388886 -2.9760351 -0.66180634
-1.0538062 1.7905667 -0.27610323
-2.469732 -3.4553068 -0.58014572
-1.0548258 1.7873762 -0.26459751
-2.5329964 -3.6829309 -0.45838153
-1.4094777 0.44729105 -0.86380553
-5.1772938 -13.466257 -0.75470483
-1.4262309 0.38665244 -0.83877337
-5.7958984 -15.734967 -0.42434496
-1.4481889 0.30649671 -0.81951857
-5.8038759 -15.74286 0.0077411169
-1.4856744 0.16806832 -0.81852317
-11.130425 -35.37149 0.98069584
-1.5430342 -0.044714678 -0.83622861
-5.8993425 -16.051352 0.89224124
-1.5896562 -0.21667837 -0.83089256
-2.8344405 -4.7496786 0.47921816
-1.6381098 -0.39509505 -0.81932139
-2.7910206 -4.5816011 0.63287473
-1.6819038 -0.5556128 -0.79405427
-1.7539837 -0.82156116 -0.78742957
-2.651547 -4.0536618 0.88702905
-1.8386626 -1.1339194 -0.77821982
-1.9360783 -1.4930031 -0.76242197
-2.6799331 -4.1420407 1.2169484
-2.0723169 -1.9958789 -0.75419331
-2.6117816 -3.885165 1.3193632
-2.186085 -2.4139462 -0.70986617
-2.9368815 -5.0636625 1.7691718
-2.3540785 -2.9677758 -0.66157496
-1.0533067 1.7978517 -0.27255383
-2.4979668 -3.4889081 -0.58398354
-1.0566525 1.785998 -0.26546642
-1.4144704 0.45054719 -0.8630718
-5.2306261 -13.468292 -0.75606787
-1.4352411 0.37569976 -0.84420526
-5.85746 -15.738916 -0.42551595
-1.4579738 0.29369682 -0.82537425
-5.8665981 -15.750648 0.0070453999
-1.5013072 0.13527676 -0.8314985
-11.26652 -35.404858 0.98088169
-1.5456077 -0.026321251 -0.83061647
-1.5902432 -0.18878983 -0.82273602
-2.8611825 -4.7610025 0.48022828
-1.6351885 -0.35201645 -0.80743098
-2.8103843 -4.5680728 0.63181424
-1.6844594 -0.5308333 -0.78816783
-2.7544711 -4.3570895 0.77126777
-1.7502079 -0.77011102 -0.77572131
-2.6693025 -4.0406175 0.88562191
-1.8286132 -1.0555015 -0.76196456
-2.739624 -4.2872701 1.08445
-1.9739196 -1.586647 -0.78114641
-5.4778347 -14.17204 3.2106073
-2.0725164 -1.9446656 -0.7464143
-5.5869617 -14.545447 3.70595
-2.2015893 -2.41383 -0.71060836
-2.9512129 -5.025497 1.7609128
-2.3514032 -2.9087396 -0.65519261
-2.5044501 -3.4581959 -0.58165586
-1.0572416 1.7880372 -0.26463068
-3.157814 -5.8208413 -0.60793197
-1.4206233 0.44465098 -0.86636198
-5.2762833 -13.484736 -0.75781047
-1.4411187 0.37156826 -0.84656143
-5.9060421 -15.744205 -0.42648339
-1.4611403 0.30037293 -0.82327187
-5.9163399 -15.75977 0.0065064598
-1.5038595 0.14573704 -0.82817578
-11.378206 -35.450821 0.98156548
-1.5530093 -0.032151528 -0.83322752
-6.0121965 -16.06188 0.89282489
-1.5920353 -0.17243876 -0.81809533
-3.0859568 -5.5039277 0.53655183
-1.6464584 -0.36887133 -0.81297195
-1.6814175 -0.49350989 -0.77875161
-2.6955492 -4.0829005 0.7374661
-1.7620617 -0.78502512 -0.77991891
-2.69801 -4.0840454 0.89251375
-1.8220739 -1.0004516 -0.75059366
-2.7339284 -4.2049541 1.0706838
-1.9810643 -1.5765195 -0.77981675
-5.539938 -14.238482 3.2254715
-2.0753028 -1.9152282 -0.74209607
-5.1136923 -12.694591 3.2935085
-2.2138889 -2.4145517 -0.711308
-2.9607513 -4.9905963 1.7531915
-2.3620968 -2.8851364 -0.65315461
-2.4997451 -3.3726642 -0.57434487
-1.0576445 1.7919078 -0.26294884
-4.571847 -10.790081 -0.95439613
-1.4217507 0.46205643 -0.85916579
-5.3292217 -13.484515 -0.75910354
-1.4463364 0.37493843 -0.84587538
-5.9698992 -15.755485 -0.4278352
-1.4705286 0.28943402 -0.82840812
-5.9787073 -15.76524 0.0057852077
-1.5082817 0.15477958 -0.82555115
-6.0593262 -16.030851 0.45026714
-1.5640099 -0.044840097 -0.83839953
-1.6030061 -0.1832706 -0.82232952
-3.11625 -5.5182695 0.53781116
-1.6483492 -0.34437653 -0.80653656
-2.8085618 -4.4157109 0.6170845
-1.6975827 -0.51915944 -0.78637624
-2.7170944 -4.0830865 0.73790264
-1.7740018 -0.79180968 -0.78232586
-2.808826 -4.4004927 0.94024706
-1.8807001 -1.1731019 -0.78887105
-1.9839543 -1.5410118 -0.77379036
-5.1788244 -12.762848 2.9340987
-2.1225426 -2.0352979 -0.76297557
-2.8339918 -4.4647636 1.4518107
-2.2379091 -2.4448864 -0.71641505
-2.9757354 -4.9561462 1.7458656
-2.3595881 -2.8218422 -0.64634144
-1.056838 1.798836 -0.27260289
-2.5482459 -3.4852402 -0.58554637
-3.107805 -5.4618387 -0.58451939
-1.4280319 0.45812342 -0.86165798
-5.3783665 -13.491435 -0.7605902
-1.4523857 0.37280297 -0.84747708
-6.0292444 -15.774095 -0.42923203
-1.4718437 0.3053053 -0.8227067
-6.0348825 -15.772276 0.0051416582
-1.527053 0.10924757 -0.843274
-11.641462 -35.528717 0.98227096
-1.5717689 -0.048566833 -0.84039021
-6.1415348 -16.104523 0.89506316
-1.6127048 -0.19245072 -0.82596433
-5.9540396 -15.422555 1.2876554
-1.648186 -0.31643811 -0.79899645
-1.7046258 -0.51516575 -0.78598201
-2.8436139 -4.4600596 0.78525126
-1.7949134 -0.83447605 -0.7933749
-2.8345149 -4.4199948 0.94367671
-1.8747811 -1.1157939 -0.77710831
-1.977911 -1.4793788 -0.76264453
-2.8294868 -4.3859839 1.2685541
-2.1354032 -2.035779 -0.76377881
-2.2358401 -2.3878322 -0.70896363
-2.6697118 -3.8119421 1.4611714
-2.4130859 -2.9533105 -0.66262043
-1.0580869 1.7991915 -0.27262071
-2.5236154 -3.3348544 -0.5720973
-1.4326688 0.46134549 -0.86092281
-5.4314127 -13.501263 -0.76229727
-1.45478 0.38501161 -0.84296203
-6.0880175 -15.778151 -0.43039805
-1.4683651 0.3392204 -0.80978835
-6.095376 -15.782093 0.0044559119
-1.5357635 0.10194805 -0.84675527
-6.1919842 -16.097179 0.45140007
-1.5789167 -0.048504382 -0.84111965
-6.1921329 -16.075583 0.89359581
-1.6254667 -0.2106736 -0.83255756
-1.6389046 -0.25506338 -0.78163803
-2.8618283 -4.4564929 0.62171817
-1.7084402 -0.49797338 -0.78209138
-3.0565093 -5.1241598 0.86847425
-1.7890441 -0.77945364 -0.78074682
-2.7177565 -3.9406958 0.87269461
-1.8883188 -1.1261866 -0.78011954
-1.9877224 -1.4724966 -0.76207054
-5.7094851 -14.272376 3.2384245
-2.143621 -2.0170155 -0.76140773
-2.8756416 -4.4631252 1.4533654
-2.2651331 -2.4392376 -0.71706557
-5.6494684 -14.023886 4.0150151
-2.4038367 -2.8670545 -0.65309346
-1.0592618 1.7995293 -0.27263752
-2.5622063 -3.4108016 -0.57988811
-1.0603211 1.7964337 -0.2613
-3.2027211 -5.6256342 -0.59747112
-5.481266 -13.50979 -0.76388681
-1.4572985 0.39535081 -0.83920872
-6.1442709 -15.784849 -0.43156964
-1.4801451 0.31738085 -0.81925118
-6.1533833 -15.794535 0.0038107557
-1.5410732 0.10543321 -0.84616029
-11.935001 -35.729603 0.98633289
-1.5851604 -0.04670728 -0.84120953
-11.930942 -35.669731 1.902126
-1.6326872 -0.21058412 -0.8332448
-2.9100344 -4.5607343 0.46577764
-1.6457326 -0.25309837 -0.78173637
-1.7191339 -0.5069837 -0.78520346
-1.8075016 -0.8126443 -0.78952301
-1.8921908 -1.1047034 -0.77614987
-3.140661 -5.3177862 1.2673256
-1.9957808 -1.461991 -0.76076007
-2.1346743 -1.9415162 -0.74946678
-2.9049504 -4.4933472 1.4610982
-2.2829821 -2.4526544 -0.71970665
-1.0681344 1.7726996 -0.30084598
-2.4469328 -2.9559243 -0.66442168
-1.0625446 1.7930285 -0.27622643
-2.5809309 -3.4095025 -0.58050489
-2.708729 -3.8407383 -0.47347042
-5.5349989 -13.510793 -0.76530302
-1.4659835 0.38633171 -0.84388256
-6.2085714 -15.795291 -0.4329645
-1.4911674 0.30116427 -0.82655954
-6.2161026 -15.799198 0.0030475236
-1.5382659 0.13988362 -0.83403707
-6.3130388 -16.107933 0.45097497
-1.5927032 -0.046487503 -0.84194624
-12.083865 -35.750046 1.90631
-1.640221 -0.20839235 -0.83335435
-2.9758427 -4.7057061 0.47692034
-1.65714 -0.26380503 -0.78566933
-2.9117482 -4.4793453 0.62459004
-1.7335135 -0.52498263 -0.79083574
-3.0857563 -5.0619445 0.86165762
-1.8001614 -0.75190717 -0.77553332
-3.0861027 -5.0541906 1.0401518
-1.911247 -1.1317762 -0.78286695
-3.0466852 -4.9116549 1.1973501
-2.0335307 -1.5493143 -0.77842402
-2.9695971 -4.6420474 1.3221726
-2.1625094 -1.9889362 -0.75826311
-5.2819796 -12.44545 3.2486353
-2.2981179 -2.4503138 -0.72019231
-5.5319881 -13.270341 3.8320339
-1.0610687 1.8019584 -0.28498542
-2.4601858 -2.947881 -0.66418016
-1.0622492 1.7985384 -0.27356657
-2.5898316 -3.3819647 -0.57857156
-1.063337 1.7954304 -0.26218739
-4.7134876 -10.581101 -0.94623387
-5.5850048 -13.519001 -0.76690948
-1.471015 0.38781181 -0.84395707
-6.2678366 -15.811212 -0.43436033
-1.4964379 0.30271542 -0.82663739
-6.2726145 -15.8055 0.0023665866
-1.5335004 0.17770134 -0.82054353
-12.243548 -35.945557 0.99070787
-1.593649 -0.026439212 -0.83569098
-12.216148 -35.806904 1.9092802
-1.645844 -0.20275339 -0.83227193
-1.6752944 -0.30058083 -0.79723632
-2.9555116 -4.5577798 0.63273954
-1.7470583 -0.54319972 -0.79645681
-2.999167 -4.6961918 0.81643689
-1.7936317 -0.69902027 -0.76334786
-6.4346695 -16.21785 2.7099364
-1.9161229 -1.114018 -0.77971983
-2.9957242 -4.6675682 1.1554857
-2.0417571 -1.5386956 -0.77711904
-2.9883928 -4.6344671 1.3215115
-2.1702859 -1.9722407 -0.75620306
-2.3138654 -2.4560063 -0.72174788
-5.3135433 -12.381824 3.612045
-1.0666742 1.7870207 -0.29340962
-2.4462509 -2.8483686 -0.65306306
-1.0654259 1.7920138 -0.27715409
-2.5980263 -3.3525181 -0.57645738
-1.0645235 1.7957829 -0.26220521
-1.0660532 1.7911942 -0.25160393
-5.6345167 -13.525123 -0.76843667
-1.4729309 0.39994735 -0.83943856
-6.328373 -15.830751 -0.43584731
-1.4990848 0.31323037 -0.82310343
-6.3320675 -15.821218 0.0017033436
-1.5359406 0.19020212 -0.81655347
-12.381064 -36.017303 0.99193501
-1.6003662 -0.02642123 -0.83641791
-12.360876 -35.903522 1.9142966
-1.6519796 -0.19893582 -0.83178043
-2.9905903 -4.6139779 0.47026247
-1.6762714 -0.27821171 -0.79133296
-1.7590667 -0.55578852 -0.80057776
-2.9631443 -4.5059414 0.79310131
-1.8198903 -0.75825703 -0.77851188
-1.9042671 -1.0399436 -0.76425612
-2.041563 -1.4997743 -0.77034557
-2.9821944 -4.5440893 1.304325
-2.190877 -1.9990768 -0.76147878
-5.3596315 -12.404129 3.2436209
-2.3313451 -2.4673476 -0.72412515
-1.0675316 1.7891254 -0.292496
-2.4900975 -2.9368644 -0.66440988
-1.0662632 1.7941341 -0.27628177
-2.6148798 -3.3453715 -0.57653952
-3.0951233 -4.9332986 -0.55212295
-1.0699923 1.7828276 -0.25566709
-5.6890039 -13.527523 -0.7699666
-1.4780254 0.40340707 -0.83875704
-6.3913097 -15.834814 -0.437152
-1.5097421 0.29890656 -0.82969463
-6.3956318 -15.827167 0.00091413711
-1.5630758 0.12174889 -0.84313059
-6.4885235 -16.112045 0.44999811
-1.6094811 -0.031604029 -0.83906233
-12.521324 -36.001308 1.9193797
-1.6518533 -0.17104101 -0.82362449
-2.9530799 -4.4127951 0.45517462
-1.6928072 -0.30538625 -0.80018806
-3.0213778 -4.6295137 0.64055359
-1.7660289 -0.54763192 -0.79920435
-2.9659221 -4.438755 0.78518093
-1.8324921 -0.76667047 -0.78138673
-2.8518801 -4.0560012 0.89261997
-1.907685 -1.0143901 -0.75948119
-2.8016791 -3.8835013 1.0200064
-2.0334167 -1.4303555 -0.75775337
-2.9847353 -4.4756351 1.2916125
-2.2045975 -1.9970176 -0.76199579
-2.3493896 -2.4743369 -0.72598398
-5.4194012 -12.415133 3.6256611
-1.0676503 1.7928567 -0.29064465
-2.5098658 -2.9537029 -0.66710889
-1.0663575 1.7979037 -0.27451339
-2.6392236 -3.373368 -0.57983005
-1.0664508 1.7982552 -0.26139128
-1.0690486 1.7901881 -0.25244999
-5.7376623 -13.539906 -0.7717309
-1.4874538 0.38889185 -0.8457191
-6.4477997 -15.8511 -0.4385294
-1.5104171 0.31470323 -0.82398963
-6.4510098 -15.839622 0.00026835711
-1.5690235 0.12158895 -0.84389174
-6.5306921 -16.078346 0.44874814
-1.6103903 -0.013489047 -0.83343577
-12.722589 -36.301373 1.9348663
-1.6591283 -0.17282556 -0.82489955
-2.9664254 -4.3941536 0.4538967
-1.6832792 -0.24996963 -0.78444707
-3.031817 -4.5992942 0.63779271
-1.7704033 -0.53618652 -0.79680812
-2.9945383 -4.4694967 0.78942525
-1.8222524 -0.70465642 -0.76691163
-2.8283067 -3.920397 0.87281024
-1.922859 -1.0343302 -0.7645371
-2.8659599 -4.0350933 1.047123
-1.9979676 -1.2787673 -0.72907591
-2.9978178 -4.4552388 1.2883402
-2.2184122 -2.0031378 -0.76375759
-2.7904725 -3.7747436 1.3043444
-2.3615978 -2.470628 -0.72616971
-1.0729764 1.779694 -0.29813892
-2.5286238 -2.9604223 -0.66870487
-1.0670942 1.8000016 -0.27363992
-2.6744406 -3.429234 -0.58586633
-1.0692667 1.7934396 -0.26396337
-3.3001649 -5.4590688 -0.59063661
-1.0703262 1.7905798 -0.25246963
-5.7883759 -13.538977 -0.77306139
-1.4943917 0.38522187 -0.8480984
-6.5083637 -15.85762 -0.43984738
-1.5111245 0.3324756 -0.81757104
-6.5104342 -15.842317 -0.00050355052
-1.5751534 0.12346868 -0.84398592
-6.6032858 -16.120914 0.44952089
-1.6125233 0.0030342713 -0.82845652
-6.6193933 -16.1507 0.89761651
-1.6622508 -0.15787816 -0.82087159
-2.9908438 -4.4033546 0.45475042
-1.6860453 -0.23302171 -0.78018773
-3.0091407 -4.4542384 0.62352407
-1.7784877 -0.53370696 -0.79693246
-3.0274611 -4.5051003 0.79433954
-1.8637424 -0.81006706 -0.79349828
-2.8654621 -3.9752691 0.88159561
-1.9352779 -1.0407592 -0.76673841
-2.859499 -3.9483509 1.0326632
-1.9629017 -1.1270323 -0.70040631
-2.8157418 -3.8001287 1.15819
-2.2423911 -2.037087 -0.77033293
-2.825346 -3.8233585 1.3162701
-2.3783233 -2.4758611 -0.72774863
-1.078892 1.7648658 -0.30656877
-2.5386176 -2.9386034 -0.6668998
-1.0719765 1.7883996 -0.27990884
-2.6510139 -3.2946968 -0.57383299
-1.0778998 1.7695876 -0.2758978
-4.8190975 -10.271684 -0.93114948
-1.0710698 1.7927252 -0.25168055
-5.8426838 -13.549335 -0.7749269
-1.4997395 0.38687941 -0.84818184
-6.5713863 -15.87158 -0.44134218
-1.5166335 0.33418337 -0.81765628
-6.5734921 -15.856261 -0.0012553092
-1.5818274 0.12356754 -0.8447603
-6.6612921 -16.115503 0.44898573
-1.6140108 0.021364998 -0.82284129
-13.0377 -36.507324 1.9455636
-1.6720107 -0.16485542 -0.8239342
-3.0141459 -4.4086637 0.45531085
-1.7107329 -0.28780985 -0.79723811
-3.0219049 -4.4252687 0.62092149
-1.791684 -0.54786044 -0.80156958
-3.0540752 -4.5197172 0.79663718
-1.8417124 -0.70680773 -0.76900172
-2.8857665 -3.9751914 0.88215733
-1.9396749 -1.0209533 -0.76318944
-1.9715917 -1.1202215 -0.69982958
-2.2613354 -2.0539548 -0.77403939
-2.9862688 -4.2709041 1.4182109
-2.3974323 -2.4886079 -0.73042369
-5.4119482 -11.951556 3.5169363
-1.0791223 1.7686437 -0.30471966
-2.5582821 -2.951185 -0.66916776
-1.0737039 1.7870649 -0.28082076
-2.6645598 -3.2841964 -0.57353103
-1.0733162 1.789014 -0.26655507
-1.0760262 1.7808602 -0.2573615
-5.8931522 -13.556571 -0.77658272
-1.5042253 0.39021942 -0.84749508
-6.6271887 -15.872964 -0.44250667
-1.526208 0.32154793 -0.8235203
-6.6347256 -15.874822 -0.0019586617
-1.5853713 0.13256112 -0.84213364
-13.091986 -36.349289 0.99702883
-1.6183822 0.028694779 -0.82103062
-1.6734968 -0.14637074 -0.81871867
-6.7704411 -16.238197 1.3535151
-1.7142334 -0.27461761 -0.7940675
-3.0531638 -4.4592915 0.62463987
-1.8085067 -0.57505423 -0.80971062
-6.7005167 -15.971893 2.2316473
-1.8550025 -0.72101074 -0.7732352
-2.9073904 -3.982944 0.88386595
-1.9416627 -0.99571896 -0.75839865
-2.0381622 -1.3013108 -0.73575258
-2.9691598 -4.1618004 1.2322873
-2.278471 -2.0672085 -0.77709913
-3.0040135 -4.2632995 1.4175019
-2.4087212 -2.4788449 -0.72980869
-5.4909611 -12.061323 3.5470765
-1.0814999 1.7656865 -0.30661014
-2.5789249 -2.9634128 -0.67145407
-1.0760448 1.7840512 -0.28262696
-2.7048473 -3.3550177 -0.58102691
-1.0820978 1.7652168 -0.27849224
-3.3903568 -5.5123806 -0.59693623
-1.0773306 1.7812731 -0.25738224
-5.9482622 -13.56848 -0.77855432
-1.510655 0.38837788 -0.84911144
-6.694068 -15.897957 -0.44427124
-1.5295306 0.33042198 -0.82071686
-6.69806 -15.888355 -0.0027320413
-1.5813886 0.1668134 -0.83000064
-6.8499556 -16.343258 0.45438778
-1.6276171 0.021670349 -0.82430863
-6.8252954 -16.243225 0.90244627
-1.6821337 -0.14965115 -0.82060182
-3.1015732 -4.5505366 0.46639562
-1.7272927 -0.29066625 -0.799649
-3.0700545 -4.4435105 0.6233691
-1.8068577 -0.54105526 -0.80131674
-6.7360201 -15.896093 2.2234383
-1.8828859 -0.77958852 -0.78843224
-2.92292 -3.9676514 0.88215649
-1.9452438 -0.97405815 -0.75443852
-2.8758216 -3.8130128 1.0110646
-2.0975251 -1.4537138 -0.76622581
-2.9762797 -4.1183386 1.2244837
-2.2887173 -2.0556834 -0.77602172
-3.1790633 -4.7411308 1.5265241
-2.42257 -2.4744658 -0.73002827
-5.5398026 -12.066279 3.5510576
-1.0864497 1.7542748 -0.31317279
-2.5715799 -2.8906641 -0.66350508
-1.0815305 1.770775 -0.28979051
-2.7421627 -3.4183681 -0.58779275
-1.0795814 1.7777122 -0.27255359
-3.3614163 -5.3477578 -0.58609569
-1.0758218 1.7903911 -0.2533567
-5.9976902 -13.571573 -0.78005111
-1.5140195 0.39527044 -0.84689355
-6.7530985 -15.908484 -0.44566369
-1.5425502 0.30717489 -0.83092129
-6.7565241 -15.896969 -0.0034799571
-1.5881635 0.16502871 -0.83144999
-6.8675499 -16.220129 0.45067221
-1.6359484 0.016368151 -0.82694757
-6.8402166 -16.112633 0.89574456
-1.6869366 -0.14209975 -0.81893301
-3.1493034 -4.6337156 0.47287026
-1.7400166 -0.30679798 -0.80522597
-3.0954835 -4.4583821 0.6251688
-1.7951971 -0.47770739 -0.78488874
-6.5537319 -15.157961 2.1320934
-1.8858793 -0.76023549 -0.78445721
-2.9415545 -3.9658566 0.88244319
-1.9671074 -1.0122784 -0.76362455
-2.889786 -3.7982008 1.009146
-2.0249121 -1.1899785 -0.71561909
-3.0577738 -4.3088522 1.2635638
-2.3029609 -2.0594254 -0.77748954
-2.4301782 -2.4533186 -0.72777438
-5.6030178 -12.123669 3.568119
-1.0888056 1.7513189 -0.31506297
-2.5863798 -2.8879795 -0.66396201
-1.0817045 1.7745914 -0.28802469
-2.6863148 -3.191525 -0.56685507
-1.0786344 1.7850132 -0.26916802
-3.3996384 -5.3941369 -0.59021258
-6.0422516 -13.559307 -0.78085041
-1.5195838 0.39512402 -0.84774113
-6.8036089 -15.892193 -0.44648087
-1.5472401 0.31064662 -0.83028316
-6.8138504 -15.901602 -0.0042467671
-1.5983716 0.15250905 -0.83697844
-6.8845053 -16.09701 0.44695875
-1.6454648 0.0074816998 -0.83085716
-6.8556967 -15.985907 0.88924205
-1.6986665 -0.15638512 -0.82435942
-3.161113 -4.6047554 0.47082961
-1.7516651 -0.3192125 -0.80971289
-3.2011547 -4.7192497 0.65176082
-1.821506 -0.53432137 -0.80106032
-1.8899604 -0.74459797 -0.78139484
-5.7479877 -12.503227 2.1663687
-1.9682839 -0.98516405 -0.75842369
-2.9067481 -3.7927344 1.0088711
-2.0505764 -1.2374856 -0.72563601
-2.8879817 -3.727843 1.1478152
-2.3281047 -2.0969541 -0.78471303
-3.1861002 -4.630034 1.5036126
-2.439503 -2.4378204 -0.7263422
-5.5956469 -11.964606 3.5306537
-1.0881244 1.7585353 -0.31134769
-2.6078708 -2.8997881 -0.66626966
-1.0771201 1.7938 -0.27822253
-2.7131138 -3.2163081 -0.57003117
-1.0788995 1.7889055 -0.26748765
-3.5064144 -5.6405749 -0.60868406
-6.0947552 -13.552705 -0.78209949
-1.528596 0.38640231 -0.85243058
-6.8348904 -15.795787 -0.44569311
-1.5542784 0.30901778 -0.83182621
-6.8813028 -15.915378 -0.0050990656
-1.6047658 0.15459214 -0.83708262
-6.9090405 -15.977569 0.44329721
-1.6482487 0.022349475 -0.82652116
-6.886179 -15.885642 0.88410401
-1.7089596 -0.16307862 -0.8274368
-3.1869957 -4.6110106 0.47148597
-1.755408 -0.30383021 -0.80601406
-1.8264887 -0.52048039 -0.79819024
-3.1111314 -4.3638988 0.77943587
-1.9051694 -0.76012242 -0.78611171
-5.7858658 -12.461732 2.161648
-1.9830827 -0.99681067 -0.76187754
-2.9258096 -3.7865183 1.0085599
-2.1317062 -1.450948 -0.76820207
-2.9266076 -3.7813787 1.1594987
-2.3348532 -2.0719151 -0.78141642
-2.4540367 -2.4330852 -0.72658002
-5.6370707 -11.938838 3.5271206
-2.6198723 -2.8853796 -0.66538179
-1.0756398 1.802732 -0.27377689
-2.7671609 -3.3264303 -0.58135629
-1.0818452 1.7841597 -0.27006337
-3.5034122 -5.5533295 -0.60339677
-1.0785233 1.7951185 -0.25180078
-6.1301231 -13.503199 -0.78128016
-1.5328028 0.39167663 -0.85098624
-6.8819504 -15.759247 -0.44615543
-1.5592793 0.31262669 -0.831195
-6.940711 -15.914781 -0.0059471596
-1.614862 0.1440541 -0.84194112
-6.9360151 -15.878183 0.44020179
-1.6499864 0.038892977 -0.82154262
-6.9468975 -15.888793 0.88428843
-1.7141619 -0.15533209 -0.82577729
-6.6823454 -15.069808 1.2669308
-1.7675704 -0.31602904 -0.81051195
-1.8213159 -0.47734177 -0.78728414
-3.1282833 -4.3498888 0.77816415
-1.9133135 -0.75539076 -0.78579998
-5.7977915 -12.351503 2.146503
-2.0040987 -1.0290438 -0.76984978
-2.953161 -3.8086705 1.0131966
-2.1712713 -1.5352192 -0.78555965
