# .PCD v0.7 - Point Cloud Data file format
VERSION 0.7
FIELDS x y z
SIZE 4 4 4
TYPE F F F
COUNT 1 1 1
WIDTH 1511
HEIGHT 1
VIEWPOINT 0 0 0 1 0 0 0
POINTS 1511
DATA ascii
9.0839491 -1.6165419 -1.7515707
0.46534908 1.7387707 -1.030472
12.089675 -2.8268857 -1.8985299
0.57119536 1.6972266 -1.0379205
24.464563 -7.6943731 -2.933743
0.71628571 1.6394694 -1.0609248
26.814575 -8.5782452 -2.4910731
0.84658146 1.5884069 -1.068863
23.585056 -7.2681389 -1.5919377
0.9546926 1.5470552 -1.059391
23.251339 -7.0988865 -0.96400517
1.1645048 1.4637438 -1.0893379
23.815044 -7.2796154 -0.36360541
1.3681915 1.3836637 -1.1057889
19.933187 -5.7373953 0.20351842
1.5898268 1.2968874 -1.1179982
52.762634 -18.36134 2.0228412
1.7904017 1.2194251 -1.112179
55.6119 -19.370575 3.5453517
2.2159541 1.0507222 -1.1685908
2.456414 0.95871687 -1.1480141
2.8543344 0.80365288 -1.1583632
3.3870213 0.59550881 -1.1811143
4.5386925 0.1405704 -1.3081768
8.2582798 -1.3376303 -1.8586967
9.0980558 -1.6568575 -1.7538247
0.43770647 1.7452503 -1.0149156
12.100285 -2.8761601 -1.8995702
0.58073604 1.6874199 -1.043999
21.333826 -6.5341568 -2.5860012
0.71088827 1.6355312 -1.0588437
26.793547 -8.6651468 -2.4868016
0.83764279 1.5855107 -1.0651828
23.623472 -7.3675356 -1.5913388
0.94047046 1.5459967 -1.0535011
23.15073 -7.1423368 -0.95689934
1.0077975 1.5216362 -1.0219649
23.847765 -7.3774061 -0.35956863
1.3653574 1.3763914 -1.1053287
19.949913 -5.8156385 0.20806631
1.6076727 1.2802658 -1.1253779
1.8416193 1.1883522 -1.1306379
47.217724 -16.312157 3.017776
2.1873202 1.0511655 -1.1600118
48.326393 -16.663067 4.3311014
2.477329 0.93797565 -1.1546814
2.8282137 0.80079532 -1.1518793
3.3872864 0.58006132 -1.1815773
4.7195168 0.048074722 -1.3470865
8.2274122 -1.3571475 -1.8531821
9.1835938 -1.7260437 -1.7676432
0.40688241 1.753282 -0.99746174
12.105198 -2.9233141 -1.8998556
0.57388699 1.6845844 -1.0409486
24.47193 -7.872036 -2.9315383
0.72534311 1.6231151 -1.0672169
26.805561 -8.7653561 -2.4853783
0.81363356 1.5890828 -1.0540438
23.655949 -7.465024 -1.5903897
0.98212242 1.521314 -1.0735672
23.12068 -7.2133093 -0.95229894
1.1131065 1.4699154 -1.0684178
22.98745 -7.1224022 -0.34655705
1.3538666 1.3727584 -1.1013676
23.674603 -7.3548689 0.26847675
1.5940797 1.2766638 -1.1209344
20.123293 -5.9224567 0.74357671
1.7362876 1.2221746 -1.0945635
48.734547 -17.069946 3.1288886
2.2083035 1.0311782 -1.1673543
48.250267 -16.802223 4.3386869
2.4928031 0.91931176 -1.1597706
2.7320783 0.8269124 -1.1267445
3.5031168 0.51718795 -1.2097743
4.6401052 0.060570478 -1.3304943
8.2074585 -1.3809681 -1.8497301
9.0946598 -1.7252164 -1.7532762
0.41318285 1.745337 -1.0019488
11.821379 -2.853128 -1.8609278
0.55397093 1.6874471 -1.0306034
23.352217 -7.505908 -2.8063779
0.68519056 1.6341522 -1.0468508
0.78631282 1.5942259 -1.0412558
18.937632 -5.6526003 -1.3049371
0.99321675 1.5093962 -1.0794681
19.714998 -5.9322481 -0.8301
1.0746458 1.4786711 -1.0523973
22.97776 -7.2010765 -0.34223655
1.3509989 1.3655272 -1.1009107
23.697561 -7.4488659 0.27390495
1.5456753 1.2878265 -1.1033731
1.8365293 1.1702796 -1.1301541
48.58316 -17.180912 3.132165
2.1920514 1.0266054 -1.1627622
48.153328 -16.933113 4.3444071
2.5206718 0.8953433 -1.1685148
2.8441756 0.76720333 -1.1571087
3.6312535 0.44839132 -1.2409585
4.6987009 0.016727924 -1.3433666
8.2403164 -1.4263937 -1.8561954
9.123003 -1.7717805 -1.7578855
0.43394005 1.730988 -1.0150121
12.206324 -3.0555172 -1.9128869
0.55854809 1.6797289 -1.0339434
23.349102 -7.5886803 -2.8046632
0.66987908 1.6346447 -1.0395558
23.390127 -7.5663462 -2.1898074
0.79244339 1.5850551 -1.0450475
18.965748 -5.7328491 -1.3042932
0.97555089 1.5097854 -1.0720071
19.742268 -6.0147648 -0.82801354
1.1881127 1.4224582 -1.102513
18.715361 -5.5686407 -0.29672429
1.3429413 1.3605146 -1.0983554
20.306534 -6.1748972 0.22652587
1.5408173 1.2807692 -1.1022248
19.833828 -5.952445 0.7418288
1.8295598 1.1631091 -1.1283839
48.698685 -17.397346 3.1528602
2.1634321 1.0273383 -1.1542031
47.550217 -16.863232 4.3042536
2.5128403 0.88616061 -1.166795
2.9147618 0.72407055 -1.1764412
3.7049687 0.4013679 -1.2591145
4.4997635 0.079379797 -1.3012663
8.2675295 -1.4697814 -1.8616238
9.0889807 -1.7929244 -1.7524315
0.45645678 1.7163384 -1.0290543
12.256521 -3.1167364 -1.9194163
0.58939767 1.6610798 -1.0519038
0.69111741 1.6199304 -1.0514475
27.776844 -9.4401541 -2.5610664
0.77544224 1.5866876 -1.0372835
23.449686 -7.6258945 -1.5698012
0.980124 1.5014609 -1.0748086
19.562954 -6.0051079 -0.8191402
1.1993501 1.4106147 -1.1080788
18.724154 -5.6323967 -0.29374209
1.3352163 1.3563845 -1.0958561
20.337761 -6.2525177 0.23089591
1.4355814 1.3178203 -1.0631154
19.496563 -5.8803377 0.7324698
1.8212316 1.1577296 -1.1260679
47.050705 -16.888187 3.0563364
2.2447269 0.98283112 -1.1808972
47.558167 -17.014042 4.3176622
2.5481596 0.86019778 -1.1776938
2.8890717 0.7226721 -1.1700516
3.566694 0.44480646 -1.2263286
4.62603 0.0095152855 -1.3285732
8.3122616 -1.5169234 -1.8703169
9.1221189 -1.8376741 -1.7578443
0.44324255 1.7165041 -1.0220805
12.179095 -3.1332955 -1.9085739
0.57423925 1.6615943 -1.0442816
0.64107418 1.6354539 -1.0258709
69.513199 -26.817902 -6.1045256
0.80306292 1.5676484 -1.0518165
23.778461 -7.8511429 -1.5863936
0.96737671 1.499402 -1.0696887
19.693825 -6.134347 -0.82046938
1.2134578 1.3960221 -1.1150498
23.567129 -7.6859465 -0.33532885
1.3355646 1.3472954 -1.0967751
19.836353 -6.1264944 0.22760716
1.5277617 1.2686676 -1.0986514
19.470314 -5.9448881 0.73654079
1.7947857 1.1584013 -1.117547
46.619179 -16.889469 3.0414534
2.2122769 0.98448229 -1.1711675
47.117157 -17.013996 4.2927256
2.4973626 0.86851883 -1.1634028
2.8679187 0.71705329 -1.1649712
3.7441695 0.35253024 -1.2694757
4.5156994 0.035106421 -1.3054242
8.3075666 -1.5493937 -1.8698249
9.1291952 -1.8780341 -1.7590737
0.46074212 1.7035844 -1.033239
12.374348 -3.2586374 -1.9348154
0.54470563 1.669311 -1.0285022
0.62593222 1.6364892 -1.0186107
19.446404 -6.1651535 -1.8491004
0.83252907 1.5483613 -1.0672081
22.449949 -7.380167 -1.5047522
0.92463279 1.5114908 -1.050491
1.2074265 1.3911023 -1.1131616
23.322638 -7.6654253 -0.32901445
1.3430963 1.3360355 -1.1005423
19.755096 -6.1612511 0.2303606
1.5282373 1.2598693 -1.0995018
19.635479 -6.0793934 0.74790931
1.7722735 1.1587059 -1.1103206
47.013855 -17.205532 3.0795615
2.2173107 0.97148669 -1.1734214
46.166485 -16.784824 4.2192764
2.4507017 0.87684739 -1.1502523
2.8669708 0.70450532 -1.1652306
3.5267193 0.42954934 -1.2176859
4.5761204 -0.0089066029 -1.3187234
8.3240671 -1.5870597 -1.8732839
9.2505846 -1.9625993 -1.7787935
0.45083225 1.70262 -1.0281898
12.390783 -3.3123703 -1.9367744
0.53296375 1.6688603 -1.0227332
0.65670168 1.6166663 -1.0356753
0.81853819 1.5478694 -1.0610588
19.411516 -6.1888533 -1.3218163
0.95915031 1.4890857 -1.0673755
19.438076 -6.1674032 -0.80590141
1.1689506 1.4000961 -1.0971576
23.161657 -7.6831512 -0.32328406
1.3469791 1.3258134 -1.102883
23.493055 -7.7818031 0.29548422
1.5059998 1.2604804 -1.0918139
19.791151 -6.2154751 0.75926113
1.7932024 1.1395566 -1.1183358
47.017731 -17.373787 3.0927041
2.2150247 0.96093965 -1.1733718
47.137676 -17.346172 4.3225346
2.4941995 0.84562969 -1.1636701
2.8817461 0.6843282 -1.1697352
3.6089737 0.37806821 -1.2379636
4.5114756 -0.00091552734 -1.3053271
8.3488169 -1.6303573 -1.878334
9.2707157 -2.0071001 -1.782167
0.43303645 1.7056231 -1.0184022
12.32587 -3.3288331 -1.9277246
0.52134871 1.6687527 -1.0169861
0.65631413 1.6110575 -1.036238
18.890802 -6.0682001 -1.7987542
0.84953594 1.5276115 -1.0772638
19.487068 -6.2878799 -1.3241075
0.99874806 1.4645762 -1.0866226
19.559813 -6.2858086 -0.80725253
1.1968632 1.380186 -1.1101072
18.453951 -5.7896786 -0.27765742
1.323596 1.3281556 -1.0940776
23.685949 -7.9427547 0.30344173
1.5755799 1.2211406 -1.1188377
19.846233 -6.3066883 0.76622343
1.7654536 1.1422778 -1.1092863
46.963669 -17.508659 3.1012669
2.2076759 0.95327997 -1.1716607
45.790314 -16.947716 4.2121263
2.5201175 0.82250535 -1.1719004
2.8842597 0.670169 -1.170944
3.4888465 0.41471541 -1.2095524
4.5608253 -0.040631771 -1.3162918
8.3107157 -1.6449261 -1.8715851
9.3223372 -2.0632057 -1.7906435
0.41846383 1.7072519 -1.0105236
12.694842 -3.5316815 -1.9775867
0.5243212 1.6620414 -1.019434
0.66738749 1.6002225 -1.0428811
19.215847 -6.2726116 -1.8247492
0.83897257 1.5259681 -1.0727905
19.347231 -6.2958975 -1.3136617
0.96611571 1.4723802 -1.0721455
19.655283 -6.3940239 -0.80768734
1.175549 1.3821929 -1.1015544
23.536257 -8.0002537 -0.31852999
1.3447239 1.3107179 -1.1034255
23.408108 -7.9070835 0.30363706
1.5638297 1.2175658 -1.1151012
23.190979 -7.7773342 0.91072178
1.8352332 1.1018751 -1.1344061
47.034496 -17.695671 3.1181993
2.1389015 0.97279871 -1.1501524
45.814518 -17.11134 4.2276525
2.544172 0.80000567 -1.1796007
2.8724964 0.66222727 -1.1683449
3.5246551 0.38398552 -1.2186582
4.6226006 -0.086120129 -1.3299344
8.3160048 -1.6781273 -1.8729959
9.3137999 -2.0937386 -1.7894094
0.44702303 1.6890147 -1.0283318
13.039133 -3.7263675 -2.024106
0.53535867 1.6515833 -1.0264302
0.65712535 1.5990796 -1.0382317
19.245033 -6.3519878 -1.8256896
0.81847203 1.5289134 -1.0633626
19.613136 -6.477149 -1.3271983
0.93856263 1.4780729 -1.0600306
19.36978 -6.3402805 -0.79525197
1.0831773 1.4164813 -1.0618937
22.789537 -7.7633915 -0.30810979
1.3179293 1.3147207 -1.0932329
23.325808 -7.9527121 0.30702755
1.5279367 1.2248836 -1.1022173
23.084999 -7.8123541 0.91172624
1.8300452 1.0945075 -1.1332844
47.056801 -17.863125 3.131948
2.1561246 0.95444286 -1.1563722
46.042141 -17.360798 4.2620869
2.4198546 0.84313691 -1.1435735
2.7469976 0.70458972 -1.1353122
3.5013397 0.37900877 -1.2135465
4.4846582 -0.04447794 -1.3008502
8.3464689 -1.7224402 -1.8791523
9.4031277 -2.1668983 -1.80402
0.41945124 1.6960939 -1.0128154
12.92752 -3.7300148 -2.008745
0.54934049 1.6389904 -1.0352057
0.68259311 1.5807556 -1.0526446
18.844719 -6.2536488 -1.790166
0.77951705 1.5396852 -1.0448134
19.721106 -6.6006346 -1.3311157
0.954252 1.4632859 -1.0682482
19.2286 -6.3553104 -0.78740621
1.1664717 1.370339 -1.0992318
22.722681 -7.8232069 -0.30312124
1.2822852 1.3219149 -1.0795113
23.276594 -8.0221443 0.31154993
1.4297216 1.2595553 -1.0657699
19.353571 -6.3117523 0.76010364
1.8296146 1.0837982 -1.133929
46.330898 -17.733219 3.0967822
2.1780376 0.93249011 -1.1642097
45.769817 -17.420105 4.2519226
2.4592338 0.81243289 -1.1558862
2.8749557 0.63326836 -1.1701999
3.5594704 0.33610511 -1.228127
4.487978 -0.06668973 -1.3020606
8.3428869 -1.7559314 -1.8789923
9.4253407 -2.2156315 -1.8078189
0.44153202 1.6806679 -1.0268102
12.972485 -3.7962236 -2.0146768
0.55382907 1.6314048 -1.0385562
0.6428932 1.5933058 -1.0323762
18.908529 -6.3474894 -1.7940871
0.78058028 1.5329447 -1.0461382
18.936384 -6.3274517 -1.2828147
0.9467876 1.4599051 -1.0655416
1.1333787 1.378022 -1.0855137
22.712482 -7.8974829 -0.2991083
1.1703513 1.3652461 -1.0344909
19.383551 -6.4245844 0.24908134
1.455941 1.239205 -1.0764307
23.144869 -8.0074825 0.92585969
1.8035667 1.0859094 -1.1255012
46.340057 -17.893681 3.1095538
2.1881056 0.91706538 -1.1681569
45.810719 -17.592194 4.2691808
2.5324523 0.7676388 -1.1781375
46.302685 -17.726475 5.5174656
2.8666589 0.62382114 -1.1685572
3.4736607 0.3590486 -1.2079748
4.7251244 -0.19085598 -1.3533186
5.8976059 -0.70169997 -1.4200623
9.3657045 -2.2240796 -1.7983724
0.45853639 1.6668328 -1.0379126
13.005988 -3.8635993 -2.0190539
0.58060145 1.612584 -1.0545945
0.61280191 1.6008875 -1.017289
18.9142 -6.4245777 -1.7929311
0.79784179 1.5178298 -1.0556761
18.927452 -6.3981981 -1.2799549
0.9640429 1.4442072 -1.0745343
15.091328 -4.6863136 -0.64386708
1.1320422 1.3702759 -1.0858169
19.387993 -6.5355082 -0.26817432
1.2540908 1.3180978 -1.0695752
19.342863 -6.4831762 0.25288102
1.4971404 1.2107003 -1.0929004
19.169218 -6.3755751 0.76204967
1.7649903 1.0927103 -1.1127589
46.357994 -18.077988 3.1244903
2.1923792 0.90281963 -1.1703351
19.505335 -6.4555483 1.8233453
2.4642289 0.78505886 -1.1587257
2.6736641 0.69636023 -1.1174756
3.4621179 0.34716916 -1.2057905
4.6438179 -0.17607617 -1.3364451
5.8809175 -0.72034931 -1.4173381
9.3388567 -2.2511544 -1.7942741
0.43758368 1.6716049 -1.026242
12.910933 -3.8679423 -2.0060284
0.56729782 1.6132765 -1.047942
19.027725 -6.5738554 -2.3169541
0.62050247 1.5915222 -1.0221947
19.073887 -6.5620556 -1.8049504
0.80048621 1.5102434 -1.0578222
18.961502 -6.4798088 -1.2798852
0.93987274 1.4486389 -1.0640039
15.141106 -4.7620535 -0.64334702
1.144489 1.3570144 -1.0920852
22.989845 -8.1871939 -0.29292813
1.2886372 1.2941821 -1.0844853
23.290871 -8.2805862 0.32671687
1.5368788 1.1836363 -1.1087584
1.7511318 1.0895479 -1.1086102
19.567982 -6.5841227 1.3070581
2.228483 0.87525642 -1.1827368
2.4950242 0.75908673 -1.1684887
45.871922 -17.87402 5.49827
2.7751491 0.6375128 -1.1452749
3.5792892 0.27874637 -1.2346054
4.5438461 -0.14994526 -1.3155084
5.890399 -0.7478528 -1.4195008
9.4290333 -2.3263907 -1.8091025
0.43729401 1.6665866 -1.0269253
12.915473 -3.9166799 -2.0065353
0.52507091 1.627867 -1.0249429
19.003056 -6.629818 -2.3134499
0.61189115 1.5898542 -1.0184287
19.160168 -6.6678801 -1.8107841
0.76194274 1.522143 -1.0393448
18.829287 -6.4876118 -1.2700989
0.94237447 1.4406285 -1.0659965
15.091949 -4.7942634 -0.63955128
1.1467915 1.3484209 -1.0939137
22.998676 -8.2712717 -0.28902212
1.3094904 1.2764281 -1.0938152
23.535336 -8.4696426 0.33587769
1.5542166 1.1667333 -1.1161257
19.09403 -6.4771891 0.76801378
1.7459161 1.0824403 -1.1075068
19.549902 -6.6449261 1.3111663
2.2035134 0.87569118 -1.1753929
19.485947 -6.583931 1.8334606
2.5064113 0.74182916 -1.1725335
46.428543 -18.272274 5.5799475
2.841032 0.59431171 -1.1635594
3.5415862 0.28038383 -1.2260733
4.5244322 -0.15992212 -1.3118451
5.9087591 -0.77950549 -1.4233472
9.5657434 -2.4233727 -1.8314841
0.40030527 1.6786642 -1.0057385
12.995376 -4.0056987 -2.0172737
0.54208648 1.6135253 -1.0355233
50.997173 -21.203854 -5.8257766
0.65340209 1.5634725 -1.0414921
19.391891 -6.8486242 -1.8286783
0.79553556 1.4990617 -1.0571222
19.205898 -6.7319107 -1.2897887
0.9295702 1.4390061 -1.0609071
18.898306 -6.5616379 -0.76224387
1.0916138 1.3660831 -1.0705673
18.168213 -6.2036715 -0.2485126
1.3366733 1.2545068 -1.1058676
18.648825 -6.3868055 0.25286165
1.5590925 1.1544297 -1.1188663
19.00745 -6.5145464 0.76943284
1.65224 1.1155803 -1.0753469
19.564949 -6.7290297 1.3182335
2.1832798 0.87268102 -1.1696764
2.4295897 0.76394963 -1.1505703
46.440563 -18.455708 5.5986667
2.7932444 0.60159969 -1.1514225
3.5635231 0.25278831 -1.2320213
4.6824951 -0.25375199 -1.3463401
5.8470478 -0.77760267 -1.4121991
9.5743275 -2.4673944 -1.8331857
0.42875242 1.6603911 -1.0235456
12.877143 -3.9929018 -2.0011744
0.52587116 1.6165401 -1.0271038
50.359188 -21.065529 -5.7540464
0.67260396 1.5490366 -1.0524884
18.855778 -6.6650038 -1.7823746
0.78855014 1.4968331 -1.0543618
16.212809 -5.4359007 -1.1136056
0.84267843 1.4746187 -1.0207391
15.075472 -4.8950391 -0.63469219
1.0875552 1.3615652 -1.0694959
16.142595 -5.3491836 -0.23091105
1.3204744 1.2550285 -1.0999343
18.475803 -6.367074 0.25310341
1.5305622 1.1601033 -1.1086901
19.056662 -6.5953522 0.77560616
1.7923131 1.0414758 -1.1253524
2.0806923 0.91119456 -1.1370757
2.4414973 0.74800873 -1.154698
46.432262 -18.591015 5.6111698
2.8119054 0.58146775 -1.1569843
3.4078343 0.31138754 -1.1949162
4.6548204 -0.2579186 -1.3408713
5.8036757 -0.77798986 -1.4044054
9.6400213 -2.5288715 -1.8440801
0.4218626 1.6579566 -1.0204015
13.034056 -4.1181169 -2.0224023
0.52999234 1.6083468 -1.0304176
49.677261 -20.946243 -5.6771269
0.5906738 1.5821508 -1.0097094
18.827614 -6.7274399 -1.7784735
0.78425467 1.4917415 -1.05317
18.949825 -6.7510948 -1.2707928
0.83497131 1.4709618 -1.0180168
18.811888 -6.6563358 -0.7541033
1.112958 1.3410577 -1.0816222
23.05974 -8.5508718 -0.27703324
1.315377 1.2482882 -1.0987674
18.428093 -6.4193459 0.25656459
1.5285668 1.151082 -1.1088285
19.316072 -6.7881575 0.79219973
1.8123391 1.0210017 -1.1332887
44.278313 -17.95578 3.0433717
1.996417 0.93903124 -1.1105639
19.614931 -6.8565674 1.864543
2.4295197 0.74024594 -1.1519355
46.374077 -18.744152 5.6215811
2.6041279 0.66427588 -1.1018256
3.5554221 0.22524285 -1.2312589
4.6431503 -0.27424121 -1.3389838
5.765337 -0.78627157 -1.3976727
9.5333033 -2.5200348 -1.8271538
0.41351223 1.656599 -1.0163276
13.025867 -4.1648936 -2.02126
0.51341701 1.6106317 -1.0219529
0.60136223 1.5708272 -1.0163242
19.057909 -6.9050751 -1.7963665
0.78336918 1.4853939 -1.0536474
16.132456 -5.5261784 -1.1051326
0.87543511 1.4443356 -1.0379657
18.721504 -6.6860657 -0.74836123
1.091589 1.3434477 -1.0730963
23.012678 -8.6157064 -0.27246872
1.3104501 1.241985 -1.0976281
18.933205 -6.7191629 0.27011499
1.5318613 1.1400578 -1.1109482
19.07567 -6.7519798 0.78656971
1.7035773 1.0626022 -1.0957344
44.195366 -18.080299 3.0502424
1.9697425 0.94063807 -1.1026807
18.934875 -6.6240568 1.8061846
2.4230394 0.73066258 -1.1507678
46.926678 -19.161724 5.7049465
2.7800736 0.56770027 -1.1498291
3.6021845 0.18649721 -1.2432266
4.5643702 -0.25779176 -1.3226534
5.6364937 -0.75051832 -1.3738817
9.5495043 -2.5656657 -1.8301302
0.42432618 1.6463993 -1.0236692
13.062937 -4.2269521 -2.0262794
0.49871874 1.6127717 -1.0144358
48.374393 -20.680576 -5.5307574
0.58801842 1.5719922 -1.0099903
19.042871 -6.961833 -1.7938457
0.74186552 1.499787 -1.0335796
16.095552 -5.5635643 -1.1013834
0.87473774 1.4383944 -1.0384262
18.587097 -6.6866512 -0.74155444
1.1157169 1.3247234 -1.0845461
23.007467 -8.6894999 -0.26870337
1.2991436 1.239815 -1.0937647
45.903698 -19.150818 0.78340459
1.5270236 1.1340387 -1.1098707
18.975193 -6.7697821 0.78646863
1.7088211 1.051175 -1.0983124
44.17749 -18.21516 3.0601633
2.0975876 0.86952651 -1.144914
18.909075 -6.6755905 1.8092778
2.4275534 0.71732819 -1.1527824
46.372856 -19.062832 5.6525936
2.6859732 0.60024154 -1.125107
3.5683372 0.18766642 -1.2356273
4.570035 -0.27841854 -1.3244038
9.6585817 -2.6506295 -1.8481283
0.41741145 1.6440195 -1.0205293
12.968888 -4.2364922 -2.013535
0.5347023 1.5886886 -1.0358853
0.59043431 1.5643249 -1.0122578
19.006554 -7.0214663 -1.7893116
0.67877233 1.5239645 -1.0027661
16.090614 -5.6266823 -1.0991794
0.91153455 1.4126947 -1.0567708
19.359695 -7.1212482 -0.76349974
1.1075211 1.3202729 -1.0819027
22.979864 -8.768364 -0.26404467
1.2400899 1.259534 -1.070389
45.294827 -19.047958 0.78224421
1.4518335 1.1606472 -1.0820495
1.8162124 0.98829257 -1.1371717
44.222607 -18.407898 3.0767779
2.1361744 0.8386451 -1.1583397
19.251514 -6.9082956 1.8488357
2.3911421 0.72141588 -1.1427906
46.079834 -19.10947 5.6345968
2.871465 0.49668849 -1.1758235
3.6056645 0.15199232 -1.2453904
4.6805849 -0.35276699 -1.3488368
5.6507998 -0.80432796 -1.3775163
9.7038603 -2.7130623 -1.8558842
0.39658809 1.6493379 -1.0088944
13.034954 -4.3156657 -2.0225282
0.531003 1.5849619 -1.0346969
0.60276985 1.5523788 -1.0197499
18.951677 -7.0637732 -1.7834121
0.73684371 1.4889498 -1.0329041
15.996069 -5.6405029 -1.0920258
0.95677686 1.3833715 -1.0790455
22.882603 -8.8427916 -0.87374842
1.0913408 1.3207457 -1.075624
23.225878 -8.9649773 -0.2616556
1.2740886 1.2348065 -1.0852511
18.888847 -6.9058447 0.28141853
1.4298625 1.1627351 -1.0744592
18.840401 -6.851531 0.79029155
1.6806061 1.0446742 -1.0900096
44.259842 -18.578632 3.0914121
2.1268184 0.83218563 -1.1560954
2.4700613 0.67121959 -1.1669862
2.7351148 0.54914057 -1.1397552
3.6488664 0.11516428 -1.2565204
4.736825 -0.39943242 -1.361547
5.6562977 -0.82989812 -1.3790295
9.5970116 -2.6987796 -1.8389612
0.4072088 1.6388133 -1.0162164
12.948498 -4.3223815 -2.0108528
0.52570391 1.5820546 -1.0326034
0.64243519 1.5265646 -1.0419351
18.097071 -6.7255373 -1.7106479
0.72631133 1.4879478 -1.0284745
15.946699 -5.6752443 -1.0875036
0.94916296 1.3801411 -1.0763512
22.869392 -8.9180861 -0.87016976
1.081836 1.3179852 -1.072298
16.023188 -5.656765 -0.21237215
1.2088261 1.2590671 -1.0591767
18.813871 -6.938591 0.28393093
1.4791412 1.1297363 -1.0941615
16.571501 -5.8583708 0.69257569
1.8069503 0.97296202 -1.1355588
44.260292 -18.732872 3.1035042
2.1725984 0.79870832 -1.1718163
44.235004 -18.648148 4.2737551
2.5088129 0.64009225 -1.1792784
2.8541822 0.47805142 -1.172565
3.6813571 0.083199739 -1.2650776
4.6072683 -0.35664654 -1.33428
5.7878113 -0.9163208 -1.4043213
9.5973492 -2.7353659 -1.8394237
0.39413881 1.639997 -1.0093104
12.830569 -4.3164163 -1.9949319
0.52026844 1.5788916 -1.0304943
0.64162278 1.5206219 -1.0424803
18.036116 -6.7658787 -1.7042642
0.71563756 1.4866848 -1.0240288
15.926512 -5.7273483 -1.0845768
0.91999269 1.3873614 -1.0635042
15.142536 -5.3269138 -0.62119174
1.0771403 1.3123941 -1.0711617
15.977594 -5.6971216 -0.20908937
1.2291083 1.2405262 -1.0684602
18.670357 -6.9428015 0.28531346
1.4128976 1.1533315 -1.069663
16.434727 -5.8578587 0.69074553
1.7414305 0.99489069 -1.1132338
42.939499 -18.276669 3.0225749
2.1628804 0.79161394 -1.1695331
45.284992 -19.303452 4.3899851
2.4188502 0.67128658 -1.1533302
2.7980742 0.49122512 -1.1581769
3.6676757 0.072529316 -1.2624965
4.6752129 -0.41047931 -1.349582
5.8562527 -0.97455716 -1.4177799
9.7534418 -2.8497262 -1.8651874
0.38421762 1.6396363 -1.0043025
12.860986 -4.3818631 -1.9991568
0.52910602 1.5684257 -1.0365368
0.62472844 1.5228839 -1.034386
18.67551 -7.1441593 -1.7563888
0.69522059 1.4904385 -1.0146548
16.192322 -5.9171295 -1.0980898
0.90566278 1.3872448 -1.0576802
15.130495 -5.3801384 -0.61854804
1.047533 1.3193978 -1.0589824
45.446537 -19.84621 -0.38095167
1.2476277 1.222698 -1.0770428
19.801493 -7.5534763 0.31205764
1.4973066 1.1018258 -1.1029526
1.7476759 0.98140156 -1.1163433
41.704819 -17.852146 2.9470835
2.172051 0.77514732 -1.1734207
45.394402 -19.523285 4.4155169
2.3602507 0.6875329 -1.1366979
2.8466179 0.45301676 -1.1720572
4.5031853 -0.34703279 -1.3131919
5.8092861 -0.97689152 -1.4094832
9.7702103 -2.8973904 -1.8683889
0.41678059 1.6179444 -1.0248898
12.839983 -4.4164982 -1.9964131
0.51281774 1.5715606 -1.0281266
45.655182 -20.397205 -5.2239408
0.6322068 1.5134553 -1.03929
18.720753 -7.2297268 -1.7590237
0.76438987 1.4491932 -1.0505202
16.084423 -5.9204369 -1.0903405
0.91793227 1.3744974 -1.0643668
0.970263 1.3517448 -1.0255144
16.224165 -5.9326563 -0.20487115
1.2949135 1.1911592 -1.0974462
41.891014 -18.215488 0.76052368
1.4636688 1.1104165 -1.0908554
16.180775 -5.856391 0.68731213
1.7219858 0.98513031 -1.1080213
41.532303 -17.907314 2.9455218
2.1267776 0.78727961 -1.1594419
45.514347 -19.729393 4.4404364
2.4026136 0.65521729 -1.1500555
16.121159 -5.7449942 2.0196605
2.8939021 0.41676164 -1.1855347
3.53599 0.10511112 -1.2319279
4.6915903 -0.45820475 -1.3544226
5.627305 -0.90949178 -1.3756328
9.6837997 -2.8899484 -1.8548129
0.38014293 1.6311685 -1.0037768
12.740594 -4.4214458 -1.983078
0.45026767 1.5978169 -0.99342561
0.62639761 1.5097184 -1.0372282
18.805437 -7.3478956 -1.764732
0.76806629 1.440037 -1.0534452
16.038713 -5.9645796 -1.0858724
0.9050653 1.3732618 -1.0593047
19.13928 -7.4461498 -0.73997259
1.058181 1.2986484 -1.0655777
1.28128 1.1888081 -1.0928282
45.399551 -20.077965 0.84160483
1.4176483 1.123861 -1.0741479
15.808996 -5.7439899 0.67474377
1.7075307 0.98149478 -1.1038482
41.836582 -18.218094 2.9803133
2.0773556 0.79971147 -1.1442546
46.020599 -20.151684 4.5059462
2.4819193 0.60171127 -1.1746171
2.7714577 0.46267962 -1.1532578
3.5377381 0.08626008 -1.2331543
4.4051371 -0.33795667 -1.2933744
5.6577778 -0.95068598 -1.3820021
9.7207413 -2.9499888 -1.8613569
0.38438773 1.6237903 -1.0073071
12.862352 -4.5296869 -1.9997532
0.51612329 1.55794 -1.0320617
0.63046968 1.5015984 -1.0403843
18.785658 -7.4067945 -1.7618942
0.77849388 1.4281335 -1.0596931
16.038811 -6.0237293 -1.084246
0.88600075 1.3761747 -1.0511769
19.291389 -7.5904779 -0.74208856
1.0519638 1.2943701 -1.0637357
1.0961552 1.2756943 -1.0169755
18.665577 -7.2202454 0.30153015
1.388989 1.129813 -1.0639926
15.773491 -5.7849979 0.6770829
1.749594 0.95030749 -1.1196767
41.408264 -18.158722 2.9610443
1.9943366 0.83092666 -1.1179572
2.4167452 0.62234247 -1.155982
16.005455 -5.8151283 2.0177648
2.7332578 0.46857977 -1.1436634
3.2556446 0.2122035 -1.1652503
4.5662088 -0.43777561 -1.3288071
5.6751013 -0.98269105 -1.3858378
9.6937103 -2.9738827 -1.8574785
0.41183805 1.6037557 -1.0250068
12.790649 -4.5451622 -1.9902096
0.49170351 1.5648355 -1.0191051
0.61998737 1.5007014 -1.0357544
18.744354 -7.4593506 -1.7572113
0.76285696 1.429369 -1.0527838
18.498198 -7.3051605 -1.2228041
0.94031525 1.3405125 -1.0780451
19.277969 -7.6587486 -0.73885322
1.0802186 1.27174 -1.0773103
15.910839 -5.9687138 -0.1940957
1.2346377 1.1959008 -1.0753803
18.635118 -7.2778587 0.30511788
1.4408896 1.0938549 -1.0849167
16.113419 -6.0131512 0.69715112
1.7081697 0.96108198 -1.1058722
41.167179 -18.197151 2.9558554
1.9129591 0.86119223 -1.0922154
15.518566 -5.6688204 1.5320994
2.3858409 0.62514985 -1.1476219
15.973459 -5.8623562 2.0200162
2.8819337 0.37882185 -1.1847544
3.3487093 0.14897466 -1.1886443
4.5439911 -0.44741392 -1.3247415
5.7058105 -1.0230944 -1.3922582
9.7382355 -3.0359426 -1.8652699
0.3972019 1.6059436 -1.0171672
12.878551 -4.6406903 -2.0023479
0.48624063 1.5618266 -1.017007
15.568151 -5.9690504 -1.9282817
0.59196901 1.5091417 -1.0216401
49.264977 -22.815422 -4.2951689
0.71658421 1.446848 -1.0302901
15.468939 -5.8654137 -1.0483611
0.94876885 1.3285093 -1.0831174
1.0556221 1.2765292 -1.06736
15.902121 -6.0270281 -0.19106176
1.2046163 1.2029036 -1.06389
1.453985 1.0776449 -1.0909284
1.693923 0.95806444 -1.1017383
41.542496 -18.536942 2.9953792
1.8795614 0.86727548 -1.0821595
15.560469 -5.7504501 1.5416887
2.4581165 0.57510376 -1.1701233
15.930618 -5.9042301 2.0209198
2.8432593 0.38392115 -1.1751112
3.3735607 0.11984849 -1.1954648
4.6442814 -0.51930046 -1.3471664
5.5657434 -0.97715878 -1.3663933
9.7259693 -3.0697255 -1.8638625
0.402776 1.5973716 -1.021621
12.734088 -4.6190519 -1.9829724
0.49335885 1.5521119 -1.0221413
15.501036 -5.9967146 -1.9205734
0.58789968 1.5050116 -1.0204697
15.577042 -6.0081253 -1.4914715
0.71553576 1.4406459 -1.0307796
15.278612 -5.8309422 -1.0358973
0.93110752 1.3302304 -1.0757473
15.897457 -6.1147614 -0.62899482
1.0458815 1.2736495 -1.0640291
41.869511 -19.06308 -0.31532457
1.2078857 1.1926249 -1.0662348
18.537903 -7.3749504 0.31150725
1.4552715 1.0674878 -1.0924045
40.81834 -18.403137 1.868932
1.7287161 0.92955422 -1.1151025
15.215361 -5.6681013 1.0862913
1.7303481 0.93374884 -1.0341134
2.4855089 0.54772472 -1.1792377
2.851295 0.36515713 -1.178143
3.5651419 0.0047280788 -1.2429569
4.5327368 -0.48338819 -1.3238151
5.5524426 -0.9950397 -1.364511
9.826479 -3.1609778 -1.8808005
0.40211189 1.5921142 -1.0222927
12.846199 -4.7277074 -1.9984454
0.47687161 1.5550392 -1.0137194
15.492422 -6.0538902 -1.9192871
0.61721635 1.4829807 -1.0374022
15.552345 -6.0574045 -1.4884248
0.63402629 1.477438 -0.9902721
0.86304832 1.3588992 -1.0442923
1.067364 1.2542502 -1.0746518
15.742964 -6.07269 -0.18433031
1.1812499 1.1981084 -1.0561416
18.537376 -7.4474039 0.31571195
1.4531724 1.0590764 -1.0925859
40.820503 -18.559372 1.8796475
1.6181712 0.97706819 -1.0766047
2.1107118 0.72417223 -1.1598284
2.4425051 0.55681634 -1.1672858
2.812676 0.37054062 -1.1685187
3.5408885 -4.3392181e-05 -1.2378715
4.5296421 -0.50271392 -1.3239205
5.4479084 -0.96593547 -1.345365
9.7838955 -3.1796803 -1.8745121
0.40182471 1.5876331 -1.0230128
12.756691 -4.7243915 -1.9865209
0.45454645 1.5622656 -1.0017401
0.59129107 1.4916741 -1.0242189
0.63511825 1.4715054 -0.99165165
0.85902143 1.3550082 -1.0432211
14.82114 -5.6830215 -0.59182048
1.0515804 1.2559998 -1.0684551
15.71155 -6.1083117 -0.18174568
1.2298288 1.1652516 -1.0772105
1.4533904 1.0511066 -1.0934963
15.83077 -6.1141653 0.70035118
1.6957836 0.92771864 -1.1051238
15.056929 -5.6988878 1.0833397
2.1390674 0.69937885 -1.1699542
15.601248 -5.9448347 1.561311
2.5117691 0.5095973 -1.188826
2.8199408 0.35472655 -1.1712098
3.2145121 0.15580416 -1.1588858
4.5314512 -0.52092576 -1.324962
5.6272783 -1.078891 -1.379885
9.7687817 -3.2052422 -1.8725905
0.40099502 1.5821104 -1.0236684
12.773462 -4.7878199 -1.9891124
0.47088468 1.5471673 -1.0122775
42.950485 -20.359924 -4.9199114
0.58544242 1.4881289 -1.0221708
44.226665 -20.945751 -3.8655806
0.65643537 1.4530656 -1.0036087
15.309566 -6.0223131 -1.0330157
0.8770051 1.3375238 -1.0529398
1.0383399 1.2545778 -1.063639
15.615324 -6.1255074 -0.1781899
1.1500278 1.1987633 -1.0450054
15.393318 -5.9855385 0.25509176
1.4409952 1.047598 -1.0897727
40.265656 -18.571373 1.8731859
1.6778822 0.92616117 -1.0997666
15.070377 -5.7693472 1.0893598
2.1458082 0.68297029 -1.1732358
15.668924 -6.0447178 1.5739815
2.3641889 0.5732975 -1.1455534
15.990383 -6.1791153 2.0529542
2.8206024 0.3388598 -1.1723262
3.5364954 -0.03034544 -1.2383952
4.6425848 -0.60136676 -1.3498951
5.672554 -1.1291091 -1.3891943
9.7374735 -3.2319074 -1.8682079
0.41122091 1.571146 -1.0309654
12.966723 -4.9375563 -2.015662
0.50463772 1.5230595 -1.0327725
42.914291 -20.496181 -4.9152508
0.5814693 1.4843266 -1.0210216
21.415131 -9.2736006 -1.9718015
0.66035271 1.4447057 -1.006585
15.392658 -6.1230192 -1.0362104
0.86934161 1.3346838 -1.0502727
14.661213 -5.719409 -0.58261997
1.0565791 1.2371368 -1.0728074
1.1997051 1.1640097 -1.0667028
15.40896 -6.0515356 0.25878778
1.4457245 1.0360695 -1.0925683
16.046648 -6.350625 0.71935946
1.6857061 0.91215014 -1.1035054
15.079323 -5.8307142 1.0945125
1.9785411 0.76079834 -1.1191437
2.4036398 0.54007137 -1.1582898
15.840073 -6.1631041 2.0399566
2.8820291 0.29244161 -1.1898966
3.5264485 -0.041394949 -1.2367556
4.6448469 -0.62281275 -1.351172
9.6817236 -3.2409058 -1.8597863
0.40122199 1.5709808 -1.0259721
12.941798 -4.9772463 -2.0126235
0.50064301 1.5192032 -1.0315793
21.660082 -9.5230532 -2.5921113
0.60896218 1.4628296 -1.0370734
21.343714 -9.3207302 -1.9646249
0.67207837 1.4316227 -1.0136349
15.512808 -6.247427 -1.0413946
0.78387272 1.3739929 -1.010339
14.67623 -5.7862806 -0.58092529
1.0549397 1.2298957 -1.073149
16.034969 -6.4641171 -0.17417535
1.1978633 1.1563396 -1.0669751
40.438087 -19.02705 0.81879318
1.4501817 1.0240639 -1.0953349
40.328457 -18.903915 1.8967578
1.6630089 0.91390061 -1.0963805
14.930326 -5.8148851 1.0882168
1.9806299 0.74808466 -1.1208137
2.461364 0.49595582 -1.1766106
15.626505 -6.1176662 2.0192213
2.8330932 0.30360055 -1.1774869
3.5090601 -0.049531698 -1.2333808
4.0895643 -0.34972191 -1.2315364
5.3806458 -1.0240052 -1.3351896
9.6408033 -3.2598066 -1.8538337
0.40046954 1.5657063 -1.0266439
12.869377 -4.991765 -2.0031555
0.47636461 1.5266501 -1.0186585
21.567078 -9.5596151 -2.5816236
0.60319388 1.4595526 -1.0350425
21.526405 -9.5012903 -1.9785182
0.65339875 1.4352334 -1.0051284
15.527998 -6.317874 -1.0406598
0.87465131 1.3168726 -1.054989
14.533305 -5.7708569 -0.57448614
0.99128199 1.2566733 -1.0456448
15.724899 -6.3668728 -0.16995415
1.2124679 1.1396624 -1.0741425
15.605085 -6.2773323 0.27033916
1.4562533 1.0111148 -1.0987448
15.151447 -6.0154409 0.68468189
1.6906276 0.88845921 -1.1073058
14.864901 -5.8412876 1.0880938
2.0350366 0.70699537 -1.1397513
41.085804 -19.315495 4.1596494
2.4457035 0.4909631 -1.1728915
2.7088969 0.35556245 -1.1445413
3.4330814 -0.026177645 -1.2156663
4.5978699 -0.64095116 -1.3426898
9.6907778 -3.3267999 -1.8627011
0.38446355 1.5693332 -1.0178981
12.940196 -5.0791664 -2.0131485
0.48965549 1.5135599 -1.0274091
21.556976 -9.6347837 -2.5802412
0.56446755 1.4750758 -1.0149647
21.465296 -9.549284 -1.9723117
0.69710934 1.4046501 -1.0285591
15.43845 -6.3296289 -1.0341403
0.81696618 1.3417847 -1.0282872
14.742307 -5.9363871 -0.57874066
0.97358894 1.2589734 -1.0386953
1.192667 1.1423033 -1.0668559
15.550636 -6.3081026 0.27252045
1.4359486 1.0131295 -1.0918568
1.6614735 0.8944428 -1.0978123
16.057966 -6.5183182 1.1820335
2.0153072 0.70656812 -1.1342051
40.944736 -19.391853 4.1588182
2.2978444 0.55863869 -1.1292971
15.523451 -6.1864376 2.0183773
2.6965268 0.34869051 -1.1420231
3.0755246 0.15066028 -1.1288788
4.5411587 -0.63071918 -1.3311913
9.6646242 -3.3511872 -1.8591487
0.3746264 1.5695684 -1.01293
12.949402 -5.1341496 -2.0147922
0.49200392 1.5065286 -1.0298436
41.082657 -20.16029 -4.7128234
0.56676376 1.467813 -1.0172614
21.419941 -9.6054678 -1.9674335
0.70722878 1.39254 -1.034797
15.368368 -6.3512592 -1.0287385
0.82061017 1.3328804 -1.0310612
14.819786 -6.0338478 -0.57902837
1.0014708 1.2360452 -1.0522543
15.916271 -6.587574 -0.16504678
1.1975329 1.1313975 -1.0699095
15.533302 -6.358202 0.2755338
1.3924706 1.0280584 -1.0759468
15.130508 -6.1198692 0.69155037
1.6323726 0.90057838 -1.0883285
40.633144 -19.446495 3.0364475
2.0444424 0.67944705 -1.1448033
40.936012 -19.536705 4.1714144
2.4252059 0.47686017 -1.1686126
16.13896 -6.5657701 2.1031699
2.7268388 0.31860638 -1.1511722
3.4439337 -0.064402819 -1.2200174
4.0717039 -0.39660811 -1.2299503
5.0515757 -0.91693926 -1.2747207
9.6924601 -3.4045534 -1.8644129
0.37079489 1.5661049 -1.0117208
12.892466 -5.1567612 -2.0074923
0.46002138 1.5185915 -1.0124295
21.292093 -9.6588545 -2.5508213
0.5893116 1.4486841 -1.0307164
21.405748 -9.6833429 -1.9650873
0.71394908 1.3818433 -1.0393763
15.340797 -6.3990021 -1.0256482
0.8706634 1.2974305 -1.0562847
15.622021 -6.5225134 -0.60066247
0.98844481 1.2353098 -1.0474824
41.081692 -20.045677 -0.24677637
1.226742 1.1063346 -1.0832661
15.319975 -6.3080826 0.27423805
1.4167075 1.0050743 -1.0864536
15.048517 -6.1380205 0.69171596
1.628103 0.89252436 -1.0878335
40.684139 -19.631508 3.0528438
2.0697975 0.6534574 -1.1542447
15.33189 -6.2346706 1.5726521
2.4332454 0.45900381 -1.1720631
16.099558 -6.6103992 2.1047268
2.76689 0.28205252 -1.1630666
3.4865687 -0.1050241 -1.2314034
4.3447323 -0.56518888 -1.2901795
5.7265072 -1.3072917 -1.4038086
9.7417078 -3.4722681 -1.8732405
0.38837719 1.5503695 -1.0237082
13.032628 -5.2863564 -2.027015
0.41881645 1.5361514 -0.98962021
21.246283 -9.7192945 -2.545614
0.59921229 1.4365647 -1.0372871
21.496572 -9.8181686 -1.9714389
0.70951116 1.3774055 -1.038231
15.353533 -6.4684582 -1.0248272
0.8804065 1.2843685 -1.0621251
1.0159714 1.2117975 -1.0610062
15.848652 -6.6806087 -0.15882328
1.2296319 1.095803 -1.0855985
15.283453 -6.3510132 0.27697459
1.3879662 1.0115314 -1.0763339
15.476196 -6.4272776 0.71711564
1.5688312 0.91515911 -1.0675319
15.79381 -6.5692301 1.177163
2.0631294 0.64504743 -1.1531152
39.745708 -19.225292 4.0783606
2.3515801 0.49077451 -1.1484346
42.449383 -20.586399 5.5057497
2.7727172 0.26406217 -1.1656277
3.462219 -0.10912037 -1.2263656
4.1846228 -0.49803567 -1.2561977
6.4407568 -1.7243886 -1.540555
9.7958698 -3.5431633 -1.882899
0.38602388 1.5459933 -1.0234396
13.008447 -5.3271332 -2.0242183
0.42415261 1.5272315 -0.99385023
42.288094 -21.300922 -4.8433104
0.59809089 1.4306672 -1.0378398
21.562269 -9.9402771 -1.9757298
0.71140265 1.3693635 -1.0403558
15.369513 -6.5399723 -1.0241953
0.84522057 1.2967846 -1.0462816
14.925591 -6.2729044 -0.57569194
1.0142405 1.204648 -1.0613552
15.702021 -6.6661348 -0.15538719
1.2144995 1.0954117 -1.0803615
15.273233 -6.4080191 0.28032112
1.2982485 1.052544 -1.0423964
15.595943 -6.5547552 0.7274074
1.6028595 0.8858012 -1.0808481
15.798584 -6.6361952 1.1826441
1.9977674 0.66951704 -1.1325426
39.610359 -19.308765 4.0785589
2.3950739 0.45326447 -1.1626165
42.416847 -20.735008 5.518425
2.7478793 0.26304364 -1.1598053
3.337002 -0.057131767 -1.1965318
4.2553215 -0.55736446 -1.2724743
5.2419395 -1.0922933 -1.3131646
9.7178488 -3.5419493 -1.8710144
0.36077845 1.5549244 -1.0090421
12.869387 -5.3045049 -2.0058143
0.43254161 1.5164829 -0.99987918
42.121014 -21.375317 -4.824789
0.60007823 1.4229628 -1.0401102
40.500221 -20.415516 -3.5369606
0.68319511 1.3785951 -1.0269595
15.294075 -6.5618143 -1.0184767
0.87731922 1.2708838 -1.0629586
14.901682 -6.3212461 -0.57283854
0.99470377 1.2076555 -1.053663
40.41864 -20.168102 -0.22254255
1.1879582 1.1016029 -1.0703154
15.324343 -6.4983912 0.28512627
1.3059499 1.038936 -1.0464691
15.463713 -6.5471764 0.72515345
1.5802774 0.88816833 -1.0737636
39.889366 -19.681156 3.0300336
1.6329815 0.86327136 -1.0126003
15.176296 -6.3389807 1.5736358
2.3996077 0.43727398 -1.1650463
40.064587 -19.64156 5.2305298
2.7332482 0.25644851 -1.1567832
3.1165235 0.04897213 -1.1432173
4.3549004 -0.63338423 -1.2950881
9.8270082 -3.6438761 -1.889707
0.32672679 1.5698376 -0.98903334
12.891213 -5.3640409 -2.0092559
0.46277845 1.4936253 -1.0185421
41.601501 -21.23436 -4.7678676
0.58673692 1.4248974 -1.033829
40.720524 -20.678204 -3.5533588
0.65222502 1.3904206 -1.0119771
15.325014 -6.6344299 -1.0188764
0.88410556 1.2602205 -1.0672866
14.943777 -6.3985834 -0.57217062
0.98850799 1.2040677 -1.051868
40.443787 -20.322529 -0.21613148
1.1570098 1.1115239 -1.058264
39.98925 -20.006931 0.87844121
1.3633888 0.99794495 -1.0698931
15.387465 -6.5618029 0.72515321
1.5814524 0.87836683 -1.075135
39.704681 -19.719761 3.0268998
1.9717226 0.66182065 -1.1259401
2.307106 0.47766578 -1.1379693
41.676388 -20.649456 5.4541864
2.7583103 0.22927904 -1.1645427
3.316807 -0.077921867 -1.1933436
4.1363306 -0.52947187 -1.24821
5.5586739 -1.3151054 -1.3750482
9.7768927 -3.6530728 -1.8823116
0.31087255 1.5739419 -0.98031825
12.888944 -5.41359 -2.0094717
0.44037426 1.5010412 -1.0065767
41.454617 -21.307529 -4.7516761
0.53894114 1.4466505 -1.0086492
41.001972 -20.986332 -3.5746944
0.65902865 1.380054 -1.016578
15.31916 -6.6907816 -1.0171473
0.82046688 1.2898945 -1.0375577
14.924522 -6.4461393 -0.56958961
0.98049593 1.2010742 -1.0493221
41.173946 -20.875225 -0.21104816
1.1617122 1.1005759 -1.061317
40.014099 -20.169487 0.88756001
1.3941233 0.97130191 -1.0829812
15.591848 -6.7334299 0.73957574
1.5657794 0.87756515 -1.0704859
39.584484 -19.801937 3.029408
2.0337961 0.61519098 -1.1476072
15.06875 -6.3944712 1.5728447
2.2649381 0.48925197 -1.1261772
40.215466 -20.011642 5.2796416
2.7744277 0.20608807 -1.1699288
3.3628414 -0.12003231 -1.2055987
4.1420403 -0.55173779 -1.2503097
5.3180761 -1.2040491 -1.3299475
9.9140253 -3.7694612 -1.9055871
0.317554 1.5641513 -0.98569679
12.773048 -5.4056926 -1.9943069
0.48232877 1.469909 -1.0323758
41.243912 -21.363625 -4.7285609
0.51743436 1.4525373 -0.99803948
41.023186 -21.170654 -3.5743818
0.68907797 1.3551782 -1.0333793
39.906544 -20.478279 -2.3792605
0.85856545 1.2597135 -1.0572942
14.835646 -6.4622908 -0.56475651
0.98173809 1.191776 -1.051116
40.686298 -20.777668 -0.20198777
1.1545651 1.0954076 -1.0595118
15.819698 -6.954752 0.30762815
1.404577 0.95498455 -1.0882912
15.569939 -6.789607 0.74313092
1.6256495 0.83206284 -1.0933297
39.694096 -20.028519 3.0511384
1.9850776 0.63031316 -1.1325946
15.096613 -6.4758253 1.5817639
2.3598096 0.4210391 -1.1560974
40.021801 -20.074543 5.2716131
2.6951134 0.23548961 -1.1492186
3.2497895 -0.073955536 -1.178755
4.1962023 -0.6040225 -1.2631252
6.2306213 -1.7471609 -1.505074
9.9415531 -3.830174 -1.9110954
0.32143462 1.5566137 -0.98922092
12.9123 -5.5352979 -2.0138409
0.44303358 1.4874256 -1.0105206
40.909737 -21.32951 -4.6920328
0.54137194 1.4324126 -1.0123495
41.135307 -21.387634 -3.5818205
0.6580112 1.3669252 -1.0183927
40.571129 -21.001251 -2.4126103
0.85554624 1.2542881 -1.0569627
42.001431 -21.734463 -1.343379
0.97852802 1.1860075 -1.0507636
40.37537 -20.756474 -0.19435003
1.1656857 1.0806311 -1.0653095
15.819687 -7.0164537 0.31115076
1.3745253 0.96328866 -1.0775857
15.540607 -6.8341007 0.74578953
1.5653274 0.85707545 -1.0725188
39.756546 -20.21175 3.067843
1.9936221 0.61405551 -1.1365045
2.3779228 0.39790916 -1.1626382
39.898815 -20.156624 5.2708578
2.7330983 0.19974041 -1.1606426
3.0903804 0.0015158653 -1.1403142
4.1470795 -0.59532547 -1.2532711
6.1901512 -1.7509117 -1.4982625
9.9124355 -3.8539977 -1.9072492
0.34316599 1.5376518 -1.0040011
12.765273 -5.5092168 -1.9944775
0.43574071 1.4853705 -1.0075296
40.505592 -21.272816 -4.647923
0.56023359 1.4143457 -1.024043
41.128918 -21.558182 -3.57932
0.62197065 1.3810339 -1.0009335
40.426758 -21.091347 -2.4007058
0.85213006 1.2481915 -1.0565906
14.824845 -6.5800362 -0.56020045
0.87707114 1.23726 -1.0058589
40.187531 -20.821667 -0.1861923
0.94475818 1.201202 -0.97291315
15.657436 -6.9951315 0.31109932
1.3718326 0.95460939 -1.0777566
40.358673 -20.782948 2.0256884
1.5458376 0.85742486 -1.0666271
39.59763 -20.291264 3.0688691
1.9002087 0.65568292 -1.1065636
39.778122 -20.324963 4.1801586
2.2982502 0.42980146 -1.1395891
39.819778 -20.28141 5.2777977
2.7617424 0.16729069 -1.1696517
3.1457064 -0.04776454 -1.155003
4.042531 -0.55681682 -1.2313921
5.8813572 -1.603754 -1.4402699
9.8759584 -3.8785892 -1.9023341
0.3409121 1.5336573 -1.0037575
12.907143 -5.6417408 -2.0144281
0.46395564 1.4626915 -1.0252489
39.61964 -20.91843 -4.5512576
0.54989147 1.4143951 -1.0194761
39.695866 -20.895027 -3.4597616
0.61771107 1.3772004 -0.99982733
0.83798373 1.2493922 -1.0508542
14.799835 -6.6243629 -0.55749661
0.91721058 1.2061049 -1.025218
40.265385 -21.017418 -0.17943838
1.0999882 1.1017449 -1.0397983
15.622396 -7.0368938 0.31372878
1.2244084 1.0324659 -1.0208441
40.145515 -20.815144 2.0250931
1.5992713 0.81621504 -1.0871063
39.702408 -20.499424 3.0889976
1.9999535 0.58610618 -1.1409276
39.59042 -20.369865 4.1741357
2.2862487 0.42427444 -1.1369798
2.6800561 0.2006588 -1.148139
3.372401 -0.19517398 -1.212011
4.1364822 -0.63021374 -1.2528728
6.070302 -1.7386398 -1.4773326
9.9531164 -3.9634538 -1.9159321
0.34015632 1.5287536 -1.0044546
12.99509 -5.7442818 -2.0270612
0.42634654 1.4796512 -1.0043155
39.253487 -20.857582 -4.5113974
0.53801465 1.4154297 -1.0140555
39.366817 -20.856339 -3.431098
0.68387401 1.3310195 -1.0353945
39.53693 -20.887081 -2.3447876
0.82544053 1.2497157 -1.0458947
41.863274 -22.150349 -1.322618
0.97318649 1.1651675 -1.0518545
40.323368 -21.202854 -0.17262366
1.0561728 1.119684 -1.0222827
15.66201 -7.1209955 0.31823334
1.2598383 1.0028094 -1.0358522
39.995094 -20.881748 2.0276749
1.5687408 0.82428539 -1.077088
39.603096 -20.593472 3.0931964
1.9040332 0.63123333 -1.1099752
39.520805 -20.480339 4.1804981
2.2258947 0.44724917 -1.1196361
41.170025 -21.340431 5.4873943
2.7361896 0.15374351 -1.1646395
3.3349617 -0.18981576 -1.2037297
4.0620213 -0.606148 -1.237469
5.8628292 -1.6444931 -1.43856
9.9202623 -3.9852185 -1.9115338
0.327335 1.5312145 -0.99763256
12.991576 -5.7944479 -2.0272508
0.41477537 1.481004 -0.9986676
38.894848 -20.798908 -4.4724054
0.53233194 1.4127694 -1.0120655
39.007198 -20.798058 -3.3999851
0.67792392 1.3279692 -1.0334643
15.412012 -7.1208735 -1.0136987
0.82397044 1.2434272 -1.0463414
42.439644 -22.640774 -1.3335304
1.0034201 1.139266 -1.0668104
40.153355 -21.258469 -0.16544726
1.1043246 1.0827948 -1.0438542
15.675243 -7.1905165 0.32209229
1.3780596 0.92338955 -1.0835609
39.887997 -20.972485 2.0324759
1.5956655 0.79832244 -1.0879867
39.630177 -20.75919 3.1073542
1.9471931 0.59443617 -1.1255034
39.409294 -20.567062 4.1824455
2.3154969 0.38184166 -1.1480259
41.113014 -21.464188 5.4959502
2.6496766 0.19056964 -1.1417688
3.1357639 -0.089030504 -1.1553571
4.0792465 -0.63540554 -1.2421751
5.1177578 -1.2343168 -1.2967429
9.8873625 -4.0068593 -1.9071445
0.31303275 1.5346663 -0.98987514
13.152454 -5.9409904 -2.0498931
0.43673849 1.4618675 -1.0127831
38.815414 -20.901024 -4.4639516
0.52047849 1.413904 -1.0066515
38.908562 -20.889484 -3.3903685
0.67509103 1.3230456 -1.0331646
15.402866 -7.1768322 -1.0118533
0.80828488 1.2457571 -1.0398448
42.49453 -22.834034 -1.3296595
0.97775698 1.1469363 -1.0562555
39.877716 -21.252293 -0.15818694
1.1136804 1.0689217 -1.0489641
15.750607 -7.2960815 0.32755703
1.2929277 0.96532762 -1.051085
39.993855 -21.185108 2.0484097
1.6142852 0.77710807 -1.095891
39.506012 -20.838963 3.1095991
1.9934785 0.55541766 -1.1421221
39.759449 -20.916897 4.233386
2.2302735 0.41989279 -1.1230819
40.732765 -21.404007 5.4615297
2.7540963 0.11457586 -1.1716722
3.2333381 -0.16259074 -1.180524
3.9812901 -0.59682298 -1.2216015
5.1333256 -1.2666056 -1.3005824
9.9159069 -4.0644531 -1.9128523
0.31498766 1.5274782 -0.9924258
12.958969 -5.8866663 -2.0242963
0.46285999 1.4392463 -1.029552
38.605797 -20.94508 -4.4413671
0.551422 1.3880205 -1.0251817
38.879086 -21.039856 -3.3862906
0.67655885 1.3146505 -1.0352707
38.978687 -21.031982 -2.3038383
0.82215929 1.2292242 -1.0479668
42.406845 -22.96545 -1.3211215
0.89605868 1.1879467 -1.0201764
39.834503 -21.398693 -0.15042046
1.1016512 1.0668958 -1.0451198
1.3534296 0.91861451 -1.0762651
39.409023 -21.018845 2.0293608
1.5178611 0.82388079 -1.0619571
39.42709 -20.963249 3.1169257
2.0224721 0.52494979 -1.1531351
39.702492 -21.054939 4.2430148
2.2707 0.38162732 -1.1366553
40.432686 -21.406765 5.439599
2.6402566 0.1664753 -1.1413497
3.9619596 -0.60666943 -1.2184082
10.003349 -4.1623883 -1.9283913
0.33353817 1.5102377 -1.0053202
13.122625 -6.0397329 -2.0474305
0.44044232 1.4469104 -1.0176038
38.213524 -20.870651 -4.3988724
0.56088138 1.3755479 -1.031734
38.846237 -21.179302 -3.3820739
0.6766175 1.3075019 -1.0365807
38.966381 -21.183914 -2.2997527
0.80313933 1.2332342 -1.0399134
42.374893 -23.119419 -1.3145053
0.90850878 1.1723292 -1.0270991
40.024471 -21.672371 -0.14330891
1.0641978 1.0809922 -1.0303488
39.587608 -21.349773 0.95776653
1.2634645 0.963642 -1.0418763
39.446114 -21.201092 2.0423141
1.5688279 0.78246069 -1.0817685
39.329456 -21.067242 3.1220131
1.8905022 0.59243548 -1.1100661
39.563034 -21.135906 4.2429872
2.2384038 0.38768959 -1.1279389
40.765217 -21.76326 5.5012145
2.7271681 0.099223614 -1.1665547
3.1409104 -0.14256668 -1.1597512
3.9414403 -0.61454344 -1.2149032
5.2739811 -1.4015682 -1.3295199
9.9621019 -4.182003 -1.9227655
0.31788886 1.5149615 -0.99664479
0.4032315 1.4646969 -0.99672145
37.859104 -20.797855 -4.3605118
0.56295323 1.3683696 -1.0340395
38.718197 -21.243706 -3.3702664
0.67235637 1.3038523 -1.0354872
38.930809 -21.303669 -2.2948213
0.80337572 1.2263488 -1.0411549
0.96728206 1.1289712 -1.0551641
41.234989 -22.529766 -0.13778856
1.0704999 1.0694616 -1.0341134
39.585575 -21.491436 0.96580172
1.2630873 0.95551717 -1.0427839
39.383938 -21.30698 2.0487413
1.5794137 0.76656127 -1.0867132
39.34153 -21.216133 3.1343572
1.9909997 0.52063978 -1.1449101
39.271759 -21.108875 4.224894
2.3159792 0.32877755 -1.1527505
40.568665 -21.795883 5.490098
2.6331069 0.14269924 -1.1414748
3.17294 -0.17686772 -1.1686623
4.0162268 -0.67735505 -1.2322747
5.7125454 -1.6874151 -1.4146708
10.033533 -4.2637281 -1.93554
0.31677365 1.5096052 -0.9973157
0.39743912 1.4619199 -0.99464351
37.49168 -20.742477 -4.3208523
0.55989206 1.3631903 -1.0337254
38.781563 -21.45018 -3.3739405
0.67684019 1.2934886 -1.0392188
0.7904706 1.2262725 -1.0361726
0.98088241 1.1117153 -1.0627751
41.122238 -22.641914 -0.12972906
1.0601077 1.0666503 -1.0309668
39.176403 -21.421383 0.96466684
1.2942045 0.92625105 -1.0564169
39.217766 -21.380032 2.0515573
1.5972362 0.74419367 -1.0945489
39.485008 -21.471378 3.1596103
1.9787443 0.51501548 -1.1421191
39.121361 -21.191128 4.2244372
2.3443365 0.29691124 -1.1627394
40.553146 -21.962696 5.50634
2.7342045 0.06517148 -1.1707644
3.1700661 -0.19326305 -1.1691017
4.0219049 -0.70251155 -1.2346395
5.7016525 -1.7097225 -1.4137046
9.9824429 -4.2801108 -1.9284083
0.32338655 1.5000038 -1.0027081
12.673912 -5.9322367 -1.9885172
0.40554631 1.4510827 -1.0006702
37.151669 -20.683052 -4.2841783
0.55104077 1.3624531 -1.0300261
0.67391181 1.2885677 -1.0389205
0.78578997 1.2220153 -1.035085
0.97113109 1.109898 -1.059517
41.124432 -22.802498 -0.12263825
1.0453777 1.0676183 -1.0258173
39.077019 -21.514099 0.9705888
1.3884504 0.85863161 -1.0950381
39.161247 -21.498455 2.0589161
1.5538263 0.76083481 -1.0798002
39.481247 -21.622078 3.171591
1.9114974 0.54485202 -1.1206547
39.148964 -21.358929 4.2414145
2.2958083 0.31372404 -1.1489995
2.7743123 0.02602458 -1.1830332
3.2030561 -0.22962785 -1.1783665
4.0503502 -0.73926115 -1.2419214
5.572403 -1.656796 -1.3898435
10.04539 -4.3602214 -1.9399198
0.32385671 1.493916 -1.0043309
13.572412 -6.5351677 -2.1122956
0.3546418 1.4773891 -0.97171211
36.801491 -20.624386 -4.24647
0.52981412 1.3692245 -1.0194734
0.64762235 1.2980051 -1.026413
0.70284307 1.2666905 -0.99548519
0.86180079 1.1702558 -1.010446
41.138775 -22.980957 -0.11509874
1.0304451 1.0682875 -1.02065
39.072704 -21.673061 0.97959125
1.3470993 0.87440169 -1.079887
40.688137 -22.572918 2.1524544
1.4859455 0.79239798 -1.0561081
39.445263 -21.763691 3.181783
1.9421067 0.51364982 -1.132238
2.2782969 0.31084514 -1.1448519
40.548653 -22.284111 5.5395947
2.6416371 0.092338085 -1.1473123
