# .PCD v0.7 - Point Cloud Data file format
VERSION 0.7
FIELDS x y z
SIZE 4 4 4
TYPE F F F
COUNT 1 1 1
WIDTH 1487
HEIGHT 1
VIEWPOINT 0 0 0 1 0 0 0
POINTS 1487
DATA ascii
6.0025625 -5.4107847 -0.39473164
1.1479996 -0.08525224 -1.1436244
6.3492727 -5.7841301 -0.16921546
1.2819283 -0.23334426 -1.1517047
14.783446 -15.065395 0.4232415
1.4575921 -0.4279241 -1.1706598
15.078209 -15.368284 0.97168946
1.5890322 -0.5723967 -1.1572754
6.5983582 -6.029089 0.56442374
1.7301748 -0.72737986 -1.1391011
7.9457932 -7.4976826 1.0072268
1.9727955 -0.99549687 -1.1497822
14.993065 -15.20914 2.573894
2.1533718 -1.1936175 -1.1225991
6.5311985 -5.9256086 1.2863067
2.1568198 -1.1935819 -1.0282438
36.362259 -38.523052 9.0254726
2.1562052 -1.1890224 -0.93287021
36.423466 -38.536983 10.342558
2.1684556 -1.198851 -0.84225422
36.513577 -38.581841 11.683146
4.7256842 -4.0375061 -1.2668222
36.580357 -38.600147 13.043291
0.68854356 0.41549218 -1.1242218
13.849111 -14.246499 -2.6105371
0.72448528 0.37661159 -1.0996846
1.667195 -0.64491963 -0.49875522
0.827191 0.26179969 -1.1208633
2.0405173 -1.0575831 -0.46093103
0.89378017 0.18834315 -1.1104132
1.0281641 0.038152099 -1.1373056
6.1740532 -5.6412277 -0.39919016
1.1431317 -0.089652732 -1.1434454
6.2332659 -5.6975813 -0.16916551
1.289117 -0.25222546 -1.1582528
14.816901 -15.196847 0.42837825
1.4027083 -0.37775159 -1.1458737
15.089288 -15.476735 0.97799075
1.5536338 -0.54510933 -1.143572
6.6261482 -6.1034374 0.57075602
1.7976406 -0.81691957 -1.1702536
14.551641 -14.839469 1.9814428
2.0271685 -1.071705 -1.1733264
15.216208 -15.550673 2.6248269
2.2166517 -1.2808706 -1.1471167
6.4963379 -5.9304399 1.2842159
2.1527498 -1.2051809 -1.0291678
36.215355 -38.589394 9.0212898
36.283035 -38.610977 10.339144
36.363697 -38.646187 11.67586
36.436913 -38.672131 13.037136
0.69648033 0.39881837 -1.1333824
13.754598 -14.235233 -2.6008482
0.73834193 0.35292628 -1.1128641
1.6576006 -0.64818335 -0.4981513
0.82065785 0.26080135 -1.1190202
2.0163939 -1.0470613 -0.45908275
0.88700026 0.18717434 -1.1086462
6.1044874 -5.6166553 -0.62552816
1.0014153 0.058873557 -1.123437
6.2509651 -5.771059 -0.40106919
1.1342504 -0.090104431 -1.1411031
6.1325312 -5.6294613 -0.16897126
1.2710217 -0.243173 -1.1513052
1.3903973 -0.3760547 -1.1425037
13.685866 -14.017685 0.87510353
1.5685867 -0.57537639 -1.1532903
6.5894995 -6.1095591 0.57010823
1.7877533 -0.82062709 -1.1689039
35.881477 -38.56691 6.404038
2.3021843 -1.3952382 -1.1797167
6.4853601 -5.9642525 1.2876476
36.062534 -38.663101 9.0176725
36.127396 -38.68219 10.333678
3.8348131 -3.1084757 -1.2444668
36.21838 -38.729473 11.672629
4.7363548 -4.1159353 -1.2744685
36.284851 -38.748669 13.030744
0.68904167 0.39929742 -1.1304508
13.652238 -14.220055 -2.5901928
0.76005572 0.31946102 -1.1322446
1.6396669 -0.64283085 -0.49648261
0.78655916 0.29108828 -1.0977138
2.0011468 -1.0472989 -0.45812604
0.88357091 0.18165632 -1.1092825
6.1133871 -5.6730089 -0.62667483
0.93079263 0.1297123 -1.0821834
6.2288227 -5.7935152 -0.40025684
1.1545193 -0.1245617 -1.1559712
6.1187706 -5.6605225 -0.16806427
1.2712394 -0.255602 -1.154459
14.101234 -14.60329 0.40582359
1.379004 -0.37604976 -1.1397536
13.606992 -14.029214 0.8746174
1.5804665 -0.60322505 -1.1618197
6.5475111 -6.1122971 0.56905252
1.7571177 -0.80152321 -1.1588842
14.602315 -15.101376 2.0077372
1.9439995 -1.0109478 -1.1469358
35.728588 -38.652889 6.4040427
2.075155 -1.1564945 -1.1031897
35.801739 -38.682896 7.6948075
2.1597805 -1.2488393 -1.0362339
35.902409 -38.742645 9.0142813
2.1515026 -1.2355586 -0.93769342
35.97892 -38.775299 10.332629
2.1624107 -1.2441075 -0.8460266
36.052578 -38.804192 11.665372
2.1719024 -1.2510539 -0.75411385
36.121563 -38.826771 13.023161
0.68343157 0.39905259 -1.1284742
0.73782223 0.33806378 -1.1179174
1.6309119 -0.64527601 -0.49591303
0.76994222 0.30299163 -1.0882815
1.9900002 -1.0491878 -0.45748168
0.87370884 0.18514495 -1.1051263
6.0954514 -5.6916113 -0.62606663
0.91467023 0.14013153 -1.0744355
14.766521 -15.482648 -0.63081491
1.1425136 -0.12024327 -1.1515
5.9827681 -5.5459166 -0.16830511
1.2155982 -0.20176397 -1.1266524
1.3587271 -0.36359271 -1.1320072
13.573599 -14.074891 0.87672192
1.5657566 -0.59838545 -1.1575104
6.5110197 -6.1126947 0.56799036
1.7570106 -0.81449354 -1.1613575
2.000747 -1.0901148 -1.1714716
14.968705 -15.580135 2.6128592
2.1344919 -1.2393099 -1.1263585
35.661945 -38.740883 7.6914186
2.1405413 -1.2423489 -1.0323129
35.767597 -38.806984 9.0110903
2.1400049 -1.2378737 -0.93634254
35.840008 -38.835651 10.327345
2.1469498 -1.2419866 -0.84387082
35.923946 -38.876587 11.662421
2.1550682 -1.247447 -0.75196469
35.990162 -38.896664 13.018544
0.68106329 0.39459822 -1.1292785
0.72596234 0.34432694 -1.1115739
1.6151836 -0.64056057 -0.49445552
0.81456286 0.24326831 -1.1228178
1.9704831 -1.0424603 -0.45605031
0.86600447 0.18567054 -1.1025693
6.0669336 -5.700799 -0.62484127
1.002175 0.029861331 -1.1320691
1.0765705 -0.053947598 -1.1154637
5.899045 -5.4917822 -0.1680999
1.2571812 -0.26050434 -1.1520677
14.308928 -15.017529 0.42186382
1.3741932 -0.39298767 -1.1425076
1.5444294 -0.5866034 -1.1502625
6.4916954 -6.1350842 0.56907213
1.7400125 -0.8089537 -1.1567864
14.608229 -15.292855 2.0255723
1.8660094 -0.95060933 -1.121641
2.1174452 -1.236167 -1.1229175
35.522827 -38.813595 7.6899905
2.1247058 -1.2406564 -1.0295933
14.633209 -15.256354 3.6379743
2.1254191 -1.2376325 -0.93425721
35.685993 -38.893066 10.320011
2.1310084 -1.2402537 -0.84170008
35.773682 -38.938923 11.655008
2.1521103 -1.2606361 -0.75274432
35.84108 -38.960915 13.010386
0.68305069 0.38455939 -1.133791
2.148809 -1.2707531 -0.65933019
0.70694083 0.35863036 -1.099901
1.6056378 -0.6436395 -0.4938612
0.81389171 0.235443 -1.1252064
1.9531732 -1.0390689 -0.45486346
0.85805631 0.18600358 -1.1000051
6.0647402 -5.7426119 -0.62529647
0.9780885 0.048097912 -1.1197351
14.564863 -15.452394 -0.62453908
1.0897175 -0.079670593 -1.1260402
5.8829479 -5.5165625 -0.16730238
1.2527168 -0.26693022 -1.1525408
14.219674 -15.016078 0.42188823
1.3817236 -0.41416362 -1.1492155
13.631148 -14.324937 0.89171296
1.5377703 -0.59245062 -1.1500275
6.4406462 -6.1241693 0.56674063
1.7276655 -0.80954528 -1.1543658
14.801992 -15.615361 2.0639925
1.9697112 -1.0864624 -1.1649657
15.108282 -15.941291 2.6609001
2.105032 -1.2392875 -1.1212634
35.375126 -38.890598 7.6884975
2.1109591 -1.2423022 -1.0276695
14.6436 -15.370552 3.6555281
2.1129277 -1.2407453 -0.93287539
15.53128 -16.352318 4.458715
2.1171799 -1.2418811 -0.84014142
35.630424 -39.023102 11.652513
2.134285 -1.2578255 -0.75056422
35.683434 -39.029488 13.001979
0.68178022 0.37874845 -1.1355234
2.1405544 -1.2779602 -0.65904135
0.72069138 0.33494729 -1.1130818
1.5912788 -0.64030623 -0.49258432
0.81108725 0.23058969 -1.1259127
1.9442241 -1.0442309 -0.45446759
0.84325737 0.19496609 -1.0926334
6.0413799 -5.7577019 -0.62440729
0.92320877 0.1033203 -1.0876555
1.1405954 -0.14925654 -1.1588485
5.8864021 -5.5613289 -0.16639711
1.2167645 -0.23582253 -1.1355177
14.377831 -15.291999 0.43254256
1.3759371 -0.41921523 -1.149013
14.143111 -15.00214 0.93745393
1.5302427 -0.59648317 -1.1492227
6.3976517 -6.1193438 0.56510246
1.7120018 -0.80532795 -1.1503415
14.877789 -15.800189 2.0844183
1.9304914 -1.0563987 -1.1523154
2.0702569 -1.2153237 -1.1115255
35.234455 -38.960854 7.6867228
2.1092315 -1.2568079 -1.0294095
14.509431 -15.314937 3.6350842
2.107368 -1.250821 -0.9333092
15.447701 -16.360117 4.4509783
2.1141977 -1.2549734 -0.84110928
35.482567 -39.087326 11.645892
2.1247845 -1.2634869 -0.7500096
35.531631 -39.089775 12.992815
0.6857388 0.36576921 -1.141885
2.136426 -1.2920692 -0.65960103
0.72807658 0.3176254 -1.1218078
1.5826399 -0.64516419 -0.49215505
0.78789186 0.2488568 -1.112233
1.9290937 -1.0441464 -0.45352736
0.83391994 0.19656327 -1.0892618
6.0258265 -5.7870741 -0.62408513
0.9780724 0.028466113 -1.1254807
16.004625 -17.324812 -0.66248536
1.1300881 -0.14848626 -1.1557841
6.4799147 -6.2935085 -0.16032197
1.2095921 -0.23955363 -1.1346377
14.333473 -15.349024 0.43480557
1.3804754 -0.43789765 -1.1544477
1.5243981 -0.60408694 -1.1495615
6.383378 -6.1528549 0.56716603
1.7030125 -0.81057841 -1.1495322
14.926849 -15.968411 2.1021199
1.8879992 -1.0240012 -1.1386505
2.0878067 -1.2542752 -1.1206635
35.076691 -39.040096 7.6848383
2.1064184 -1.2722157 -1.0311145
2.1071525 -1.2692444 -0.93550241
15.378483 -16.396791 4.4495473
2.1152792 -1.2749567 -0.84329408
35.31501 -39.157719 11.638041
2.1219912 -1.2790322 -0.75102437
35.38192 -39.181087 12.990262
0.68076485 0.36381853 -1.1408246
2.1327579 -1.305732 -0.66017967
0.71833807 0.32106072 -1.1172361
1.5679218 -0.6420725 -0.49086985
0.78952831 0.23830114 -1.1163145
1.9092708 -1.0375227 -0.45209432
0.83546382 0.18580095 -1.0931261
1.0065838 -0.015344918 -1.1465873
14.968346 -16.232761 -0.6341958
1.1211188 -0.14882557 -1.1534499
6.4405069 -6.2958002 -0.15964122
1.2488971 -0.29766849 -1.1593487
13.866619 -14.909513 0.41801
1.3779324 -0.4476116 -1.1561203
14.015723 -15.062174 0.93901432
1.5325103 -0.6273973 -1.1563474
6.3560095 -6.1685581 0.5675205
1.708135 -0.83158785 -1.154682
14.495296 -15.575811 2.0464983
1.8800398 -1.0308661 -1.1383772
2.0879927 -1.2721281 -1.1235144
34.928581 -39.115578 7.6832533
2.105319 -1.2886822 -1.0332419
14.366508 -15.362976 3.6289926
2.1073606 -1.2872522 -0.93771273
35.083298 -39.19112 10.303931
2.1167786 -1.2945313 -0.845496
35.163567 -39.231548 11.63289
2.1157842 -1.2896199 -0.75125653
35.230339 -39.255367 12.984115
0.67488319 0.36344135 -1.1388444
2.1321304 -1.32198 -0.66121715
0.72148299 0.30959049 -1.1224291
1.5588127 -0.64463258 -0.4902986
0.79368728 0.22515339 -1.122094
1.8912784 -1.0319166 -0.45081002
0.82899386 0.1850794 -1.0913804
15.061908 -16.465796 -1.1916015
1.0102216 -0.029284798 -1.1517448
1.1100776 -0.14599481 -1.1496953
14.712811 -16.013527 -0.085412122
1.2434372 -0.30234954 -1.1591628
13.662791 -14.765633 0.41254601
1.3915968 -0.47590917 -1.1659809
13.86993 -14.987229 0.93266535
1.5212051 -0.62701434 -1.1537912
6.3235025 -6.1754179 0.56706774
1.7111119 -0.84932894 -1.1587652
14.604951 -15.801624 2.0722556
1.8600354 -1.0224937 -1.1331726
15.369246 -16.668352 2.7565699
2.0810659 -1.2806348 -1.1236857
14.978497 -16.192144 3.2393193
14.414835 -15.516331 3.6558266
14.086812 -15.114992 4.1006799
3.5866182 -3.0448494 -1.2070841
35.023159 -39.303043 11.628739
35.08083 -39.316982 12.975805
0.66223222 0.37127724 -1.1312952
12.937695 -14.12248 -2.5173669
0.7177127 0.30637637 -1.1223017
1.5458438 -0.64259928 -0.489207
0.79778403 0.21197218 -1.1278716
1.8784969 -1.0323231 -0.45004079
0.81550443 0.19283576 -1.0848206
14.957035 -16.444912 -1.1864823
0.97237253 0.0065189563 -1.1303203
14.875958 -16.327538 -0.63100129
1.095476 -0.13881354 -1.1437937
14.783809 -16.197409 -0.082653113
1.3953804 -0.49264228 -1.1708078
13.764832 -14.95872 0.92953366
1.503778 -0.61925066 -1.1483155
6.2987747 -6.1912546 0.56751454
1.6323805 -0.76968056 -1.1272153
1.8811954 -1.0630217 -1.1442972
15.245199 -16.628019 2.7446694
2.0665896 -1.2801719 -1.1211593
15.110794 -16.448616 3.2821803
2.533864 -1.8319451 -1.1753906
14.509903 -15.725448 3.6951036
14.086488 -15.210712 4.1164117
34.878777 -39.369652 11.623281
34.942669 -39.391357 12.971715
0.65841061 0.36803773 -1.1311671
12.847642 -14.110214 -2.5083184
0.72623432 0.28775039 -1.1319183
1.5337768 -0.64237958 -0.48827851
0.78656799 0.21672247 -1.1226598
1.8639691 -1.0315552 -0.44913054
0.81581259 0.18349174 -1.0878835
14.847952 -16.424732 -1.1811981
0.95449519 0.018044094 -1.1218021
14.810923 -16.359066 -0.62889665
1.086569 -0.13901964 -1.1414664
14.533133 -16.00876 -0.082676589
1.1539706 -0.21773186 -1.1150554
13.797506 -15.118155 0.42617694
1.3792976 -0.48636347 -1.1655658
13.688083 -14.96879 0.92899555
1.4603256 -0.58086193 -1.1305605
6.2790785 -6.2157955 0.5687595
1.6991229 -0.86457443 -1.1593573
14.161827 -15.486105 2.0232582
1.8830514 -1.0817716 -1.1479831
2.0516233 -1.2800848 -1.1186194
14.420016 -15.74746 3.1401939
2.7006667 -2.0525987 -1.2320259
14.525327 -15.849366 3.7146759
14.024108 -15.240431 4.1146841
3.6026697 -3.1193545 -1.216795
34.725746 -39.44043 11.617611
34.789516 -39.462605 12.965006
0.65031725 0.37048399 -1.1273347
12.771976 -14.108984 -2.5013609
0.72126734 0.28590921 -1.1309048
1.5221347 -0.64176905 -0.48736563
0.77908832 0.21753134 -1.1199918
1.8486583 -1.0287966 -0.44811159
0.80819482 0.18425927 -1.0853394
14.742267 -16.401419 -1.1760417
0.97694749 -0.018684033 -1.1391122
1.0874863 -0.15045668 -1.1448797
14.254582 -15.777959 -0.083156809
1.2254373 -0.31513831 -1.1579262
13.785183 -15.19913 0.42932889
1.2862444 -0.38601065 -1.1201249
13.636197 -15.00207 0.93013132
1.4723573 -0.60824227 -1.1391149
6.2593937 -6.2375946 0.56980276
1.66874 -0.84232903 -1.1488706
14.094207 -15.504052 2.0218987
1.8568447 -1.0658435 -1.1403116
14.23487 -15.64959 2.5761504
2.0446584 -1.2885016 -1.1187959
2.7203751 -2.0974667 -1.2413774
14.388993 -15.788928 3.6934609
2.9964676 -2.4243603 -1.1990591
14.026917 -15.340755 4.1315594
3.6551118 -3.2094934 -1.2325932
34.584965 -39.510529 11.613378
34.648575 -39.533073 12.959918
0.6518544 0.36021712 -1.1318405
12.675716 -14.09367 -2.4916005
0.71921659 0.27951372 -1.1325346
1.5109708 -0.64332229 -0.48660257
0.78372049 0.20249374 -1.1265973
1.824771 -1.0175602 -0.44630027
0.80818731 0.17469424 -1.0883952
14.638225 -16.39212 -1.1711849
0.97401994 -0.025963396 -1.140456
14.629438 -16.360044 -0.6233561
1.0794374 -0.15232684 -1.1432604
13.993229 -15.576847 -0.083293296
1.2252103 -0.32761297 -1.1610837
13.985884 -15.547356 0.44273919
1.3653569 -0.49559438 -1.1645159
1.4530894 -0.59942967 -1.1330401
13.841439 -15.33392 1.4705108
1.609482 -0.78645515 -1.1259543
14.138256 -15.667048 2.0389504
1.8113112 -1.0281456 -1.1252012
2.0378771 -1.2992662 -1.1193881
14.603095 -16.177731 3.2092624
2.0623312 -1.3251059 -1.0318004
14.447649 -15.971257 3.7255754
3.0426033 -2.5063541 -1.2154586
14.051063 -15.4793 4.1570411
3.6032972 -3.1781669 -1.2230362
34.424442 -39.586384 11.607885
4.4867058 -4.2375498 -1.2578321
34.486591 -39.607933 12.952912
0.6459986 0.359952 -1.1298666
12.586399 -14.074912 -2.4822588
0.70408165 0.29024106 -1.1235476
1.5006317 -0.64415336 -0.48586828
0.77394247 0.20614751 -1.1222429
1.8108267 -1.0161858 -0.44541612
0.81211823 0.16127932 -1.093873
14.575095 -16.41868 -1.1687313
0.90511316 0.049086023 -1.0985593
14.62885 -16.462013 -0.62304026
1.0814549 -0.16522676 -1.1473898
14.031838 -15.721663 -0.080881074
1.1684874 -0.26945105 -1.1319939
1.3461362 -0.48441935 -1.1574101
13.896895 -15.518159 0.9631207
1.486734 -0.65355593 -1.1521009
13.704214 -15.266526 1.4614578
1.668522 -0.87262183 -1.1548541
13.828001 -15.394492 1.9999044
1.7988924 -1.0283976 -1.1229788
13.582296 -15.079947 2.474237
2.0271425 -1.3031324 -1.1182199
14.471365 -16.122618 3.1923294
14.253363 -15.840566 3.6888433
3.0359871 -2.5221045 -1.2165102
14.062935 -15.59204 4.1769805
3.6613936 -3.2763176 -1.2403815
34.288456 -39.661484 11.605301
34.347916 -39.680393 12.948708
0.6368202 0.36385283 -1.1251104
12.50234 -14.061922 -2.4738159
0.70812809 0.27729848 -1.1296257
1.4877732 -0.64186525 -0.48478931
0.76077968 0.2140791 -1.1153576
1.7931037 -1.0101281 -0.44415331
0.82289219 0.13927871 -1.1041615
14.556413 -16.498997 -1.1691048
0.83778816 0.12306397 -1.0574365
14.615095 -16.548687 -0.62238342
1.0446343 -0.13025181 -1.1279013
14.06212 -15.857574 -0.078533493
1.2081804 -0.32951143 -1.1573609
14.309587 -16.136049 0.46540487
1.3234005 -0.46873128 -1.148425
1.4428759 -0.61288255 -1.1337963
13.64257 -15.289083 1.4613333
1.6444373 -0.85755861 -1.1470762
13.647743 -15.275021 1.9808314
1.7938356 -1.0376149 -1.1237233
13.422123 -14.983207 2.4540081
2.020103 -1.3114899 -1.1184006
14.502037 -16.261637 3.2125549
2.4818523 -1.8729646 -1.1733115
14.203767 -15.881631 3.6904516
2.9894438 -2.4891083 -1.2061175
14.068001 -15.69743 4.1950111
3.6726685 -3.3182788 -1.2461735
14.434623 -16.115294 4.8652024
4.2702875 -4.0410843 -1.2179258
34.210388 -39.753899 12.944949
0.62656271 0.3691785 -1.1194284
12.418447 -14.048588 -2.4653878
0.70987236 0.26712292 -1.1339314
1.4762027 -0.64106596 -0.48388636
0.74993652 0.21924251 -1.1101632
1.7804868 -1.0101734 -0.44340211
0.83126152 0.12006544 -1.1128445
14.546263 -16.590193 -1.1700431
0.91233397 0.02145494 -1.1088904
14.598443 -16.632338 -0.62166029
1.0700887 -0.17218816 -1.1463451
14.640041 -16.661509 -0.070766583
1.2109073 -0.34434417 -1.1618873
13.782328 -15.5965 0.44472203
1.2661738 -0.41008517 -1.1212376
13.229095 -14.904025 0.91870141
1.4762163 -0.66719937 -1.15285
13.495935 -15.208317 1.4510154
1.6325663 -0.85735136 -1.1446943
13.819094 -15.579908 2.016716
1.8009491 -1.0618832 -1.1294075
2.0081255 -1.3137778 -1.1167872
14.510601 -16.375046 3.2278476
2.3558955 -1.7381564 -1.1350718
14.409274 -16.230812 3.7604313
2.9493186 -2.4635191 -1.1975224
13.943549 -15.647322 4.1736455
3.6213667 -3.2837431 -1.2363734
14.372834 -16.143372 4.8629785
4.9195213 -4.8699656 -1.3585807
34.061523 -39.813515 12.936901
0.62075251 0.36900175 -1.1174583
12.338481 -14.039549 -2.4576349
0.69704914 0.27516347 -1.1267205
1.4696778 -0.64640766 -0.48367816
0.75269371 0.20744146 -1.115098
1.771665 -1.0148149 -0.44303405
0.81095463 0.13659143 -1.1014841
14.533188 -16.678364 -1.1708213
0.90775651 0.017708581 -1.1087439
14.544772 -16.671103 -0.61996084
1.0754822 -0.1894941 -1.1526206
14.633003 -16.75773 -0.068685673
1.2053171 -0.34891993 -1.1617091
13.663058 -15.549446 0.44293985
1.3186413 -0.48737782 -1.1518103
13.099054 -14.840129 0.91320521
1.4625323 -0.6635673 -1.1491424
13.380192 -15.163893 1.4443178
1.6231267 -0.86010033 -1.1433923
13.548328 -15.348896 1.9832996
1.6863376 -0.9352994 -1.0857147
13.521985 -15.296706 2.4947252
1.9496452 -1.2583811 -1.0981277
14.350232 -16.283844 3.2041769
2.1851561 -1.5462964 -1.0819368
2.8833709 -2.4056108 -1.18143
13.88566 -15.676944 4.1725368
3.6635303 -3.3641157 -1.2499572
14.19536 -16.031137 4.8209291
4.5667706 -4.4721861 -1.286788
33.923744 -39.886112 12.93309
0.62131625 0.36032313 -1.1210464
12.248454 -14.023098 -2.4484982
0.6818133 0.285882 -1.117734
1.4527124 -0.63966203 -0.4820745
0.74838358 0.20393394 -1.1149622
1.7397704 -0.99187648 -0.44037223
0.80529255 0.13434614 -1.1005398
14.520312 -16.773859 -1.1717404
0.88791406 0.032576445 -1.0987296
14.541954 -16.779089 -0.6196155
1.068838 -0.19249335 -1.151732
14.535357 -16.749517 -0.067387432
1.197017 -0.35081738 -1.160177
14.317706 -16.460054 0.47791824
1.2767432 -0.44802669 -1.1327822
12.981727 -14.796556 0.90904409
1.441316 -0.65123737 -1.1419249
13.344977 -15.223398 1.4477371
1.6132498 -0.8631717 -1.1420782
13.487306 -15.378028 1.9833221
1.7452755 -1.0247669 -1.1126201
14.052252 -16.050077 2.6097488
1.983664 -1.3186457 -1.1135516
14.249966 -16.271048 3.1951194
2.1940374 -1.576951 -1.0876828
14.248382 -16.247604 3.7485876
2.8947494 -2.444555 -1.1878363
13.895561 -15.795427 4.1933312
3.7043927 -3.4454772 -1.2635038
14.175353 -16.115425 4.8341842
33.762413 -39.944756 12.923326
0.61613792 0.35841426 -1.1199912
12.164622 -14.019307 -2.4408293
0.67971194 0.279571 -1.1193699
1.4416335 -0.64093411 -0.48132586
0.74605113 0.19738422 -1.1165059
1.7275687 -0.99404335 -0.43972763
0.8050344 0.12471159 -1.1035947
14.402302 -16.745932 -1.1660929
0.89082605 0.018271629 -1.1038777
14.662073 -17.047152 -0.62254643
1.0572301 -0.18987042 -1.1479732
1.1965549 -0.36330432 -1.1633371
13.385269 -15.422127 0.43808967
1.2772027 -0.46230823 -1.1363391
13.056472 -14.995529 0.92139083
1.4364381 -0.66010213 -1.1428633
13.340421 -15.327106 1.4553574
1.5861501 -0.84545517 -1.1332117
4.5967321 -4.5138731 0.58141261
1.7477034 -1.0452365 -1.1167969
13.563355 -15.562187 2.5267086
1.9560852 -1.3033493 -1.1065326
14.240275 -16.375582 3.2079716
2.3378072 -1.7781214 -1.1381433
14.284541 -16.408506 3.7756734
2.9052036 -2.4841838 -1.1942176
14.541166 -16.702217 4.4118156
3.4897134 -3.2100246 -1.2128749
14.169065 -16.223515 4.8535309
4.5813742 -4.5675411 -1.2967575
33.603455 -40.020836 12.917546
0.6138224 0.35427895 -1.1208122
12.085367 -14.003945 -2.4327755
0.69598973 0.25124258 -1.1351949
1.4317877 -0.6411798 -0.48061782
0.73774898 0.20001619 -1.1130128
1.7030747 -0.97787821 -0.43773887
0.81006283 0.10994586 -1.1098796
14.671297 -17.180962 -1.1848434
0.85451293 0.055563942 -1.0825145
14.217964 -16.593376 -0.61049354
1.0581675 -0.20109886 -1.1513985
14.23996 -16.599783 -0.066039175
1.1842707 -0.35867676 -1.1591437
13.37915 -15.506558 0.4413414
1.2787076 -0.47571826 -1.1399297
12.945021 -14.946745 0.91701901
1.431556 -0.66648155 -1.143257
1.5628695 -0.82957214 -1.1254685
1.7526542 -1.0661237 -1.12151
12.852246 -14.773871 2.397172
1.9107943 -1.2622344 -1.0923961
13.724634 -15.814004 3.6378198
2.8600926 -2.4497521 -1.1838852
13.874738 -15.978654 4.2218094
3.5040455 -3.2542717 -1.2193263
14.153374 -16.301298 4.8661547
4.334157 -4.2906551 -1.2466409
33.473969 -40.087524 12.913894
0.6086334 0.35240042 -1.1197596
11.998142 -13.99477 -2.4244866
0.68165988 0.26045009 -1.1270908
1.42197 -0.64392537 -0.48004648
0.72313499 0.20922779 -1.1052803
1.6772912 -0.96271443 -0.43571198
0.80293798 0.10894298 -1.1081276
14.133326 -16.626003 -1.1523892
0.86996639 0.025271459 -1.0960038
14.672414 -17.282299 -0.6223563
0.93843925 -0.060081691 -1.0804421
14.192409 -16.658268 -0.064160421
1.1883882 -0.37709013 -1.1649905
13.2539 -15.460791 0.43959188
1.2919184 -0.50648689 -1.1503853
12.929905 -15.035531 0.92182863
1.4195279 -0.66629863 -1.1407005
13.250405 -15.41713 1.4594822
1.5788516 -0.86611247 -1.1359954
1.7980216 -1.1415169 -1.1434398
1.7942697 -1.1332954 -1.0522333
13.841441 -16.094254 3.1421738
2.4854014 -2.0062759 -1.1931089
2.8154912 -2.4199014 -1.1742098
14.047229 -16.308189 4.2948213
3.5756176 -3.3766341 -1.2409372
14.116733 -16.373098 4.8752127
4.3204136 -4.3117914 -1.2471263
0.61147988 0.34108278 -1.1252087
11.91652 -13.980904 -2.4163814
0.67665631 0.25876597 -1.126086
1.410502 -0.64285648 -0.47915727
0.75016737 0.16585657 -1.1287695
1.6612023 -0.95765108 -0.43460232
0.8019743 0.10115662 -1.1103982
0.86539871 0.02164264 -1.0958644
15.316932 -18.205606 -0.63930565
1.0540019 -0.21874887 -1.1553485
14.16472 -16.728788 -0.062339365
1.1827087 -0.38160211 -1.1648173
1.2321731 -0.44238135 -1.1213565
13.133884 -15.388718 0.94477439
1.4236307 -0.68503004 -1.145748
13.16138 -15.403809 1.4559071
1.5718027 -0.87171179 -1.1357794
1.7328808 -1.0744467 -1.119534
12.681738 -14.76255 2.3859644
1.9066495 -1.2929533 -1.0967909
14.113293 -16.53783 3.2197924
2.4933119 -2.0375216 -1.1988358
13.570057 -15.836366 3.6275458
2.8174787 -2.4459679 -1.1777861
13.743685 -16.032907 4.2174125
3.1452537 -2.8581126 -1.1344768
13.633249 -15.873997 4.7249904
4.2338867 -4.2362185 -1.2315115
14.418086 -16.831907 5.5823307
0.6054098 0.34080559 -1.1232368
11.839714 -13.97822 -2.4095211
0.67250001 0.25548396 -1.1259604
1.3974162 -0.64049506 -0.4780857
0.74905401 0.15804553 -1.1311649
1.65209 -0.96230257 -0.43423772
0.80406034 0.088793956 -1.1150632
26.634399 -32.753109 -1.9587247
0.82774264 0.06029477 -1.0737407
15.217134 -18.200323 -0.63643384
1.0461502 -0.22018892 -1.1537505
14.082787 -16.737429 -0.060980201
1.166284 -0.37296727 -1.1585944
13.226513 -15.630386 0.44610304
1.2922339 -0.53288472 -1.1569017
14.932875 -17.772547 1.1057417
1.4272319 -0.70412475 -1.150781
12.900159 -15.178122 1.4314501
1.5312141 -0.83504218 -1.1204849
4.4921885 -4.5310059 0.57844704
1.7747426 -1.1451182 -1.1399916
12.517836 -14.656766 2.3646102
1.7913188 -1.1629826 -1.0566691
14.233171 -16.80118 3.2628622
2.3607197 -1.8901081 -1.1578537
13.568853 -15.942807 3.6433291
2.8731108 -2.5424585 -1.1973854
13.751391 -16.151876 4.2382007
13.579061 -15.914303 4.7261658
0.60172665 0.3379139 -1.1231261
11.759629 -13.965271 -2.4016685
0.66531187 0.25668052 -1.1231879
1.3872169 -0.6409024 -0.47737336
0.75037289 0.1475535 -1.1352541
1.6274688 -0.94610435 -0.43225265
0.79521298 0.09116786 -1.1117285
0.84017003 0.034756392 -1.0849717
13.486105 -16.101686 -0.59020859
1.0147288 -0.19023721 -1.1371585
1.1606137 -0.37741902 -1.1584238
13.37534 -15.92019 0.45722315
1.2791634 -0.52865863 -1.1529568
1.3996035 -0.68203264 -1.1400973
12.829349 -15.185549 1.4299645
1.5654557 -0.8938719 -1.1391058
4.4734087 -4.5432186 0.57877439
1.7467594 -1.1251949 -1.1313794
12.45455 -14.671123 2.3625531
1.8216095 -1.2185029 -1.0707585
14.261796 -16.944719 3.2836866
2.4012189 -1.9629214 -1.1744552
13.468895 -15.918528 3.630971
2.8264058 -2.5065691 -1.1866969
13.734901 -16.234688 4.2504597
3.5385833 -3.4184649 -1.2411854
13.535137 -15.961192 4.7298107
4.3277283 -4.4272585 -1.2582868
14.209203 -16.79114 5.5462174
0.60208893 0.32920399 -1.1267154
11.673348 -13.949385 -2.393095
0.66874325 0.24343351 -1.1292579
1.3790625 -0.6447382 -0.47699499
0.74369192 0.14694056 -1.133435
1.6061661 -0.93487841 -0.43063623
0.78167242 0.09919785 -1.105185
0.82411635 0.045706123 -1.0772521
13.148593 -15.776588 -0.58106923
1.0217144 -0.21084946 -1.1448541
13.897794 -16.719681 -0.058683589
1.1499976 -0.37614459 -1.1555604
13.378227 -16.032055 0.46150675
1.2391911 -0.4899897 -1.1345912
14.952811 -18.03084 1.120657
1.4019716 -0.69959956 -1.1445502
12.782643 -15.229582 1.4319239
1.5496716 -0.88908559 -1.1351156
4.4608517 -4.5656395 0.58032918
1.7904679 -1.1992668 -1.1528107
1.7916657 -1.1973644 -1.0624481
13.149072 -15.639628 3.0325508
2.4586306 -2.0597656 -1.1970619
13.409876 -15.952081 3.6308556
2.8717482 -2.5910082 -1.2034324
3.5138819 -3.4176943 -1.2382541
14.158035 -16.862663 4.9717393
4.076911 -4.1401911 -1.2069449
11.290808 -13.198413 4.4170599
0.60074234 0.32367265 -1.1284658
11.597534 -13.935234 -2.385571
0.66719985 0.23769605 -1.1309175
1.368071 -0.64317781 -0.47612697
0.73645049 0.14820817 -1.1307895
1.5895202 -0.92758274 -0.42942816
0.78201252 0.090183519 -1.1082664
0.86351931 -0.015087288 -1.1066681
1.019082 -0.21762019 -1.1461378
13.020769 -15.68644 -0.066676423
1.1389706 -0.37277681 -1.1520495
12.702299 -15.255949 0.43169934
1.2496778 -0.51550758 -1.1431966
12.758639 -15.309652 0.93487918
1.3899996 -0.69678009 -1.1414562
12.683033 -15.19329 1.4263377
1.5500176 -0.90344554 -1.1381453
4.4565268 -4.594182 0.58281648
1.7759297 -1.1958277 -1.1496348
12.078122 -14.378077 2.3079615
1.9002819 -1.3548746 -1.1060774
13.098334 -15.668981 3.0327363
2.1248 -1.6443106 -1.0874045
13.874802 -16.644217 3.7749619
2.8534498 -2.5902591 -1.2009673
13.755237 -16.470076 4.2922435
3.4211881 -3.324569 -1.2173746
14.14598 -16.948671 4.9865036
3.8261201 -3.8454914 -1.1549219
11.242728 -13.2185 4.414906
0.59760898 0.31901762 -1.1292694
11.516185 -13.930199 -2.3782625
0.66057974 0.23712023 -1.1290183
1.3583003 -0.64568186 -0.4755685
0.72952354 0.14744613 -1.1289654
1.5642691 -0.91176677 -0.42743069
0.79030883 0.068807155 -1.117727
13.534723 -16.508293 -1.1247087
0.87162703 -0.036884397 -1.1156029
13.018696 -15.816379 -0.57733768
1.0255698 -0.23856696 -1.1538217
1.1394081 -0.38671589 -1.1558868
12.967208 -15.710554 0.44913086
1.2634799 -0.54803693 -1.1542722
12.576971 -15.18495 0.92519438
1.3167357 -0.61555701 -1.108057
12.584592 -15.17604 1.4222187
1.5384772 -0.90504843 -1.1362967
4.429286 -4.6001148 0.58219922
1.7728263 -1.2104596 -1.1518347
12.073291 -14.477048 2.3188071
1.9710453 -1.4676933 -1.1362176
11.840403 -14.158028 2.7442126
2.1844349 -1.7442914 -1.1108165
12.319016 -14.757367 3.3571033
2.8448887 -2.6068053 -1.2020013
13.854986 -16.717859 4.3442411
3.4307215 -3.3696146 -1.2234329
14.114024 -17.03005 4.9981222
3.9195569 -4.0037565 -1.1787366
11.204566 -13.267562 4.4201012
0.58750886 0.32467496 -1.1236039
11.437975 -13.9175 -2.3706908
0.63943774 0.25707343 -1.1147519
1.3457276 -0.64276665 -0.47452104
0.71226823 0.1616427 -1.118732
1.5364132 -0.89036512 -0.42508897
0.76719165 0.090345196 -1.1039933
31.661013 -40.371704 -2.3022213
0.88132298 -0.05977159 -1.1253093
12.986835 -15.876083 -0.57637358
1.0202751 -0.24262577 -1.1536686
12.946578 -15.804047 -0.063326985
1.1438887 -0.40464836 -1.1617564
12.626856 -15.366926 0.43591842
1.2584642 -0.55427545 -1.1547204
1.3299549 -0.64640927 -1.1177676
12.499578 -15.163321 1.4188297
1.5301605 -0.90899789 -1.1355522
4.3897257 -4.5853081 0.57910967
1.7192597 -1.156269 -1.1324033
12.05554 -14.548181 2.3257923
1.9940617 -1.5163684 -1.1480385
11.820989 -14.225262 2.7516479
2.3215599 -1.9452816 -1.1603683
12.240005 -14.750877 3.3493128
2.8151624 -2.592396 -1.1963181
13.732096 -16.666145 4.3230872
3.3331056 -3.2701786 -1.2013159
12.397609 -14.917366 4.4012613
3.9493241 -4.0758562 -1.1883193
10.161371 -12.006152 4.0212779
0.57510275 0.33304936 -1.1160817
11.359612 -13.909727 -2.363493
0.63954991 0.24813803 -1.1181693
1.3351797 -0.64328867 -0.47380719
0.70349431 0.16407758 -1.1152345
1.5070361 -0.86757976 -0.42261493
0.78003943 0.063265935 -1.1166617
14.575943 -18.099514 -1.1961749
0.88506967 -0.075534657 -1.1312193
12.870643 -15.831374 -0.57317585
1.0112836 -0.24243152 -1.1513648
12.916381 -15.872318 -0.061576754
1.1388973 -0.41082108 -1.1622509
12.583352 -15.415159 0.43774268
1.2462118 -0.55167246 -1.1514007
12.410249 -15.169092 0.92188936
1.2909967 -0.60873884 -1.1012778
12.498819 -15.266685 1.4265795
1.5202287 -0.91172153 -1.1342584
4.3721199 -4.6012239 0.57985008
1.7888746 -1.2665074 -1.1651384
12.98542 -15.865805 2.5273118
1.97176 -1.5064026 -1.1428505
2.0305274 -1.5808104 -1.0644566
13.761834 -16.840118 3.7946625
2.8522921 -2.6680233 -1.2108994
13.713845 -16.75655 4.3365879
3.3518019 -3.3254862 -1.2095771
3.9836829 -4.1568518 -1.1991867
10.172054 -12.105477 4.0433784
0.5735001 0.32738841 -1.117828
2.1713562 -1.7723153 -0.69653499
0.64732456 0.22927457 -1.1277839
1.3226583 -0.64027381 -0.47276452
0.70578426 0.15216032 -1.1201695
1.4806571 -0.84749514 -0.42041004
0.7799421 0.053994939 -1.1197352
14.506371 -18.122128 -1.1936655
0.88132817 -0.080691397 -1.1318386
12.781991 -15.815741 -0.57072949
0.97592455 -0.20593724 -1.1319408
12.910684 -15.966958 -0.059659578
1.1095283 -0.38342729 -1.1480107
13.203552 -16.334711 0.47300881
1.1981025 -0.49994934 -1.1280621
12.355726 -15.195356 0.92258972
1.302945 -0.63809425 -1.1104064
1.5107502 -0.91406786 -1.1329806
4.3567839 -4.617836 0.58075595
1.5580959 -0.97440755 -1.0704335
1.9045827 -1.4350139 -1.1202524
12.585738 -15.423306 2.9637823
2.3606448 -2.0410745 -1.1802558
12.072321 -14.729757 3.3317337
2.8414063 -2.6787391 -1.2109119
13.467636 -16.541702 4.2754211
11.540693 -13.996006 4.128521
2.1585085 -1.7590938 -0.79749906
10.134005 -12.136737 4.0449696
0.58002287 0.31010959 -1.1269746
0.63989818 0.23041913 -1.1250116
1.3121474 -0.64070529 -0.47205546
0.69486874 0.15756425 -1.1149899
1.4551613 -0.82921338 -0.41832295
0.7730059 0.05336085 -1.1180011
0.88824189 -0.10097547 -1.1400185
12.719279 -15.840425 -0.56897879
0.99367511 -0.24168229 -1.146772
12.933897 -16.107189 -0.057262138
1.0609423 -0.33037922 -1.1223742
12.906077 -16.050722 0.46207103
1.2007302 -0.51699275 -1.1328883
12.544376 -15.5508 0.94544172
1.2870203 -0.63092327 -1.1055607
12.593632 -15.597394 1.4541616
1.5008235 -0.91671962 -1.1316905
4.3486643 -4.6463671 0.58309454
1.53757 -0.96316993 -1.0648013
11.235251 -13.760289 2.1902323
1.866346 -1.4027978 -1.1088231
12.520078 -15.443031 2.9617176
2.1281593 -1.7474532 -0.99865174
13.409206 -16.578344 4.2758141
11.481582 -14.016066 4.125556
2.1471291 -1.7651812 -0.7969479
13.621233 -16.815964 5.4745922
0.56790501 0.31875369 -1.1194636
0.62533629 0.24192658 -1.1160609
1.3020563 -0.64079195 -0.47135991
0.68853366 0.15735385 -1.1131889
1.4183108 -0.79446262 -0.41500542
0.77068424 0.047043838 -1.1194756
13.081504 -16.447977 -1.1047046
0.87457949 -0.092702776 -1.1338277
12.677526 -15.886668 -0.56780177
0.97621965 -0.22907773 -1.1387742
12.856625 -16.107567 -0.056209862
1.1022198 -0.39833969 -1.1503603
12.798958 -16.011032 0.46050966
1.2126545 -0.54602951 -1.1427312
1.3135123 -0.68040931 -1.1222466
12.344238 -15.365608 1.4296236
1.4902049 -0.9174481 -1.1298789
4.3272123 -4.6549654 0.58299172
1.6602659 -1.1449547 -1.12017
11.233391 -13.848439 2.2000895
1.8520068 -1.4013562 -1.1063505
11.902391 -14.721634 2.8228049
2.1005733 -1.7340835 -1.0973842
11.938504 -14.751351 3.3235788
2.1080916 -1.7403483 -0.99518633
11.358456 -13.962846 3.6260476
2.1152487 -1.7461672 -0.89408541
2.1327939 -1.7660049 -0.79562432
9.9767466 -12.09691 4.0163336
0.54729086 0.33877045 -1.1045438
2.1293354 -1.7789341 -0.69351888
0.6253401 0.23298582 -1.1194797
1.2915701 -0.64114267 -0.47065493
0.67554885 0.16578068 -1.1063292
1.3812388 -0.75984538 -0.41168356
0.76697683 0.042000275 -1.1201431
0.82471675 -0.035196751 -1.1026616
12.615871 -15.912596 -0.56610525
0.97501987 -0.23928514 -1.1414733
1.0372525 -0.32219416 -1.1146861
12.770126 -16.082312 0.4632
1.2038729 -0.54782802 -1.1412992
1.3054405 -0.68403029 -1.1214734
1.4814233 -0.92158055 -1.1291302
4.3022547 -4.6611376 0.58251399
1.5900539 -1.0667131 -1.0933889
4.3097734 -4.6643009 0.77018017
1.8048596 -1.356249 -1.0913631
11.854335 -14.759854 2.8244615
2.0928221 -1.744733 -1.0979078
11.860764 -14.750228 3.3168082
2.0968196 -1.7462815 -0.99455166
11.27369 -13.94763 3.6150403
2.1051068 -1.7537125 -0.89380455
11.992707 -14.889733 4.3496804
2.1108136 -1.7576483 -0.7927053
10.001527 -12.216479 4.0446067
0.5547595 0.32003975 -1.114617
2.1225922 -1.7913388 -0.69388831
0.60852039 0.24732316 -1.1087579
1.2810974 -0.64145029 -0.46995208
0.67642105 0.15514535 -1.1104164
1.3479338 -0.72985518 -0.40874347
0.76217735 0.038451713 -1.1200107
0.8110038 -0.026916616 -1.0964713
12.517414 -15.888405 -0.56344658
0.97925389 -0.25706795 -1.1477391
12.882522 -16.364763 -0.051631004
1.083367 -0.39824605 -1.1460052
13.217069 -16.798519 0.49063388
1.2084888 -0.56803977 -1.1473751
12.252875 -15.473935 0.93688047
1.2827358 -0.66749853 -1.113144
1.4760349 -0.93035632 -1.1299933
4.2773037 -4.6672134 0.58203125
1.6230593 -1.1291054 -1.1108631
4.278882 -4.6624575 0.76823235
11.629305 -14.559632 2.782146
2.0480552 -1.7047313 -1.0855988
11.450487 -14.301051 3.2140083
2.091341 -1.7601225 -0.99569428
2.0972791 -1.7644148 -0.89414459
11.932215 -14.912603 4.3471785
2.112339 -1.7811762 -0.79506016
11.021841 -13.672595 4.4812021
0.55101788 0.31728956 -1.1145148
2.1234338 -1.8129256 -0.69557679
0.60875398 0.23858893 -1.1121852
1.2722213 -0.64302921 -0.4694334
0.67962086 0.14173803 -1.1161946
1.3281965 -0.71711254 -0.40719035
0.75016338 0.045547102 -1.1142915
34.670609 -46.293926 -2.5328765
0.84196478 -0.079981782 -1.1213043
12.482535 -15.943823 -0.56248915
0.97718245 -0.26554614 -1.1497332
12.787124 -16.340553 -0.050832555
1.0864426 -0.41469526 -1.1512065
13.042306 -16.668955 0.48560953
1.2111684 -0.58493036 -1.1522095
12.370271 -15.734642 0.9533388
1.260546 -0.65056044 -1.1048304
4.2942657 -4.7347231 0.40043017
1.4778403 -0.94815707 -1.1340901
4.2983074 -4.7332668 0.58915502
1.5970759 -1.1097075 -1.1027882
1.8252364 -1.4211539 -1.105616
2.0777977 -1.7655464 -1.0989754
11.313917 -14.210624 3.188766
2.0910332 -1.7798893 -0.99827421
11.402752 -14.313324 3.6903095
2.0969861 -1.7842486 -0.89635783
11.950178 -15.035134 4.3725653
2.1143556 -1.8042985 -0.79743141
11.018649 -13.759315 4.4990501
0.55525321 0.30281833 -1.1218098
2.1188953 -1.828553 -0.69638109
0.60245383 0.23843037 -1.1103045
1.2582595 -0.63842195 -0.46822274
0.66879588 0.14730991 -1.1110235
1.3092959 -0.70619899 -0.40575424
0.73578584 0.05547611 -1.1069682
0.84757018 -0.098815203 -1.1287279
12.442005 -15.998193 -0.56139255
0.96929979 -0.26667687 -1.1481529
12.702942 -16.33766 -0.049785528
1.0780981 -0.41612408 -1.1497015
12.601314 -16.179104 0.46675494
1.2067295 -0.59287858 -1.1532809
1.2168478 -0.60427588 -1.0854704
4.278574 -4.7535954 0.40141186
1.4768556 -0.96319294 -1.1371009
4.2802343 -4.7489367 0.58987463
1.5390192 -1.0464815 -1.0809492
4.21134 -4.6479769 0.76280344
1.8092558 -1.4183431 -1.1026928
11.19415 -14.16477 2.6993461
11.271961 -14.253482 3.191751
2.0854189 -1.7937416 -0.99941874
11.345276 -14.335867 3.6885257
2.0983107 -1.8077505 -0.89917314
13.52116 -17.276131 4.9771886
0.55532134 0.29410407 -1.1254023
10.749807 -13.834758 -2.3073616
0.60445517 0.22658049 -1.1154931
1.2478381 -0.63860017 -0.46752679
0.66535723 0.14257127 -1.1117458
1.2799633 -0.68062741 -0.40320456
0.74375576 0.034077164 -1.1164324
13.582794 -17.706512 -1.1482793
0.84449983 -0.10562013 -1.1301018
13.863856 -18.074692 -0.5990802
0.96575689 -0.27386725 -1.1494265
12.61891 -16.334408 -0.048756331
1.0347745 -0.36839578 -1.1267763
12.495371 -16.144854 0.4653784
1.1890248 -0.58225691 -1.1468511
4.3523903 -4.9027233 0.22417536
1.2223579 -0.62628883 -1.0916816
4.2710228 -4.7837172 0.40347373
1.4758018 -0.97824442 -1.1401119
4.2445612 -4.740407 0.58756995
1.5039107 -1.0144712 -1.0689468
4.1876526 -4.655365 0.76232111
1.8069365 -1.4344826 -1.1051257
11.14776 -14.200891 2.7009096
10.90929 -13.856732 3.1009855
2.6318555 -2.5766792 -1.1712164
11.34681 -14.439036 3.7063789
13.378705 -17.200964 4.9468398
9.8204994 -12.317818 4.0429101
0.54154915 0.30603036 -1.1160578
10.681658 -13.825101 -2.3010974
0.60276824 0.22093727 -1.1171598
1.2417266 -0.64301181 -0.46736521
0.66347462 0.13673776 -1.1133235
1.274895 -0.68674684 -0.40316385
0.74478531 0.023515338 -1.1203153
13.528625 -17.738214 -1.1467086
0.84522307 -0.11651525 -1.1337596
13.481684 -17.652596 -0.588952
0.94774902 -0.25921157 -1.1407386
0.98371303 -0.30763337 -1.0985242
12.461407 -16.196493 0.4673005
1.1534886 -0.54464823 -1.1298187
4.3256702 -4.9023037 0.22376598
1.2329888 -0.65401828 -1.1002364
11.94108 -15.438611 1.4237516
1.4622024 -0.97380173 -1.1367112
4.2089071 -4.726881 0.58479595
1.5025252 -1.027427 -1.0712166
4.1720085 -4.6691008 0.76301277
1.639335 -1.2164311 -1.0420312
11.054622 -14.160769 2.6891031
10.849554 -13.860962 3.0966401
2.4640906 -2.3652103 -1.1223325
11.282063 -14.439783 3.7001891
3.0474644 -3.177043 -1.1590643
11.765483 -15.087206 4.361804
3.783875 -4.2010632 -1.1839888
0.52815622 0.31606212 -1.107622
10.603274 -13.817712 -2.2942019
0.58076394 0.24269098 -1.1020271
1.2285959 -0.64016926 -0.46632177
0.65764701 0.13478972 -1.1123567
1.2558082 -0.6758731 -0.40172827
0.73859209 0.02132885 -1.1193819
12.428555 -16.326075 -1.0759995
0.8353889 -0.11445549 -1.1305903
13.423271 -17.699421 -0.58742285
0.94817185 -0.27270716 -1.1448576
13.549229 -17.855345 -0.032161523
1.0078988 -0.35522726 -1.1171002
12.736732 -16.700138 0.4865441
1.1651665 -0.57601714 -1.1402617
4.2978439 -4.9075212 0.22365963
1.3117609 -0.78122163 -1.1453418
11.49287 -14.928248 1.3726157
1.4483757 -0.9718647 -1.1338145
4.1804199 -4.7301722 0.58391792
1.4895988 -1.0271565 -1.0690318
4.1830816 -4.7271061 0.77023083
1.7902223 -1.4489071 -1.1051022
11.325555 -14.643254 2.7720747
10.774718 -13.861283 3.0904593
2.5083852 -2.4545546 -1.1397293
11.312165 -14.589667 3.7289076
2.9945285 -3.1347663 -1.1484772
12.378502 -16.048725 4.6144609
0.52338976 0.31484178 -1.1065997
10.529256 -13.804548 -2.2872472
0.56963295 0.25018078 -1.0957422
1.2197677 -0.64156795 -0.4658123
0.64820367 0.13919854 -1.1080397
1.2457103 -0.67571807 -0.40118483
0.72562885 0.030099172 -1.1128715
12.33556 -16.301567 -1.0718442
0.83149666 -0.11950433 -1.1312171
13.972505 -18.587387 -0.60201806
0.94813156 -0.28420934 -1.1482811
13.469091 -17.858452 -0.031089965
0.99795032 -0.35306108 -1.1142777
12.360649 -16.280855 0.47039041
1.1709174 -0.59758264 -1.1469733
4.2781429 -4.9191141 0.22403173
1.2928625 -0.76884037 -1.1387784
11.520279 -15.065426 1.383755
1.4354959 -0.96921587 -1.1309432
4.1761923 -4.7625141 0.58680826
1.6214472 -1.2307907 -1.1301925
10.741878 -13.941314 2.1831589
1.4909606 -1.042106 -0.98943579
11.165467 -14.516858 2.7441812
10.777787 -13.958333 3.1055398
2.4787543 -2.4370027 -1.1337605
11.160835 -14.475829 3.6946254
3.0928247 -3.3025115 -1.1783787
12.264393 -15.995755 4.5916252
3.6163683 -4.0381136 -1.1526065
10.750164 -13.869258 4.4884186
0.51560277 0.31801668 -1.1028042
10.456552 -13.792708 -2.2805223
0.57079607 0.24000864 -1.1000565
1.2075056 -0.6380465 -0.46479449
0.65221918 0.12425298 -1.11466
1.2310296 -0.66899604 -0.40014854
0.7263006 0.019339943 -1.1167492
0.83286554 -0.13215047 -1.1356238
14.100498 -18.888855 -0.60545903
0.92778283 -0.26656568 -1.1381655
13.963964 -18.674524 -0.022154253
1.0429158 -0.42976627 -1.1455764
12.310344 -16.3165 0.47168308
1.1515923 -0.58333528 -1.1393143
4.2849674 -4.9681282 0.22690581
1.2215075 -0.68101144 -1.1043549
4.1540823 -4.7766457 0.3996644
1.4149266 -0.95545435 -1.1243241
10.927879 -14.312958 1.7736903
1.6267077 -1.2555783 -1.1358739
9.841445 -12.767298 1.9995599
1.772846 -1.4612582 -1.104654
10.891539 -14.228477 2.6868606
2.2498484 -2.1390173 -1.1798601
10.304853 -13.387645 2.9791322
2.4424677 -2.4096434 -1.125672
11.184539 -14.605747 3.7193332
3.0460694 -3.2654102 -1.1690758
10.284642 -13.327178 3.8594456
0.51238674 0.31358278 -1.1036211
10.383188 -13.790883 -2.2745409
0.57953942 0.21763422 -1.1114204
1.1978868 -0.6399461 -0.46426827
0.64842141 0.11935971 -1.1153785
1.2109942 -0.65624952 -0.39859995
0.72634548 0.0081585981 -1.1206111
12.165836 -16.286869 -1.0648904
0.83249378 -0.14373671 -1.139259
14.077226 -18.993301 -0.60491115
0.91324198 -0.25852141 -1.1323128
13.662016 -18.380829 -0.023827069
1.0234975 -0.41577896 -1.1373829
12.253613 -16.356457 0.47312659
1.1650877 -0.61798233 -1.1510031
4.2317352 -4.9372234 0.22438723
1.2206903 -0.69563246 -1.1076502
4.10604 -4.7519512 0.39645615
1.4056144 -0.95965576 -1.123579
11.283103 -14.924318 1.8464775
1.5003586 -1.0931915 -1.0836368
1.7608155 -1.4649618 -1.1035126
10.855807 -14.285093 2.6919703
2.0958111 -1.9431168 -1.1287422
9.4966516 -12.346587 2.753068
2.4983046 -2.5171762 -1.1469519
11.148479 -14.66475 3.7260566
2.9628062 -3.1790357 -1.1501772
3.6540353 -4.1644335 -1.168278
10.286301 -13.414549 4.3339324
0.51861668 0.29629797 -1.1127721
10.308492 -13.77521 -2.2674117
0.57348657 0.21777861 -1.109553
1.1879504 -0.63960296 -0.46359479
0.64821589 0.11035647 -1.1186336
1.1987125 -0.65266234 -0.39781693
0.71759081 0.010983171 -1.1173007
38.62043 -54.370132 -2.8442321
0.78872567 -0.090742007 -1.1111784
0.92692059 -0.29000562 -1.1449991
0.97608137 -0.35924274 -1.111155
12.201931 -16.390188 0.47433695
1.1425822 -0.59894812 -1.1414753
4.2176876 -4.9568052 0.22529328
1.2401631 -0.73806989 -1.1214108
4.0558834 -4.7189083 0.39255884
1.3939281 -0.95842743 -1.1212521
1.4992751 -1.1081488 -1.0863855
9.5723658 -12.568255 1.9620435
1.6844879 -1.3732115 -1.076126
9.5224953 -12.482492 2.3597879
2.1771529 -2.0823159 -1.1612892
2.5886075 -2.672611 -1.1788801
10.630037 -14.026378 3.5658741
3.0112114 -3.2778153 -1.1667936
10.231109 -13.44352 3.8759799
3.7236784 -4.2996168 -1.1878079
10.207544 -13.393802 4.3197508
0.52277118 0.28190541 -1.1200722
10.239632 -13.767407 -2.2613778
0.57752371 0.20309818 -1.1165146
1.1757642 -0.63594294 -0.4625839
0.64389074 0.10734764 -1.1185257
1.1876018 -0.65066528 -0.39715964
0.70370239 0.021424195 -1.1099988
12.00526 -16.269758 -1.0583147
0.74734145 -0.040579274 -1.084617
11.98278 -16.21913 -0.54950255
0.92148221 -0.29378897 -1.1448634
13.5805 -18.503563 -0.02057392
1.0257241 -0.44410363 -1.145785
12.021317 -16.238237 0.4684253
1.1437888 -0.61431026 -1.1456894
4.1579714 -4.9107714 0.22182418
1.2518504 -0.76957673 -1.1311065
4.033289 -4.7249117 0.39238653
1.3953351 -0.97622716 -1.1253543
1.5617446 -1.2158543 -1.1175779
9.607111 -12.703642 1.9794356
1.7941248 -1.5510832 -1.1235574
9.533452 -12.583319 2.3740306
2.0978866 -1.9894583 -1.1362352
9.4137917 -12.397201 2.7540383
2.3522196 -2.3550889 -1.1074307
9.3571138 -12.301473 3.1453428
3.0635879 -3.3834066 -1.1846331
10.166895 -13.442993 3.8688512
3.264679 -3.6697178 -1.0843279
10.270606 -13.574706 4.3661432
0.52090615 0.27630246 -1.1218259
10.165255 -13.751152 -2.2542782
0.5784753 0.19284645 -1.1208267
1.1681222 -0.63880509 -0.4622533
0.6476838 0.092320472 -1.1251441
1.1753811 -0.64698142 -0.39638117
0.67960209 0.047115911 -1.0947167
11.923476 -16.258272 -1.0549347
0.74466515 -0.046933442 -1.0860101
13.744886 -18.883465 -0.59636497
0.92022735 -0.30374593 -1.1475774
1.0135006 -0.4388063 -1.141628
11.929089 -16.212084 0.4673337
1.0968547 -0.55898583 -1.1218085
4.0974092 -4.8628187 0.21823424
1.1955363 -0.70147544 -1.1042563
4.006155 -4.7242823 0.39158735
1.3966563 -0.99405622 -1.1294562
4.0803051 -4.8247881 0.58876359
1.5351446 -1.1941742 -1.1090444
9.1696682 -12.159254 1.8932397
1.8830097 -1.7006031 -1.1629541
9.1547899 -12.123631 2.2867017
2.0921249 -2.0029731 -1.1375827
9.3469582 -12.385914 2.74685
2.4454913 -2.5155547 -1.1404161
3.0584545 -3.4061773 -1.1867501
10.117259 -13.463074 3.8673229
9.9451656 -13.199968 4.246006
0.51778901 0.27200806 -1.1226497
10.098462 -13.751218 -2.2490683
0.572124 0.19283639 -1.1189553
1.1567001 -0.6369828 -0.46140602
0.63595241 0.099670738 -1.119146
1.1650393 -0.64682305 -0.39584139
0.68811554 0.024041703 -1.104977
11.854544 -16.271713 -1.0525638
0.7333914 -0.041199528 -1.081355
13.685013 -18.92704 -0.5949012
0.91127414 -0.30309656 -1.1452991
13.209566 -18.212721 -0.021400819
1.0167685 -0.4571453 -1.1474918
11.83851 -16.194296 0.46655303
1.1030364 -0.582403 -1.129138
4.0981932 -4.9058952 0.22068506
1.2324909 -0.77129912 -1.1278626
4.0005226 -4.7571859 0.39392728
1.3898667 -1.0010618 -1.1297989
4.0540228 -4.8283653 0.58802652
1.5179754 -1.1871523 -1.1049157
1.7285503 -1.4944568 -1.1039654
9.3289652 -12.464798 2.3442669
2.084568 -2.0153008 -1.1385155
9.2912331 -12.395518 2.7437973
2.347893 -2.3987167 -1.1128756
9.288662 -12.377264 3.1519914
3.0156467 -3.375654 -1.178684
3.3668005 -3.8858964 -1.114753
9.3573236 -12.446859 4.0127411
0.50580871 0.28100827 -1.1151568
10.023956 -13.739504 -2.242362
0.56379008 0.19583757 -1.1153206
1.1475395 -0.63841301 -0.46089965
0.62930918 0.099528581 -1.1173534
1.1502264 -0.64001769 -0.39481169
0.64963865 0.071043059 -1.0785196
11.754181 -16.238611 -1.0480716
0.73142803 -0.049268156 -1.0834975
13.652011 -19.010118 -0.59416628
0.87841451 -0.26669484 -1.1266485
13.483689 -18.742369 -0.015073512
1.0073446 -0.45673385 -1.1453351
11.738015 -16.161266 0.46518445
1.0953289 -0.58536696 -1.1283523
4.0875034 -4.9325428 0.2220398
1.1953882 -0.73173863 -1.1114525
3.9778678 -4.7654161 0.39392674
1.3722961 -0.99205947 -1.1247908
3.9693582 -4.7464361 0.57675219
1.5723517 -1.2862042 -1.1331341
9.2155256 -12.404475 1.9238596
1.8914111 -1.7562973 -1.1740367
9.2160625 -12.390985 2.3267331
2.1372559 -2.1169555 -1.1614256
2.3634057 -2.4477162 -1.1214243
9.2441082 -12.402944 3.1522465
3.0771091 -3.498796 -1.1995633
10.718223 -14.533189 4.1399217
8.9755669 -11.983197 3.866725
0.49290848 0.29154491 -1.1067421
9.9540443 -13.734078 -2.2365327
0.55944526 0.19288911 -1.1152163
1.1372697 -0.63815749 -0.460226
0.62467957 0.09638717 -1.1172417
1.141049 -0.64142096 -0.39439934
0.66419274 0.038812269 -1.0935698
0.71507317 -0.035748266 -1.0750713
11.644026 -16.172426 -0.54096639
0.87373614 -0.272129 -1.1272231
12.877139 -17.976942 -0.021727726
1.0010703 -0.46099216 -1.1451846
11.690507 -16.205582 0.46677577
1.0855061 -0.58514303 -1.1263208
4.0766935 -4.9591875 0.22339249
1.1510869 -0.68083978 -1.0909916
3.9585593 -4.7785225 0.39438999
1.3440816 -0.96695745 -1.1144336
3.9098189 -4.7002783 0.56991875
1.5506741 -1.2727939 -1.1270452
9.3429403 -12.682553 1.9626883
1.4623734 -1.1378565 -1.0020972
9.0970039 -12.306828 2.3074079
2.1446168 -2.1522226 -1.1679474
9.1465607 -12.36527 2.7274303
2.3687797 -2.4821329 -1.1267877
9.1994762 -12.428487 3.1524901
3.0320635 -3.4648855 -1.1908879
10.340047 -14.084194 4.0119205
3.3571146 -3.9428618 -1.1194566
0.4864006 0.29357335 -1.1038854
1.1110597 -0.61460447 -0.52276486
0.57239175 0.16481751 -1.1301225
1.1245011 -0.63234735 -0.45906636
0.62158656 0.092111424 -1.1179847
1.1304713 -0.6389246 -0.39376262
0.65994638 0.035947669 -1.093469
0.71471435 -0.04492563 -1.077985
13.570959 -19.139826 -0.59232372
0.87487066 -0.28488988 -1.1313738
11.576211 -16.155006 -0.039252866
0.99968922 -0.47101909 -1.1477251
11.575412 -16.136129 0.46401769
1.0775319 -0.58593845 -1.1249337
4.0134077 -4.9031162 0.21930344
1.1523703 -0.69613659 -1.0949036
3.9269917 -4.7685471 0.39276505
1.3425426 -0.97961974 -1.1169459
3.9051828 -4.7298059 0.57255054
1.5043263 -1.2198552 -1.1092287
1.7534193 -1.5906963 -1.1246632
8.9446306 -12.161452 2.2776213
2.1346502 -2.1589453 -1.1677108
9.1192513 -12.405088 2.7313848
2.4224288 -2.5860403 -1.1473815
9.2655315 -12.606428 3.1897292
