# .PCD v0.7 - Point Cloud Data file format
VERSION 0.7
FIELDS x y z
SIZE 4 4 4
TYPE F F F
COUNT 1 1 1
WIDTH 1445
HEIGHT 1
VIEWPOINT 0 0 0 1 0 0 0
POINTS 1445
DATA ascii
-1.1948158 1.8918695 -0.2639963
-5.4776058 -5.8168206 -0.70437366
-1.1992309 1.8843875 -0.25471121
-6.6177311 -7.8583245 -0.59844106
-1.1956447 1.8916166 -0.23810078
-9.4566345 -12.94818 -0.47196031
-1.8781322 0.64050007 -0.78413457
-11.490878 -16.580635 -0.072839864
-1.8853672 0.62968493 -0.73862171
-11.496646 -16.566917 0.43243945
-2.0166297 0.39206579 -0.78058797
-11.658382 -16.832634 0.94849163
-2.1613789 0.13043423 -0.81840223
-11.63028 -16.758114 1.453398
-2.2403002 -0.010461763 -0.80225593
-11.571069 -16.627949 1.954215
-2.3522701 -0.21116769 -0.79633081
-11.561705 -16.587078 2.4585066
-2.5773745 -0.61713654 -0.83624083
-11.582479 -16.599897 2.9721942
-2.6921918 -0.8217538 -0.8051523
-11.350502 -16.1626 3.4099731
-2.9696434 -1.3208132 -0.82664418
-11.230923 -15.926154 3.8671412
-3.1935294 -1.7215946 -0.80365402
-3.5437834 -2.3499718 -0.79656798
-10.615135 -14.786824 4.5802741
-4.0068884 -3.1404238 -0.77885658
-1.1889838 1.9048963 -0.27032715
-4.5851974 -4.1692348 -0.74444878
-1.1943364 1.8957413 -0.26231349
-5.4873781 -5.7747855 -0.70277053
-1.2013862 1.8835012 -0.25556129
-6.6290073 -7.8039584 -0.59727591
-1.1969033 1.8923203 -0.23813438
-9.4701595 -12.860444 -0.47150344
-1.8778485 0.65314054 -0.77988994
-11.578458 -16.598139 -0.074506149
-1.9285249 0.56343019 -0.76759952
-11.58134 -16.579124 0.43199712
-2.0133646 0.41193938 -0.77431899
-11.690124 -16.748514 0.94427443
-2.0952463 0.26618126 -0.77130193
-11.652078 -16.656769 1.4464761
-2.2297766 0.025486907 -0.79191953
-11.614104 -16.565096 1.9495115
-2.3600311 -0.206827 -0.7965377
-11.639883 -16.586618 2.461272
-2.4666843 -0.39595854 -0.77756244
-11.665623 -16.60788 2.9772089
-2.7293763 -0.86594188 -0.81755143
-11.347655 -16.021704 3.3881593
-2.9751546 -1.3042235 -0.82470661
-11.601882 -16.446259 3.9842148
-3.215616 -1.7318523 -0.80725795
-3.5649955 -2.353992 -0.79892218
-12.178957 -17.411835 5.2980428
-4.0219555 -3.1319399 -0.77926171
-1.187481 1.9101995 -0.26765645
-4.590456 -4.1365719 -0.74247545
-1.1893436 1.9074423 -0.25633502
-5.489255 -5.7256551 -0.70037723
-1.2042881 1.8809438 -0.25722414
-1.2042594 1.881646 -0.24357684
-9.4691296 -12.760057 -0.47045612
-1.8751349 0.66870683 -0.77416933
-11.63604 -16.57719 -0.075936981
-1.9469168 0.54145163 -0.77802908
-11.655684 -16.587751 0.43154114
-2.0121024 0.42644235 -0.76995903
-11.694124 -16.631603 0.93834472
-2.0674725 0.32938257 -0.74990141
-11.66871 -16.562683 1.4400071
-2.1911929 0.10961863 -0.76548845
-11.68663 -16.569979 1.95175
-2.349983 -0.17253166 -0.78755939
-11.717424 -16.599976 2.4655762
-2.557466 -0.54130971 -0.81859779
-11.740306 -16.615837 2.9818349
-2.7371449 -0.85932404 -0.81736708
-11.407028 -16.006409 3.3893442
-2.983181 -1.2951959 -0.82422727
-11.408159 -15.984518 3.8899205
-3.2431347 -1.7548506 -0.81312037
-11.353927 -15.865589 4.3704333
-3.5730259 -2.3381081 -0.79786062
-11.26973 -15.694151 4.8391995
-4.040905 -3.130332 -0.78060889
-1.1911364 1.9061131 -0.27038515
-4.5965385 -4.1056561 -0.74069005
-1.1947924 1.9001484 -0.26065618
-5.4977713 -5.6887255 -0.69898176
-1.2072054 1.8784004 -0.25888771
-6.6516314 -7.7131667 -0.5955227
-1.2036144 1.88552 -0.24206132
-9.4656372 -12.656325 -0.46930462
-1.8949764 0.64357018 -0.78670514
-11.649112 -16.477816 -0.077228718
-1.9517225 0.54417509 -0.7781589
-11.728183 -16.592638 0.43098497
-2.0089233 0.44423261 -0.76431197
-11.721305 -16.556503 0.93457723
-2.0831118 0.31411892 -0.75663382
-11.74919 -16.581291 1.4423932
-2.1164992 0.25724232 -0.71798271
-11.76125 -16.578058 1.9543415
-2.3728497 -0.19736426 -0.79640007
-11.794136 -16.6113 2.4696374
-2.5662351 -0.53857589 -0.81927383
-11.821032 -16.633839 2.9880972
-2.7535112 -0.8680321 -0.82095349
-2.9709363 -1.2501894 -0.81591517
-11.473392 -15.979185 3.8936634
-3.2281849 -1.7020904 -0.80458391
-11.497886 -15.997706 4.4082341
-3.5693121 -2.3015208 -0.79342252
-11.352626 -15.721001 4.852941
-1.2030566 1.886713 -0.29602545
-4.0558968 -3.1194921 -0.78080946
-4.5434771 -3.9685931 -0.7273972
-1.1950728 1.9023879 -0.25982922
-5.4956398 -5.6302233 -0.69590849
-1.204869 1.8854752 -0.25565571
-6.6732807 -7.6824174 -0.59555876
-1.2075216 1.8813788 -0.24441437
-9.4721508 -12.565137 -0.46861577
-1.9179771 0.61382365 -0.80144501
-11.665958 -16.378399 -0.078610182
-1.9559002 0.54872084 -0.77761108
-11.774261 -16.543316 0.42902541
-2.00968 0.45556569 -0.76124424
-11.797182 -16.559202 0.93484604
-2.0486565 0.38892859 -0.73104095
-11.831173 -16.594246 1.4444005
-2.1535845 0.20539334 -0.73644096
-11.84129 -16.587423 1.9571946
-2.373487 -0.18141362 -0.79303277
-11.879283 -16.629057 2.4747374
-2.5726175 -0.53045487 -0.81857085
-11.899333 -16.639347 2.9926045
-2.7281158 -0.80146575 -0.80612028
-11.755092 -16.364824 3.4651358
-2.9871502 -1.2545106 -0.81843752
-11.724991 -16.288349 3.9655378
-3.2370074 -1.6902407 -0.80392128
-10.97994 -14.977408 4.1659226
-3.5534911 -2.2421556 -0.78534144
-11.997638 -16.70903 5.1285558
-4.068881 -3.1051631 -0.78054065
-1.1899239 1.9136498 -0.2668463
-4.5867062 -4.0011659 -0.73263645
-1.1988792 1.8983252 -0.26243687
-5.5021429 -5.5873756 -0.69411916
-1.2087581 1.8813928 -0.25813818
-6.6738844 -7.6152525 -0.59357363
-1.2051195 1.8885069 -0.24135351
-9.4762163 -12.470574 -0.46782339
-1.9256083 0.61176616 -0.80377096
-11.73924 -16.377823 -0.080192126
-1.9434329 0.58271289 -0.76469409
-11.851115 -16.547596 0.42839891
-2.0066495 0.47348112 -0.75560367
-11.876168 -16.56683 0.93536985
-2.0598633 0.38216329 -0.73478752
-11.91333 -16.606878 1.4463929
-2.1976173 0.14204638 -0.75878984
-11.926473 -16.605104 1.9609443
-2.3835962 -0.18229823 -0.79475987
-11.959636 -16.637888 2.4786775
-2.574157 -0.51386636 -0.81554741
-11.983736 -16.654833 2.998745
-2.7701023 -0.85402489 -0.82062221
-11.796001 -16.30719 3.4587896
-2.984911 -1.226339 -0.81386977
-12.006234 -16.64374 4.0476179
-3.2741594 -1.7280586 -0.81276184
-11.602568 -15.926492 4.4031758
-3.6562939 -2.3909016 -0.81135052
-4.0818043 -3.0908022 -0.78027302
-4.5584764 -3.9093866 -0.7242465
-1.200044 1.8989992 -0.26246899
-5.4994469 -5.5290203 -0.69103992
-1.2171701 1.8693863 -0.26470494
-6.6721439 -7.5447206 -0.59139174
-1.2099559 1.882782 -0.24448147
-9.4817915 -12.379579 -0.46712673
-1.9277431 0.61945295 -0.80171436
-11.752378 -16.273195 -0.081565499
-1.9382036 0.60355568 -0.75727117
-11.937137 -16.567144 0.42814565
-2.0082104 0.48313457 -0.75317723
-11.961321 -16.584513 0.93641478
-2.0871909 0.34727055 -0.74872154
-11.988629 -16.607115 1.4474187
-2.259186 0.048909042 -0.79113531
-12.008855 -16.617271 1.9641308
-2.3966029 -0.18818019 -0.79801834
-12.043156 -16.651554 2.4832888
-2.5930169 -0.52767706 -0.82088482
-12.200342 -16.895714 3.0411155
-2.7404151 -0.78083217 -0.80410367
-11.863595 -16.295439 3.4611011
-2.960017 -1.1590252 -0.80070943
-11.956529 -16.429462 4.0068293
-3.2653232 -1.6853067 -0.80620456
-11.559095 -15.727807 4.3608699
-3.6740279 -2.3897929 -0.81285959
-12.088974 -16.604696 5.1148868
-4.087759 -3.0666523 -0.77856755
-4.5876961 -3.9200239 -0.72700036
-1.1975671 1.9059166 -0.25906408
-5.5071344 -5.4922228 -0.68963879
-1.209309 1.8859342 -0.25657016
-6.6713514 -7.480454 -0.58944821
-1.2092704 1.8866508 -0.24296556
-9.4823475 -12.286709 -0.46625435
-1.9249376 0.63505298 -0.79599524
-11.262467 -15.315657 -0.080944218
-1.9391071 0.61277443 -0.75465029
-12.013008 -16.576183 0.42766696
-2.0037642 0.50245833 -0.7468825
-12.038325 -16.595158 0.93708867
-2.0849416 0.36362442 -0.74407649
-12.071807 -16.627953 1.4500146
-2.0834138 0.36902297 -0.68589467
-12.087068 -16.629351 1.9672109
-2.3677397 -0.12218514 -0.77934831
-2.5920513 -0.50798064 -0.81691915
-2.7694299 -0.8114568 -0.81314886
-12.386047 -17.062599 3.6100547
-3.0285511 -1.2555341 -0.82339299
-11.853403 -16.13459 3.9481976
-3.181453 -1.5149727 -0.77502978
-11.667724 -15.795914 4.3833456
-3.6850109 -2.3788147 -0.81265634
-11.404683 -15.326989 4.7729545
-1.2095015 1.8863745 -0.29804015
-4.0965338 -3.045393 -0.77735925
-4.6321564 -3.9539647 -0.73244631
-1.1996077 1.9050195 -0.25995505
-5.5160027 -5.4546561 -0.6882751
-1.2123284 1.8834721 -0.25823748
-6.6810303 -7.4307876 -0.58841968
-1.2123103 1.8841581 -0.24454722
-9.4849787 -12.19247 -0.4654482
-1.9130501 0.66692621 -0.78297299
-11.51535 -15.626434 -0.083195493
-1.9711962 0.56845433 -0.77472782
-12.094335 -16.586452 0.4271673
-2.0080423 0.5071609 -0.7463854
-12.122833 -16.610481 0.93801254
-2.0810306 0.38344866 -0.7382409
-12.152428 -16.636213 1.451689
-2.0640178 0.41556171 -0.67162424
-2.0480118 0.44583571 -0.60772115
-2.6080685 -0.51663041 -0.82086861
-12.245836 -16.71998 3.020179
-2.7628155 -0.77906817 -0.80669111
-12.149753 -16.532949 3.5148289
-3.0281003 -1.2307472 -0.81957412
-12.243062 -16.665104 4.0686212
-3.3178031 -1.7231934 -0.81668109
-12.783796 -17.548632 4.8187499
-3.6927686 -2.3604956 -0.81134838
-11.824343 -15.911476 4.9398108
-4.1002617 -3.0178285 -0.77518129
-4.6464643 -3.9385862 -0.7323662
-1.2042933 1.8993965 -0.26342201
-5.5132151 -5.4007139 -0.68543679
-1.2116423 1.8873055 -0.25663567
-6.687767 -7.3804231 -0.58724505
-1.2125264 1.8864268 -0.24380529
-9.4866533 -12.103265 -0.46466678
-1.8997808 0.70016348 -0.76920813
-11.413537 -15.340508 -0.083992183
-1.9665051 0.58749157 -0.76798391
-12.17558 -16.603527 0.42687291
-2.0110452 0.51332986 -0.7452364
-12.202191 -16.623972 0.93883485
-2.0335214 0.47726178 -0.70541656
-2.185231 0.21937029 -0.73837823
-12.467241 -17.020391 2.0125401
-2.0570045 0.44216004 -0.60990506
-2.6148343 -0.51038015 -0.82062173
-2.765372 -0.7639361 -0.80441147
-12.20072 -16.498272 3.5126917
-3.03585 -1.2216121 -0.81910086
-11.978613 -16.102013 3.9517777
-3.3079545 -1.680899 -0.81010258
-11.285272 -14.919672 4.1807237
-3.698637 -2.3409419 -0.80973536
-4.1118565 -3.0017014 -0.77468157
-4.6628103 -3.9242487 -0.7325089
-1.216331 1.8813411 -0.2737661
-5.5104713 -5.344337 -0.6824894
-1.2110063 1.8911742 -0.25503564
-6.693903 -7.3256693 -0.5859226
-1.2100186 1.8935162 -0.24074279
-9.5026665 -12.033306 -0.46456045
-1.9128547 0.68844301 -0.77592045
-11.445295 -15.27513 -0.085392006
-1.9781033 0.57909 -0.77294028
-12.25724 -16.613163 0.42634183
-2.0181501 0.51314455 -0.7466718
-12.288091 -16.64035 0.9398151
-2.0301516 0.49523196 -0.70017087
-12.525895 -17.013391 1.4834806
-2.1077173 0.36551505 -0.69080269
-12.577727 -17.049414 2.5475812
-2.6240344 -0.50717974 -0.82132035
-12.303948 -16.568169 3.0030808
-2.7753301 -0.7602976 -0.80508661
-2.9942806 -1.1274762 -0.79994398
-12.048916 -16.094576 3.9557002
-3.2594547 -1.5720304 -0.79073334
-12.220118 -16.353952 4.5389328
-3.7122738 -2.3328452 -0.8101235
-1.1961493 1.9174238 -0.28023154
-4.1223698 -2.9838486 -0.773947
-4.6729813 -3.8996096 -0.73151278
-1.2111694 1.8929832 -0.26778513
-5.5125513 -5.2966075 -0.6802578
-1.2149585 1.8871577 -0.25752121
-6.7131023 -7.2932391 -0.58586192
-1.2112013 1.8942236 -0.24077658
-9.5039387 -11.939352 -0.46374124
-1.9429623 0.64788771 -0.79580116
-11.514819 -15.273165 -0.086956874
-1.9859523 0.57721937 -0.7751469
-12.38229 -16.694487 0.42757326
-2.0195014 0.52277726 -0.74424517
-12.364912 -16.64097 0.93997955
-2.0479999 0.47700518 -0.70811814
-2.2295806 0.17198904 -0.7570504
-12.469036 -16.764275 1.9892758
-2.2666214 0.11234536 -0.7132898
-26.840042 -40.541206 5.6973267
-2.6352093 -0.50729531 -0.82295102
-12.067134 -16.049614 2.9231369
-2.771323 -0.7330758 -0.79988277
-12.164766 -16.186485 3.4630673
-3.0043242 -1.1214725 -0.8002317
-3.3544748 -1.7059968 -0.81832391
-12.282133 -16.330536 4.5398011
-3.7157564 -2.3076921 -0.80768669
-4.1258736 -2.9585629 -0.77197832
-4.6808987 -3.8762569 -0.73045534
-1.2140403 1.8904953 -0.26953429
-5.5117712 -5.2505169 -0.67794794
-1.2104627 1.8972331 -0.25264752
-6.7154369 -7.2405443 -0.58444142
-1.2131793 1.8932613 -0.24158102
-9.5029125 -11.853634 -0.46292764
-1.9282625 0.6824891 -0.78129363
-11.510098 -15.161638 -0.088058069
-1.9712496 0.61220449 -0.76151246
-12.460942 -16.7125 0.42732304
-2.0221295 0.52877849 -0.7430886
-12.449698 -16.669245 0.94156152
-2.0594938 0.46833459 -0.71245265
-12.681445 -17.027117 1.4865857
-2.1369598 0.340487 -0.70166153
-12.540817 -16.769897 1.9916446
-2.2238259 0.19718063 -0.68844283
-12.497463 -16.673555 2.5027926
-2.2374277 0.17726433 -0.63374543
-12.433574 -16.543571 3.0063355
-2.7711446 -0.71492749 -0.79674757
-12.184783 -16.109911 3.4527004
-3.0655417 -1.2038656 -0.81995058
-12.471892 -16.556242 4.0668311
-3.2646224 -1.5321256 -0.78608954
-12.283477 -16.222372 4.5190501
-3.7215991 -2.2903128 -0.8063345
-11.689562 -15.225767 4.7794309
-4.1353025 -2.9412465 -0.7712183
-4.6846361 -3.8437386 -0.72847724
-1.2068868 1.9051628 -0.26182997
-5.5069199 -5.1951585 -0.67495209
-1.2208639 1.8821939 -0.2608546
-6.7202225 -7.1886072 -0.58316457
-1.2142929 1.8939354 -0.24161337
-9.5039396 -11.766541 -0.46218044
-1.9136618 0.71716672 -0.76678956
-11.586788 -15.178342 -0.089596495
-1.9854617 0.59885675 -0.76852828
-12.543082 -16.728224 0.42696166
-2.0066245 0.56587106 -0.72970194
-12.521409 -16.667858 0.94161588
-2.0625558 0.4746494 -0.71139789
-2.2034347 0.24148488 -0.73626423
-2.2802415 0.11605018 -0.71464735
-2.2262723 0.20916402 -0.62600112
-12.467911 -16.481094 2.9998746
-2.80158 -0.74678874 -0.80623454
-12.661604 -16.772087 3.5829852
-3.0488982 -1.1542311 -0.81049579
-12.525019 -16.524067 4.06529
-3.3545332 -1.6575708 -0.81203955
-11.462696 -14.769938 4.1672611
-3.7291811 -2.2741466 -0.80528849
-11.620729 -15.003406 4.7250085
-4.1444092 -2.919415 -0.77003843
-4.6965504 -3.8201571 -0.72770351
-1.2080994 1.905902 -0.26186556
-5.507494 -5.1434164 -0.67246193
-1.2184094 1.8892479 -0.25762147
-6.7322025 -7.1415353 -0.58237171
-1.2174346 1.8915322 -0.24319927
-9.513586 -11.683393 -0.4617759
-1.9338052 0.69456846 -0.7786392
-11.629052 -15.124476 -0.091139331
-2.007093 0.57465744 -0.78038341
-12.634139 -16.742979 0.42647409
-1.9681245 0.64218414 -0.70086545
-12.614458 -16.686045 0.94269985
-2.0789895 0.46008888 -0.71816409
-12.853683 -17.050892 1.4906477
-2.2167196 0.23383231 -0.74034023
-12.888956 -17.082756 2.0291233
-2.3169291 0.070474699 -0.73016512
-12.668814 -16.699646 2.5122356
-2.779671 -0.6891557 -0.79347754
-12.542581 -16.444643 3.5259101
-3.0382543 -1.1124016 -0.8029418
-12.276641 -15.989247 3.9546468
-3.3555822 -1.6315213 -0.80878055
-12.678728 -16.614332 4.6292439
-3.737246 -2.2553239 -0.8040061
-11.650088 -14.928506 4.7119832
-4.1526423 -2.9003835 -0.76904279
-1.2043701 1.913944 -0.27076018
-4.7041607 -3.794467 -0.72648633
-1.2128868 1.9003649 -0.26533657
-5.5000086 -5.0848188 -0.66917038
-1.2204713 1.8883717 -0.2584722
-6.7427692 -7.0999012 -0.58167714
-1.2166539 1.8953792 -0.24168262
-9.5169096 -11.601602 -0.46117449
-1.9209065 0.7259593 -0.76559442
-11.624157 -15.007817 -0.092314675
-2.0098667 0.58076435 -0.77914524
-12.71455 -16.754644 0.42599648
-1.9824452 0.62875861 -0.7074433
-12.695836 -16.69939 0.94351906
-2.0899515 0.45338568 -0.72191405
-27.406219 -40.485817 3.3484745
-2.1995003 0.2751084 -0.72772181
-2.2248025 0.23627286 -0.68028557
-12.509725 -16.324034 2.4645269
-12.617534 -16.473211 3.0064297
-2.7432063 -0.61059409 -0.77521515
-12.588039 -16.400545 3.5221207
-3.0650334 -1.1351558 -0.80958956
-12.382175 -16.04446 3.9721262
-3.3643825 -1.621492 -0.80844158
-3.7457137 -2.2408371 -0.80324423
-11.747206 -14.976289 4.7320051
-4.155448 -2.8706431 -0.76665229
-4.7148008 -3.7715206 -0.72568268
-1.2215043 1.8887107 -0.27225101
-5.4935064 -5.0255351 -0.66591203
-1.2207228 1.890672 -0.25768983
-6.749527 -7.0487771 -0.58054215
-1.2292833 1.8771752 -0.25101727
-9.5190964 -11.513316 -0.46048576
-1.9341472 0.71444851 -0.77231747
-11.639588 -14.918369 -0.093658909
-2.0099838 0.59187162 -0.77585
-12.798449 -16.76392 0.42540538
-1.98042 0.64308274 -0.70307517
-12.782812 -16.713785 0.94440001
-2.0933423 0.45996317 -0.72087276
-27.471247 -40.307293 3.3367801
-2.1674075 0.34109065 -0.70676792
-12.66922 -16.481262 1.9688138
-2.2529883 0.20368046 -0.69170523
-12.382304 -15.99635 2.4233599
-12.77327 -16.598248 3.0307217
-2.7864258 -0.66203755 -0.7897712
-12.784199 -16.590343 3.563266
-2.7917573 -0.66664541 -0.70642203
-12.382835 -15.923871 3.9515116
-3.3862038 -1.6312014 -0.8120749
-12.668114 -16.354258 4.5783563
-3.7528329 -2.2224803 -0.80193919
-13.637822 -17.873245 5.5409021
-4.1663198 -2.8521934 -0.76594758
-1.2057434 1.9168952 -0.26992661
-4.7253351 -3.7462158 -0.72471952
-1.2087098 1.9126457 -0.25938642
-5.5121651 -5.0045385 -0.66601568
-1.2238779 1.8883356 -0.25936329
-6.7555418 -6.9932828 -0.57925713
-1.226748 1.8842828 -0.24795553
-9.5316763 -11.437216 -0.46027732
-1.9361025 0.72223896 -0.77026588
-11.671336 -14.849172 -0.095158562
-1.9584488 0.68806309 -0.73605686
-12.887944 -16.77421 0.42478049
-1.9390728 0.72215152 -0.6729269
-12.872235 -16.72406 0.94507658
-2.105989 0.45210209 -0.72524565
-13.137165 -17.122065 1.4996321
-2.2327394 0.24824502 -0.73976237
-2.3262885 0.098983482 -0.72563165
-2.1847446 0.33205369 -0.59643459
-2.8376627 -0.72457683 -0.80729973
-12.951295 -16.723583 3.5940483
-3.0166049 -1.010321 -0.78507817
-12.051526 -15.270842 3.8143768
-3.327894 -1.5095005 -0.79004353
-13.10038 -16.908329 4.7231455
-3.7616863 -2.2053189 -0.80094123
-12.501134 -15.933951 5.0125713
-4.1723356 -2.8320293 -0.76468801
-1.207651 1.915983 -0.27085793
-4.7326155 -3.7228718 -0.72366279
-1.2238169 1.8901522 -0.27232021
-5.5195446 -4.9740372 -0.66499299
-1.2230279 1.8921089 -0.25775874
-6.7681036 -6.959506 -0.57890421
-1.2316679 1.8786626 -0.25108874
-9.5303593 -11.355491 -0.45954043
-1.9469491 0.71365803 -0.77551329
-11.636411 -14.694084 -0.096098661
-1.9615927 0.69224495 -0.73549217
-12.966569 -16.788715 0.42439735
-2.0195279 0.60053742 -0.7226994
-12.947612 -16.733475 0.94568408
-2.100724 0.47131014 -0.71938133
-27.767925 -40.235176 3.3358612
-2.172425 0.35780257 -0.70376146
-13.199524 -17.082474 2.0372951
-2.3644898 0.049899876 -0.74216133
-12.780971 -16.394083 2.4828022
-12.883749 -16.531698 3.0277176
-2.8063228 -0.65654409 -0.7915374
-12.137378 -15.327762 3.3314874
-3.0956149 -1.1184624 -0.81084573
-12.144282 -15.314857 3.829035
-3.3231745 -1.4798757 -0.78572696
-3.7681332 -2.1896081 -0.79987425
-13.007129 -16.623459 5.2108631
-4.1791601 -2.8113112 -0.76345617
-1.2105639 1.913599 -0.27269381
-4.7376642 -3.6938171 -0.72206378
-1.2164282 1.9047004 -0.26461053
-5.5238075 -4.9359999 -0.66342819
-1.2250996 1.8912563 -0.25861079
-6.7693529 -6.9044318 -0.57742065
-1.2308857 1.8825266 -0.24957268
-9.536375 -11.280835 -0.45913059
-1.9796275 0.67045778 -0.79688394
-11.656013 -14.620294 -0.09738607
-1.9886945 0.65827936 -0.75147271
-13.052955 -16.807566 0.42406368
-2.0580659 0.54873949 -0.74476826
-13.038205 -16.759073 0.94714147
-2.1157863 0.45825174 -0.72554135
-13.290446 -17.131861 1.5024865
-2.1493723 0.40684888 -0.68834251
-30.413944 -44.085072 4.9381232
-2.1786816 0.3624559 -0.64621025
-12.981579 -16.59417 2.5127287
-2.3885357 0.02827722 -0.68442869
-12.95263 -16.523466 3.0302086
-2.8392987 -0.69123292 -0.80189019
-3.1081622 -1.1175281 -0.81225687
-12.574737 -15.880383 3.9588323
-3.3984656 -1.5769987 -0.80647838
-12.825881 -16.24865 4.5722923
-3.7773938 -2.1767621 -0.79939818
-4.18995 -2.7950678 -0.76296335
-1.2144954 1.9097509 -0.27543432
-4.7404261 -3.6590757 -0.71992141
-1.2166243 1.9069624 -0.26378495
-5.5248728 -4.8904591 -0.66132003
-1.2224417 1.8982134 -0.25537318
-6.7740726 -6.8517776 -0.57617992
-1.2252957 1.8942611 -0.24418092
-9.5465288 -11.208137 -0.4588939
-1.9794356 0.68135095 -0.7933647
-11.737205 -14.637518 -0.099076793
-1.9607189 0.71389848 -0.72887474
-13.140729 -16.820606 0.42352968
-2.0711646 0.53911054 -0.75008422
-13.126993 -16.773783 0.9480418
-2.1302366 0.4470832 -0.73111337
-31.401665 -45.391239 3.7507277
-2.166091 0.39242586 -0.69463265
-12.989724 -16.508234 1.9797858
-2.2489731 0.26279348 -0.678608
-13.300261 -16.968605 2.5665193
-2.2722397 0.22856721 -0.62911499
-13.085773 -16.607983 3.0481246
-2.857404 -0.70059192 -0.80594772
-13.206487 -16.770533 3.6175745
-3.1233997 -1.119501 -0.81443852
-12.633417 -15.852522 3.9586325
-3.4213979 -1.588158 -0.81045187
-12.8762 -16.205177 4.5685482
-3.7863178 -2.1617322 -0.79866278
-13.232268 -16.732302 5.2571959
-4.1985445 -2.7754579 -0.76199663
-4.749423 -3.6344471 -0.71892709
-1.2158555 1.910754 -0.26209849
-5.5278568 -4.8483396 -0.65949953
-1.2274706 1.8927636 -0.25868332
-6.7817602 -6.804235 -0.57523251
-1.2274524 1.8934506 -0.24499284
-9.5530882 -11.130434 -0.4584977
-1.9693209 0.70800698 -0.78251827
-11.711911 -14.487603 -0.10020349
-1.9364167 0.76297313 -0.70902562
-13.228688 -16.833294 0.42297786
-2.0410683 0.59849834 -0.72765738
-13.232165 -16.81336 0.95023364
-2.1335988 0.45375106 -0.73007643
-31.515398 -45.257179 3.7429092
-2.1982484 0.35369828 -0.70927823
-13.054339 -16.485914 1.9795108
-2.259042 0.2600413 -0.68083674
-13.008065 -16.388979 2.491178
-2.2554598 0.26861092 -0.61903358
-2.8505158 -0.67020321 -0.79989618
-13.252798 -16.717588 3.6126404
-3.1292157 -1.106475 -0.81324369
-12.643994 -15.75016 3.9420252
-3.4518068 -1.6108775 -0.81674069
-12.943388 -16.187878 4.5713577
-3.7973015 -2.1500325 -0.79849643
-13.129454 -16.449116 5.1866484
-4.2070513 -2.7558389 -0.7610302
-4.7572374 -3.6081433 -0.71774125
-1.2256103 1.8977096 -0.26988053
-5.5424738 -4.8247342 -0.6592772
-1.2335021 1.8857944 -0.26281321
-6.7838163 -6.7483191 -0.57378972
-1.2237297 1.9020126 -0.24115041
-9.560358 -11.054496 -0.45815092
-1.977897 0.70466655 -0.78559178
-11.721547 -14.393479 -0.101515
-1.9438791 0.76107126 -0.71123171
-13.316842 -16.845615 0.42240852
-2.0480332 0.59846997 -0.72910082
-13.337672 -16.852489 0.95240247
-2.1491649 0.44107744 -0.73625511
-31.624262 -45.116158 3.7345424
-2.2306402 0.31514412 -0.72393179
-13.109188 -16.448345 1.9776042
-2.2639587 0.26549467 -0.68050915
-13.025951 -16.294851 2.4815388
-13.123055 -16.419483 3.0255947
-2.8235295 -0.60853803 -0.78583097
-13.245098 -16.58177 3.5917726
-3.0969825 -1.0337965 -0.79852176
-12.655127 -15.649533 3.9257867
-3.4558513 -1.591873 -0.81478393
-3.7997146 -2.1249609 -0.79605788
-13.168718 -16.38689 5.1776261
-4.2135258 -2.7351108 -0.75979877
-4.7649841 -3.5841751 -0.7167151
-1.232484 1.889256 -0.2750802
-5.5471077 -4.7884974 -0.65785378
-1.227815 1.897326 -0.25711662
-6.7829447 -6.6918077 -0.57219642
-1.229745 1.8949263 -0.24506378
-9.5616827 -10.9751 -0.45757121
-1.9543666 0.75149357 -0.76520413
-11.776769 -14.376866 -0.1030096
-1.9551213 0.75268799 -0.71618932
-13.402906 -16.861446 0.4219662
-2.091259 0.54075938 -0.75377482
-13.423841 -16.868191 0.95334882
-2.1552782 0.44275606 -0.73701477
-31.687292 -44.923401 3.7218869
-2.2360835 0.31865972 -0.72410071
-13.676985 -17.205584 2.0612578
-2.2653875 0.27562231 -0.678635
-13.154116 -16.377666 2.4957461
-2.7067859 -0.4122375 -0.81551164
-13.53859 -16.941275 3.1151309
-2.8378608 -0.61324662 -0.7886104
-13.522994 -16.891182 3.6563466
-3.1146505 -1.0410911 -0.8018145
-12.688475 -15.59054 3.9183888
-3.3771088 -1.4454823 -0.78738028
-13.00045 -16.041716 4.5487771
-3.8098063 -2.1137295 -0.79586971
-14.777897 -18.723024 5.8389006
-4.2194862 -2.7099185 -0.75814611
-4.7670765 -3.5472021 -0.71440858
-1.2376124 1.8839786 -0.27856404
-5.5583696 -4.7573824 -0.65708786
-1.2290525 1.8981301 -0.2571553
-6.7794657 -6.6249804 -0.57020199
-1.2270322 1.9019568 -0.24199857
-9.5650434 -10.889448 -0.45702505
-1.9341034 0.79380369 -0.74702501
-11.850885 -14.376383 -0.10477168
-1.9437052 0.78109223 -0.70530224
-13.490383 -16.864191 0.42109507
-2.1068697 0.52833122 -0.76040095
-13.524557 -16.890894 0.95467627
-2.1630573 0.44326261 -0.73839682
-31.792198 -44.76004 3.7119119
-2.2463439 0.31616575 -0.7265206
-13.233822 -16.396057 1.9762831
-2.2685041 0.28456819 -0.67729378
-13.288332 -16.453957 2.5094912
-2.8670001 -0.63860601 -0.7969079
-13.496882 -16.719749 3.6289885
-3.1409867 -1.059114 -0.80777955
-12.683485 -15.460084 3.8958697
-3.3737524 -1.4147251 -0.78311962
-40.009201 -56.822884 14.77841
-3.8160028 -2.0931716 -0.79430729
-12.204588 -14.68642 4.7180767
-1.2137792 1.9222437 -0.28351033
-4.2272825 -2.6953239 -0.75757527
-4.7736483 -3.5262527 -0.71351033
-1.2395759 1.8831058 -0.27945656
-5.5635118 -4.7277999 -0.65602267
-1.239838 1.883384 -0.26537651
-6.7814922 -6.5806899 -0.56909907
-1.2369291 1.8886079 -0.24901438
-9.5697727 -10.826624 -0.45671552
-1.9708346 0.74445957 -0.77133483
-11.925546 -14.401633 -0.10625231
-1.9412489 0.79294395 -0.70127743
-13.572298 -16.887064 0.42091125
-2.0988219 0.55020875 -0.75278533
-13.603312 -16.90863 0.95571208
-2.2015846 0.39325464 -0.75839299
-31.85145 -44.599655 3.7014983
-2.2552688 0.31282294 -0.72889936
-13.282959 -16.371059 1.9753785
-2.2691514 0.29423204 -0.67539763
-13.348619 -16.445395 2.5109758
-13.492557 -16.637775 3.0734093
-2.8804576 -0.64381963 -0.79966301
-3.0849528 -0.95493478 -0.78546405
-12.87506 -15.654361 3.9439695
-3.4697587 -1.5428441 -0.81017166
-40.088066 -56.626278 14.748434
-3.8212306 -2.0779219 -0.79321837
-12.098905 -14.43673 4.6544161
-1.2234885 1.9096404 -0.29204696
-4.2373934 -2.6767869 -0.75687599
-4.7830696 -3.5009856 -0.71254742
-1.2467082 1.8748355 -0.28466487
-5.5755873 -4.6983614 -0.65540361
-1.2460544 1.8765546 -0.26951331
-6.7938681 -6.539063 -0.56858742
-1.2351997 1.8940891 -0.24672544
-9.576745 -10.747838 -0.45637351
-1.9937674 0.71945858 -0.78468639
-12.002142 -14.403901 -0.10805677
-1.9795072 0.74396569 -0.72419459
-13.663399 -16.894152 0.42012644
-2.0640845 0.61571616 -0.72776383
-13.694573 -16.915541 0.95622158
-2.229248 0.36351183 -0.77121824
-31.948322 -44.426006 3.6907096
-2.2498901 0.33457628 -0.72296208
-13.511456 -16.58791 2.0011516
-2.2764013 0.2966885 -0.67610651
-13.469391 -16.499136 2.5217359
-2.2758446 0.3004162 -0.61619806
-13.038607 -15.826414 2.9443612
-2.8767576 -0.61817145 -0.79488581
-3.0928974 -0.94500345 -0.78503162
-13.050983 -15.795203 3.9818068
-3.5043619 -1.5696589 -0.81749433
-12.114315 -14.368703 4.1496325
-3.8272526 -2.0573716 -0.7916559
-12.132622 -14.372585 4.6445427
-1.217868 1.9207188 -0.28546876
-4.236949 -2.6461167 -0.75421339
-4.7618351 -3.4338632 -0.70651674
-1.2341517 1.896827 -0.27264142
-5.5774012 -4.6588836 -0.65368414
-1.2392801 1.8895731 -0.26299518
-6.8018856 -6.4978161 -0.56787807
-1.2373129 1.8932782 -0.24753733
-9.5843163 -10.680476 -0.45614982
-12.082982 -14.424719 -0.10975187
-2.0605104 0.62875611 -0.77609193
-13.752391 -16.911945 0.41969681
-2.1017463 0.56801385 -0.7485854
-13.783707 -16.933201 0.95727175
-2.2282972 0.37660784 -0.76777536
-14.009645 -17.246105 1.5208715
-2.2374213 0.36548138 -0.71365482
-13.5655 -16.554504 1.9996426
-2.2935445 0.28253618 -0.68191963
-13.613832 -16.601303 2.5387676
-13.491964 -16.393641 3.0418479
-2.9148192 -0.65861577 -0.80696619
-3.1579301 -1.0244412 -0.80489391
-13.178727 -15.875713 4.0056257
-3.5193803 -1.569175 -0.81915808
-14.250088 -17.443756 4.9302354
-3.8371172 -2.0460892 -0.791471
-1.2305359 1.9037417 -0.29684311
-4.2479553 -2.6292348 -0.7537533
-4.7444334 -3.3689051 -0.70092702
-1.2422788 1.88706 -0.27871245
-5.5792189 -4.6145182 -0.65174687
-6.8138704 -6.4562201 -0.56736541
-1.2385647 1.8941126 -0.24757767
-9.5949593 -10.608505 -0.45601463
-12.163203 -14.431339 -0.11160941
-2.0666687 0.63060588 -0.77694672
-13.847183 -16.923252 0.41899419
-2.1288681 0.5383265 -0.76232773
-13.87421 -16.937704 0.95765758
-2.233171 0.38215062 -0.76736349
-32.135719 -44.107353 3.6710873
-2.2486646 0.36143485 -0.71663535
-13.395952 -16.17436 1.9608276
-2.3189154 0.25763097 -0.69134861
-14.182949 -17.318163 2.640276
-31.092035 -42.370361 7.3371477
-2.9261346 -0.65577126 -0.80810553
-3.1552329 -0.99791121 -0.80070508
-13.177962 -15.750943 3.9845159
-3.4998043 -1.5134784 -0.80994582
-3.8429689 -2.0255308 -0.78990895
-1.2316797 1.9045097 -0.29687989
-4.259141 -2.6145535 -0.75350535
-4.7799501 -3.385828 -0.70474452
-1.2395201 1.893903 -0.27530408
-5.5818348 -4.5743289 -0.65006155
-6.8207941 -6.4106746 -0.56650364
-1.2407568 1.8933644 -0.24839252
-9.598547 -10.53146 -0.45559049
-1.2517976 1.8772316 -0.24283379
-12.235061 -14.431287 -0.11335357
-2.0064459 0.73259985 -0.73360497
-13.936578 -16.933107 0.41830063
-2.1402376 0.53228104 -0.76637155
-13.965966 -16.950722 0.95847732
-2.2208731 0.41294077 -0.75730509
-14.191719 -17.258766 1.5244339
-2.2458315 0.37803671 -0.71235478
-13.36833 -16.015375 1.9458023
-2.322737 0.26485094 -0.6905154
-14.268198 -17.31839 2.6437893
-2.2782819 0.33475986 -0.61021018
-31.185331 -42.221855 7.3230691
-2.9228735 -0.63206291 -0.80373645
-3.1812193 -1.0159552 -0.80666959
-13.162313 -15.612245 3.9598854
-3.5306809 -1.5355165 -0.81626797
-3.8512735 -2.0104237 -0.78917873
-12.885235 -15.155865 4.889184
-1.235588 1.900768 -0.29974771
-4.2641354 -2.5944104 -0.75224763
-4.8080645 -3.3956699 -0.70754057
-1.253459 1.8750077 -0.28654253
-5.5863428 -4.5424118 -0.64888382
-6.8177843 -6.3572779 -0.56494272
-1.2428154 1.8925307 -0.24920337
-9.5984354 -10.459173 -0.45507151
-1.2528834 1.8779644 -0.24286912
-12.314644 -14.454783 -0.11500815
-1.9762429 0.78694183 -0.71094584
-14.023915 -16.95377 0.4179666
-2.1395354 0.54322439 -0.76328635
-14.056792 -16.976194 0.95992804
-2.2257171 0.41621062 -0.75746238
-14.292385 -17.296753 1.5285817
-2.2454498 0.38936585 -0.70972526
-31.337273 -42.315151 4.804122
-2.2990258 0.31181666 -0.67683536
-14.355614 -17.336098 2.6493075
-2.9271801 -0.62207896 -0.80271465
-12.862782 -15.09754 3.3450089
-3.197437 -1.0215949 -0.80958736
-13.231857 -15.61276 3.9656057
-3.5406046 -1.5288165 -0.81659091
-13.558431 -16.064253 4.6051021
-3.8635476 -2.0045257 -0.78982788
-14.352097 -17.194696 5.4731936
-4.2738075 -2.5758381 -0.75155038
-1.2285737 1.9147469 -0.27762544
-4.8369875 -3.4000869 -0.71005321
-1.2477827 1.8864226 -0.2805509
-5.5953808 -4.5097451 -0.64796841
-6.8212671 -6.3042016 -0.56372511
-1.2399873 1.899521 -0.24613629
-9.6046238 -10.382461 -0.45476562
-1.258309 1.8726541 -0.24584803
-12.397566 -14.463729 -0.11692906
-2.0444236 0.69485044 -0.75323361
-14.12266 -16.96887 0.4173243
-2.1407309 0.55318797 -0.76087654
-14.148935 -16.981234 0.96034259
-2.2134874 0.44709536 -0.74740827
-32.381767 -43.601681 3.6392775
-2.2481344 0.39815477 -0.70824426
-14.41649 -17.31916 2.0919054
-2.3202455 0.29351586 -0.68422073
-14.449082 -17.339865 2.653574
-12.81796 -14.938894 2.8181753
-2.9209483 -0.59323019 -0.79709047
-14.421072 -17.244961 3.7691398
-3.2055387 -1.0113442 -0.80916989
-13.296456 -15.585515 3.9662843
-3.5491834 -1.5158379 -0.81598598
-13.655643 -16.081043 4.6174855
-3.8691678 -1.9839565 -0.78826725
-4.2755642 -2.5529923 -0.74978578
-1.2245508 1.922802 -0.27313691
-4.8463278 -3.3840609 -0.70973605
-1.2397648 1.9006137 -0.27282411
-5.6119175 -4.4984412 -0.64851344
-6.8286676 -6.2701073 -0.5632112
-1.2429944 1.8971117 -0.24772225
-9.5993776 -10.308546 -0.45405746
-1.2582986 1.8749005 -0.24514754
-12.468954 -14.480348 -0.11848056
-2.0817065 0.64758629 -0.77546787
-14.207034 -16.991123 0.41706687
-2.1459637 0.55447203 -0.76166117
-14.235683 -17.006639 0.96178424
-2.2126038 0.4580403 -0.74454111
-14.460761 -17.307631 1.5318415
-2.2644989 0.38375115 -0.71453601
-31.504562 -42.025257 4.7828794
-2.3542547 0.25354338 -0.69823784
-14.536804 -17.364164 2.659848
-12.922296 -14.999602 2.8316665
-2.9695408 -0.64999115 -0.81339598
-3.2256451 -1.0237702 -0.81358325
-13.346168 -15.563452 3.9666433
-3.5572896 -1.5079058 -0.81595838
-12.315185 -14.051908 4.1088924
-3.8773053 -1.9736021 -0.78803778
-14.438871 -17.086109 5.460042
-4.2873058 -2.537694 -0.74956828
-1.2306691 1.9161837 -0.27769494
-4.8505344 -3.3521814 -0.70800346
-1.2379739 1.9059522 -0.2702778
-5.6218443 -4.4674139 -0.64774609
-1.2889723 1.8306992 -0.29767132
-6.8407402 -6.2303004 -0.56279379
-1.2390901 1.9056082 -0.24387665
-9.6036854 -10.230373 -0.45368963
-1.2523305 1.8865991 -0.24005049
-12.549932 -14.485354 -0.12041862
-2.0972781 0.63551748 -0.7825461
-14.302804 -17.000523 0.41626793
-2.1492097 0.56129652 -0.76054525
-14.33955 -17.027384 0.96301669
-2.2161362 0.46509728 -0.74352348
-32.541798 -43.286285 3.6195867
-2.2596295 0.4037073 -0.70914739
-31.582958 -41.840832 4.7686138
-12.816975 -14.755386 2.3047931
-2.360311 0.2612505 -0.63669437
-2.9764729 -0.64048159 -0.81285238
-13.009832 -14.985089 3.3383894
-3.211602 -0.98099047 -0.8056224
-12.201312 -13.801442 3.5775282
-3.5691113 -1.4997796 -0.81635153
-12.231468 -13.821973 4.057786
-3.8872375 -1.9595668 -0.78762084
-4.286581 -2.504385 -0.74671614
-1.2238672 1.9288321 -0.27050143
-4.8568401 -3.3236027 -0.70665669
-1.2422116 1.9023011 -0.27290547
-5.6350279 -4.4413099 -0.647421
-1.2403448 1.9057325 -0.25752193
-6.8492079 -6.1855741 -0.56207478
-9.6110086 -10.157232 -0.45348006
-1.2536045 1.8874806 -0.24009316
-12.637897 -14.499869 -0.12242109
-2.104497 0.63594836 -0.78409928
-14.401048 -17.012775 0.41552621
-2.1588123 0.55873787 -0.7633124
-14.429979 -17.027983 0.96320295
-2.2228601 0.46743113 -0.74431533
-14.663942 -17.337187 1.5369471
-2.2719712 0.39823815 -0.7126947
-31.704983 -41.720047 4.7612906
-2.5076063 0.056410633 -0.76491249
-12.870798 -14.718118 2.302994
-2.7851143 -0.34563494 -0.81544626
-13.007684 -14.89016 2.8223515
-2.3709962 0.26216108 -0.57776004
-13.092899 -14.987633 3.3444772
-3.2629061 -1.033857 -0.81993264
-12.273832 -13.7967 3.5827084
-3.5719676 -1.4786136 -0.81409007
-14.303894 -16.661697 4.7883463
-3.8993556 -1.9487723 -0.7877773
-12.265557 -13.739183 4.5269547
-4.2902985 -2.4848604 -0.74542838
-4.8648024 -3.3059335 -0.70614684
-1.2289752 1.9238654 -0.26086128
-5.6343241 -4.4053445 -0.64575952
-1.2628195 1.8747108 -0.27478367
-6.8504419 -6.1433339 -0.561055
-1.2474684 1.897966 -0.24861467
-9.6070385 -10.086905 -0.45286733
-1.2556418 1.8866327 -0.24086101
-12.7109 -14.517275 -0.12402326
-2.1074111 0.64026427 -0.78354162
-14.495166 -17.047153 0.4155286
-2.162976 0.56163687 -0.76345253
-14.512748 -17.045832 0.96425217
-2.2153914 0.48779103 -0.73782796
-14.746388 -17.35273 1.5392735
-2.2884841 0.38399637 -0.7189942
-31.743116 -41.545429 4.7467971
-2.5118985 0.061754648 -0.76457977
-2.8223417 -0.38605249 -0.82878536
-13.07619 -14.897983 2.8271456
-2.388109 0.24787588 -0.58258384
-13.533624 -15.522964 3.4538352
-3.2742927 -1.0331094 -0.82133621
-12.157035 -13.547285 3.531379
-3.5721202 -1.4592797 -0.81174046
-14.157504 -16.355644 4.7170353
-3.8983653 -1.9253416 -0.78526092
-11.990169 -13.26635 4.3986483
-4.2995119 -2.4662876 -0.74473208
-4.8731546 -3.2806411 -0.70518726
-1.2443774 1.9038148 -0.2729786
-5.6415291 -4.3710752 -0.644696
-1.2486758 1.8982043 -0.26251847
-6.8630762 -6.1052208 -0.56073642
-1.2487047 1.8988327 -0.24865653
-9.6102123 -10.009026 -0.45248699
-1.2569151 1.8875241 -0.24090409
-12.791201 -14.519635 -0.12600344
-2.1103773 0.64692461 -0.78233087
-14.585796 -17.047131 0.41447628
-2.1693943 0.56382108 -0.76428074
-14.612688 -17.058786 0.96508318
-2.2155581 0.49954674 -0.73500025
-14.85081 -17.36973 1.5420377
-2.3031228 0.37549356 -0.72366589
-31.833025 -41.38031 4.7346501
-2.4990149 0.09520714 -0.75556344
-2.8361809 -0.38822719 -0.83141053
-13.454747 -15.317513 2.9017503
-13.529484 -15.398087 3.4351556
-3.2521245 -0.9790988 -0.81072748
-12.192474 -13.491243 3.5249708
-3.5736516 -1.4365374 -0.80914551
-3.9092348 -1.9128934 -0.78513288
-12.048712 -13.244372 4.4005985
-4.3069983 -2.448864 -0.74398059
-4.8783178 -3.255084 -0.70396757
-1.2454571 1.9045764 -0.27301544
-5.6474094 -4.3400846 -0.64370126
-1.2373644 1.9170054 -0.25270635
-6.8737717 -6.0708003 -0.56041986
-1.2498025 1.8996053 -0.24869382
-9.607563 -9.9326134 -0.45190156
-1.2601587 1.8852595 -0.24241249
-12.871533 -14.533975 -0.12784186
-2.0849986 0.6933192 -0.76311982
-14.681363 -17.067846 0.41401994
-2.1558192 0.59360802 -0.75343382
-14.711835 -17.084242 0.96654731
-2.2215712 0.50145245 -0.73577142
-14.942807 -17.383007 1.5443594
-2.307301 0.380788 -0.72328603
-31.930016 -41.258316 4.7265692
-2.4940269 0.11533701 -0.75062907
-14.993547 -17.399767 2.6828406
-2.8179994 -0.34633386 -0.82087362
-13.399599 -15.135762 2.8754969
-13.687124 -15.514086 3.4631846
-3.2960396 -1.0226314 -0.82275361
-13.541937 -15.285818 3.9364393
-3.5760477 -1.4179589 -0.80717033
-3.9140601 -1.8949637 -0.78381026
-12.493244 -13.772305 4.5590672
-4.3109741 -2.4265714 -0.74250901
-4.8845158 -3.2311668 -0.70294249
-1.2465351 1.9053398 -0.27305239
-5.6473951 -4.3009748 -0.64196563
-1.2550198 1.893755 -0.26587683
-6.8912544 -6.0461626 -0.56071079
-1.2550967 1.8943253 -0.25184363
-9.6126623 -9.8677282 -0.4516955
-1.2612944 1.8860648 -0.24245135
-12.95088 -14.54636 -0.12968764
-2.0261521 0.78731382 -0.72245604
-14.774826 -17.084915 0.413468
-2.1756263 0.57517916 -0.76266152
-14.803116 -17.097908 0.96739936
-2.2177641 0.51745123 -0.73111117
-15.034988 -17.395964 1.5466627
-2.3081605 0.39081329 -0.72122973
-31.98488 -41.077789 4.7120867
-2.3459606 0.33968216 -0.67936277
-15.100893 -17.433296 2.6910155
-2.8163445 -0.32844141 -0.81736976
-13.296192 -14.888423 2.838201
-3.0031803 -0.59075218 -0.80873835
-15.484425 -17.912188 3.9409306
-3.2916405 -0.99686074 -0.8185299
-3.5817657 -1.404235 -0.80619234
-12.594187 -13.840427 4.0963626
-3.9222295 -1.881892 -0.78334785
-12.499944 -13.686363 4.5421038
-4.3191223 -2.4085665 -0.74178571
-1.2370998 1.9207023 -0.27791327
-4.896183 -3.2130656 -0.70272654
-1.2373767 1.9209666 -0.26446027
-5.6483345 -4.2611065 -0.64026737
-1.2572405 1.893099 -0.26673859
-6.9008074 -6.0074482 -0.56024158
-1.2541666 1.8981876 -0.25032783
-9.6137638 -9.7932711 -0.45128441
-1.2646297 1.883875 -0.24396327
-13.034491 -14.557955 -0.13165949
-2.0520597 0.75969625 -0.73644572
-14.875379 -17.104069 0.41289485
-2.0481081 0.76776397 -0.68379545
-14.896807 -17.107168 0.96803093
-2.2218504 0.52270842 -0.73068631
-15.138947 -17.417397 1.5497439
-2.3081951 0.40263113 -0.71862471
-15.162459 -17.422558 2.1224198
-2.3494508 0.3469204 -0.67853081
-15.199224 -17.446156 2.6965878
-2.3712823 0.31885716 -0.62800932
-3.0183973 -0.59430218 -0.8115747
-3.2922175 -0.97714907 -0.81583571
-12.699767 -13.907936 3.6367507
-3.5926251 -1.3964883 -0.80656654
-12.60583 -13.755149 4.0816622
-3.9299259 -1.8666763 -0.78262401
-1.2548696 1.8970419 -0.30769712
-4.328002 -2.3899689 -0.74109173
-1.2331527 1.9288464 -0.27342904
-4.9017773 -3.1845441 -0.70137811
-1.2457809 1.911456 -0.27054363
-5.660676 -4.2350583 -0.63994026
-1.2511609 1.9044487 -0.26103342
-6.9023027 -5.9547358 -0.55900955
-1.2564615 1.8975674 -0.25114918
-9.6165867 -9.7174053 -0.45094103
-1.2648417 1.8863164 -0.24327235
-13.067451 -14.492437 -0.13334389
-2.1313648 0.65725064 -0.78436315
-14.978375 -17.118732 0.4121443
-2.1280973 0.66447973 -0.7286725
-14.998741 -17.120066 0.96886271
-2.2273209 0.52663636 -0.73087639
-15.230245 -17.413269 1.550854
-2.3129349 0.40839773 -0.7182678
-32.165119 -40.769932 4.6899529
-2.396841 0.29291391 -0.69777775
-14.149589 -15.868102 2.4815056
-2.699311 -0.13009971 -0.76251024
-13.819794 -15.38855 2.9312873
-3.0182946 -0.57512808 -0.80849129
-12.932436 -14.143286 3.2092099
-3.2898459 -0.95226014 -0.81202489
-12.840325 -13.993476 3.6627998
-3.5995173 -1.3818272 -0.80563402
-12.527575 -13.541353 4.0343089
-3.9382734 -1.8509375 -0.78192598
-12.691779 -13.743109 4.5753531
-4.3421392 -2.3822069 -0.7417863
-4.9111557 -3.1654916 -0.70093584
-1.2437242 1.9166462 -0.26799053
-5.6671391 -4.2057796 -0.6390903
-1.2532911 1.9037378 -0.26189262
-6.9006739 -5.9041657 -0.55767405
-1.2575618 1.8983624 -0.25118768
-9.6242399 -9.6576204 -0.45089102
-1.2713457 1.8795443 -0.24698988
-13.045006 -14.363082 -0.13444793
-2.0989542 0.71253836 -0.76098424
-15.068952 -17.129776 0.4114204
-2.1873279 0.59056634 -0.76123744
-15.095282 -17.139072 0.96999466
-2.2178097 0.55034167 -0.72319216
-15.326489 -17.429907 1.5534918
-2.3325965 0.39180985 -0.72572529
-2.3911264 0.31262848 -0.69282335
-14.201737 -15.832871 2.4799464
-2.6732218 -0.079397045 -0.74912232
-13.671947 -15.082188 2.8840358
-2.2814577 0.4718183 -0.53074604
-3.2862263 -0.92822403 -0.80817312
-12.470071 -13.392214 3.5318484
-3.6039295 -1.3664768 -0.80432385
-12.641802 -13.603768 4.0571551
-3.9497442 -1.8426507 -0.78232688
-1.260102 1.8943076 -0.31061351
-4.3504381 -2.3663578 -0.74127787
-1.2300234 1.9375902 -0.26897383
-4.9169521 -3.1415911 -0.69991022
-5.6734772 -4.1765189 -0.63823897
-1.2490981 1.9119606 -0.25782305
-6.9082003 -5.8665957 -0.55715072
-1.2639949 1.8916522 -0.25511956
-9.6257515 -9.5898027 -0.45056105
-1.2660259 1.8894718 -0.24261624
-13.072582 -14.303485 -0.13593428
-2.0422893 0.80124408 -0.72236383
-15.169131 -17.153381 0.41097957
-2.1886992 0.59857935 -0.75945663
-15.187315 -17.151224 0.9707709
-2.23036 0.54296529 -0.7275905
-9.1130085 -8.8229675 0.85842401
-2.3378255 0.3956089 -0.72590911
-2.3965809 0.3165912 -0.69301528
-15.504882 -17.502438 2.71576
-2.7761693 -0.20884819 -0.78928947
-15.749816 -17.807869 3.3476837
-2.2876327 0.47388938 -0.53134763
-3.2893825 -0.91379291 -0.80659199
-12.574993 -13.442414 3.5490706
-3.6094286 -1.3527271 -0.80334729
-3.9553938 -1.8263091 -0.78129321
-1.2622911 1.8937255 -0.31160194
-4.3571434 -2.3466988 -0.74031663
-1.23624 1.9310898 -0.2735374
-4.9259319 -3.1202292 -0.69930708
-1.2479699 1.9152772 -0.26979393
-5.6796274 -4.1448436 -0.63727844
-1.2470443 1.9172357 -0.2553978
-6.9134455 -5.8231707 -0.55637079
-1.2662528 1.8910202 -0.2559405
-9.6313648 -9.5237741 -0.4504118
-1.2693856 1.8873208 -0.24413003
-13.118178 -14.262717 -0.13764602
-1.9821099 0.89437163 -0.68165886
-15.268213 -17.167639 0.41024786
-2.1892216 0.60833549 -0.75703752
-15.287666 -17.166958 0.97174382
-2.2265589 0.55907905 -0.72293591
-2.3265293 0.4230268 -0.71770543
-9.0135212 -8.6033764 1.1605439
-2.4532597 0.25030339 -0.71639419
-16.148321 -18.250727 2.8240204
-2.7572973 -0.16725791 -0.77873808
-14.161419 -15.534674 2.9692483
-12.915208 -13.82619 3.1616778
-12.882261 -13.758727 3.6275389
-3.6155014 -1.3385156 -0.80239284
-12.828875 -13.663676 4.0868182
-3.9663417 -1.8158551 -0.78143454
-1.2685125 1.8873692 -0.31637579
-4.3582678 -2.3212242 -0.73836178
-4.9232931 -3.0851073 -0.69691449
-1.2553232 1.9072516 -0.27501452
-5.6727161 -4.0979371 -0.63478786
-1.2502166 1.9150413 -0.25707883
-6.9076109 -5.7679515 -0.55471998
-1.2705967 1.8873562 -0.25831711
-1.2716026 1.8866429 -0.24490635
-9.0486355 -8.6483984 -0.1063709
-2.0210721 0.8485021 -0.70396101
-9.2412109 -8.8937225 0.21758795
-2.2015986 0.60100019 -0.76174301
-9.1181107 -8.7116537 0.53168613
-2.2290862 0.56567162 -0.72189683
-9.071414 -8.6332054 0.84457839
-2.3418143 0.41281894 -0.72293019
-9.0559464 -8.5968962 1.1612213
-14.26718 -15.597916 2.4575102
-2.8098025 -0.22516358 -0.79778636
-14.439824 -15.804709 3.0193455
-12.967679 -13.802301 3.1619503
-2.2697861 0.52284521 -0.46715629
-12.84638 -13.61662 3.6010296
-3.6208868 -1.3247631 -0.80141711
-3.9730403 -1.8010988 -0.780689
-13.183578 -14.021034 4.6882024
-1.279981 1.8739431 -0.32588929
-4.3706713 -2.3095741 -0.7386077
-4.9320536 -3.063767 -0.69631088
-1.2437999 1.9256487 -0.26468694
-5.685648 -4.0759654 -0.63471854
-1.2534683 1.9129117 -0.2587626
-6.9040956 -5.713407 -0.55321801
-1.2739543 1.8852587 -0.25991833
-9.1063385 -8.6738672 -0.42491382
-1.2749869 1.8845209 -0.24642195
-9.092967 -8.64048 -0.10762949
-2.1343915 0.70130259 -0.77270174
-9.0871229 -8.6171846 0.21057552
-2.1965151 0.61841977 -0.75608039
-9.1305246 -8.6602144 0.52909523
-2.2307591 0.57402462 -0.72026324
-9.0812664 -8.578743 0.84094673
-2.3540938 0.40757653 -0.72648907
-9.103878 -8.593647 1.1623516
-2.5434966 0.15117708 -0.75236404
-14.369331 -15.623686 2.4647229
-2.809139 -0.20872809 -0.79475784
-15.823902 -17.5418 3.3183014
-2.4499915 0.28520593 -0.58589387
-13.083349 -13.856761 3.1781733
-12.986155 -13.704058 3.6274509
-3.6291761 -1.3137219 -0.80113018
-12.854651 -13.505944 4.0603461
-3.9815576 -1.7874088 -0.78025693
-1.2750171 1.8834225 -0.32024992
-4.3783092 -2.2915115 -0.73788851
-4.9324131 -3.0312366 -0.69433916
-1.2448834 1.9264559 -0.26472604
-5.6984911 -4.0539637 -0.63465029
-1.2567338 1.9107983 -0.26044738
-6.8907681 -5.6461282 -0.55089092
-1.2708223 1.8921114 -0.25684464
-9.1471434 -8.6609306 -0.42647797
-1.2761958 1.8854212 -0.24646552
-9.1217585 -8.6115532 -0.10876857
-2.1445572 0.69717592 -0.77633375
-9.1099062 -8.5802736 0.20911232
-2.2069793 0.61441892 -0.75950068
-9.1379042 -8.6023941 0.52617162
-2.2335222 0.5808357 -0.71923441
-9.1052275 -8.5434875 0.83887184
-2.3539226 0.41941753 -0.72388518
-32.633183 -39.79966 5.8535199
-2.8199184 -0.20797206 -0.79643393
-13.792886 -14.69754 3.3514242
-3.6327338 -1.2963209 -0.79950988
-12.550024 -13.005184 3.9376435
-3.9853103 -1.7673395 -0.77867436
-1.2771823 1.8828443 -0.32123864
-4.3815155 -2.2692633 -0.73641539
-1.2508645 1.9197407 -0.2827453
-4.9412289 -3.0122004 -0.69389755
-1.2459013 1.9272182 -0.26476306
-5.6981993 -4.0168004 -0.63304925
-1.2524168 1.9189525 -0.25637472
-6.8900909 -5.5992198 -0.54973972
-1.2708486 1.8944329 -0.25610566
-9.1884279 -8.6524916 -0.42809278
-1.2729312 1.8922688 -0.24356082
-9.1617661 -8.601572 -0.10995243
-2.1467049 0.70347416 -0.77510649
-9.1414623 -8.5591354 0.20804667
-2.2070987 0.62396204 -0.75707215
-9.1443205 -8.5476446 0.52340257
-2.221262 0.60737693 -0.71032965
-9.1223497 -8.5032263 0.83634615
-2.3704746 0.4078294 -0.72967875
-32.702778 -39.7066 4.6116962
-2.3695552 0.41198346 -0.6692735
-15.995748 -17.559505 2.7432539
-2.8406861 -0.22155923 -0.80233181
-13.636333 -14.416392 2.7978897
-2.4567585 0.30001646 -0.58460581
-13.869374 -14.699469 3.3572357
-2.3178391 0.49007636 -0.47833675
-13.981153 -14.822072 3.8972063
-3.6391246 -1.2841418 -0.79886812
-3.9906366 -1.7509849 -0.77764171
-1.293983 1.862427 -0.33549505
-4.3866062 -2.2480268 -0.73521262
-1.2424777 1.9335124 -0.27463078
-4.9401207 -2.9781432 -0.69172716
-5.7036247 -3.9852405 -0.63208413
-1.2513617 1.9227234 -0.25477022
-6.892972 -5.5545301 -0.54884177
-1.2600095 1.9116324 -0.24757347
-9.241272 -8.6552191 -0.43023688
-1.2752211 1.8916659 -0.24434073
-12.991129 -13.601791 -0.14316379
-2.1357186 0.72808069 -0.76556927
-9.186923 -8.5524178 0.20727278
-2.2130871 0.62610596 -0.75789851
-9.1741095 -8.5201969 0.52205992
-2.2239091 0.61414647 -0.70929897
-9.1387815 -8.458353 0.8334915
-2.3805599 0.40581453 -0.73212367
-32.792873 -39.566387 4.6020255
-2.4627016 0.29829144 -0.70867389
-32.81636 -39.537693 5.8335457
-2.5740113 0.15187851 -0.69148898
-13.748725 -14.46075 2.8100104
-16.049746 -17.451109 3.9140756
-2.3442945 0.46575567 -0.4853673
-13.543794 -14.14416 3.7480328
-3.6389973 -1.2620146 -0.7962445
-12.853328 -13.218206 4.0074248
-4.0013394 -1.7404425 -0.77778774
-1.2722074 1.894537 -0.31469041
-4.3848362 -2.2194719 -0.73276973
-1.2381849 1.9414436 -0.27013624
-4.9415426 -2.9495893 -0.6901086
-1.2501369 1.9258983 -0.26656902
-5.7090273 -3.9561205 -0.63122731
-1.2523913 1.9235036 -0.25480807
-6.8822165 -5.4950123 -0.54686075
-1.2632636 1.909477 -0.24917188
-9.6319351 -9.1066628 -0.44826454
-1.2707986 1.8999789 -0.24069801
-9.4167681 -8.8074551 -0.11388922
-2.1041927 0.77950656 -0.74353594
-9.2365847 -8.5549154 0.20674206
-2.2187872 0.6280542 -0.7587164
-9.2200909 -8.5179377 0.52202463
-2.2319376 0.61305779 -0.71128446
-9.1918917 -8.4656715 0.83483779
-2.3960874 0.39590573 -0.73736268
-32.869041 -39.423634 4.5917349
-2.4323103 0.3504203 -0.69288212
-2.8736017 -0.23566453 -0.81038994
-14.020114 -14.717598 2.8581228
-2.4305687 0.35860661 -0.5713973
-14.500799 -15.319001 3.4928315
-12.869467 -13.17168 3.5299785
-3.639338 -1.2419617 -0.79393154
-12.921041 -13.216028 4.0139222
-4.0089273 -1.7272403 -0.77733296
-12.75444 -12.9769 4.4264278
-4.3904924 -2.1976781 -0.73159385
-1.2403444 1.9408482 -0.27108318
-4.9482622 -2.924438 -0.68914497
-1.2491314 1.9296678 -0.26488179
-5.7128315 -3.9206042 -0.63000089
-1.2491922 1.9302344 -0.25155997
-6.8811321 -5.4430828 -0.54559267
-1.2655655 1.9089166 -0.24999624
-9.6433535 -9.0476627 -0.44844741
-1.2731427 1.8994286 -0.24148048
-9.4284821 -8.75072 -0.11497741
-1.9829943 0.95129067 -0.66602409
-15.972876 -17.276793 0.40515667
-2.2046382 0.65770411 -0.74786305
-9.2881556 -8.5363913 0.52307957
-2.2325518 0.62311512 -0.70905435
-16.242065 -17.571632 1.5776575
-2.4042599 0.39731079 -0.73870224
-2.430192 0.36581451 -0.68949193
-16.320999 -17.617208 2.763788
-2.3899376 0.42213517 -0.61279845
