# .PCD v0.7 - Point Cloud Data file format
VERSION 0.7
FIELDS x y z
SIZE 4 4 4
TYPE F F F
COUNT 1 1 1
WIDTH 1471
HEIGHT 1
VIEWPOINT 0 0 0 1 0 0 0
POINTS 1471
DATA ascii
-2.552228 6.0687904 0.23944937
-1.9150548 4.5377007 -0.70838618
-1.979393 4.6912336 -0.63228214
-2.0186124 4.8348484 0.32945797
-2.1165049 5.02777 -0.64781249
-1.1575112 2.8033702 -0.31564742
-2.0431323 4.8618126 -0.5450772
-2.0586944 4.9013205 -0.48803324
-1.1744533 2.8446629 -0.28500479
-1.179275 2.8563616 -0.27726811
-1.9746644 4.7195978 -0.21773773
-1.1980231 2.8998172 -0.284376
-1.9677224 4.7066059 -0.15849571
-1.2058232 2.9184048 -0.27797696
-1.9696956 4.7143879 -0.10054772
-1.2240632 2.9608986 -0.28090918
-1.953038 4.6786423 -0.041932296
-1.2273822 2.9693615 -0.26808539
-1.824867 4.3399582 -0.75433278
-1.956702 4.6935196 0.07353285
-1.8545449 4.4110107 -0.72418487
-1.9124627 4.5471878 -0.71070993
-1.9989376 4.7494583 -0.70971155
-2.5072999 5.9998169 0.41622812
-1.9694695 4.6849012 -0.63013411
-1.9945333 4.79562 0.32283086
-2.1866438 5.2127361 -0.68965518
-1.1569812 2.8054423 -0.3167322
-2.0396574 4.8739767 -0.54708338
-2.0527894 4.9081259 -0.48884991
-1.1716905 2.8419535 -0.28324687
-1.1858644 2.8751848 -0.28668055
-1.1965284 2.9004524 -0.28441074
-1.9632347 4.7150307 -0.15892452
-1.1961758 2.9004335 -0.26956937
-1.9628479 4.7173052 -0.10070726
-1.2209034 2.9581921 -0.27949914
-1.9494281 4.6888762 -0.042075939
-1.2249358 2.9683588 -0.26744419
-1.9503398 4.6941776 0.015575303
-1.8175266 4.3389654 -0.75319481
-1.9476063 4.6908779 0.07308697
-1.853807 4.4258575 -0.72847545
-1.9451125 4.6881733 0.13101621
-1.9006891 4.5375652 -0.70702422
-1.9153252 4.5746746 -0.65955949
-1.9549396 4.6699257 -0.62571251
-1.9759922 4.7712364 0.31844327
-2.1861675 5.2363062 -0.69440031
-1.1699421 2.8386729 -0.33895656
-2.024143 4.8591871 -0.54359293
-1.157881 2.8117528 -0.30660316
-2.4950039 5.9768925 -0.58460832
-2.4907098 5.9717245 -0.49243906
-1.1717107 2.8458264 -0.28506869
-1.1800523 2.8658566 -0.28159776
-1.1978414 2.9078369 -0.28768867
-1.1953247 2.9027991 -0.27037361
-1.2198746 2.9606504 -0.28026462
-1.9469159 4.702961 -0.042222299
-1.2246237 2.9725721 -0.26884735
-1.9470379 4.7064238 0.015657507
-1.8210661 4.3642216 -0.76161933
-1.9420011 4.6975832 0.073113643
-1.8541298 4.4443798 -0.73395979
-1.9364386 4.6875029 0.13056597
-1.8870914 4.5245171 -0.70224869
-1.9167867 4.5971718 -0.66525471
-1.9263678 4.6228228 -0.6130482
-2.1588759 5.1925697 -0.68384111
-1.1836157 2.8734398 -0.36223733
-2.0146067 4.8546543 -0.54227316
-2.4794493 5.9662247 -0.58262253
-2.4759398 5.9628363 -0.4910498
-1.1712387 2.8479626 -0.2859903
-1.1795344 2.8680334 -0.28247935
-1.1950617 2.905036 -0.2860989
-1.1925466 2.8999577 -0.2688686
-1.216933 2.9578416 -0.27884892
-1.2238553 2.9749329 -0.26956302
-1.9494925 4.7292404 0.016064091
-1.8240218 4.3855925 -0.76874816
-1.941397 4.7129993 0.073647581
-1.8554366 4.462471 -0.73942173
-1.9304957 4.689992 0.13042961
-1.894243 4.5569725 -0.7116971
-1.9290709 4.6897373 0.1881168
-1.9102216 4.597826 -0.66488528
-1.9233222 4.6790648 0.24468765
-1.9022889 4.5822544 -0.60218179
-2.1058986 5.0895596 -0.65967453
-1.2022793 2.9208369 -0.39398277
-2.0292866 4.9102964 -0.5530926
-1.1521597 2.8048122 -0.3015697
-2.3298817 5.6331444 -0.61574161
-1.157618 2.8182862 -0.29635811
-2.4657669 5.9633331 -0.58176279
-2.4660959 5.9690762 -0.49152112
-1.1684945 2.8452291 -0.28423098
-2.459497 5.9581623 -0.39985055
-1.178844 2.8702817 -0.2833643
-2.4651062 5.9766111 -0.3106584
-1.1949804 2.9090312 -0.28775442
-1.1982653 2.9175787 -0.27658182
-1.2210808 2.9722638 -0.28468591
-1.2228718 2.9773784 -0.27028328
-1.9418528 4.7302504 0.015858052
-1.8158371 4.3828335 -0.76697159
-1.8551769 4.4791231 -0.74430776
-1.9260349 4.698329 0.13070336
-1.8840404 4.5507956 -0.70910323
-1.9276426 4.7054214 0.18928425
-1.9058855 4.6059132 -0.66654587
-1.9181397 4.6855183 0.24500483
-1.8965118 4.5867634 -0.60278928
-1.983288 4.8183737 -0.59709609
-1.2158992 2.9574547 -0.41833636
-2.0371656 4.9517012 -0.56098807
-1.1555843 2.8164356 -0.30872139
-2.4216366 5.8835583 -0.65940535
-1.1549273 2.815619 -0.29443359
-2.4514904 5.9606438 -0.58091557
-2.4510515 5.9645271 -0.490628
-1.1663868 2.8441639 -0.28336781
-2.4460158 5.9572563 -0.39955384
-1.1794624 2.8758945 -0.28595775
-2.4515793 5.9757099 -0.31050268
-1.196207 2.9164355 -0.29103366
-2.351469 5.7372265 -0.20895913
-1.2016366 2.9301689 -0.28199542
-1.2199922 2.9747281 -0.28545189
-1.2195945 2.9746599 -0.26896191
-2.4461231 5.9821358 0.048929106
-1.8124509 4.3924332 -0.76966453
-1.846355 4.4765625 -0.74267757
-1.8853528 4.5731363 -0.71529102
-1.9212172 4.7102261 0.18931048
-1.8959103 4.6016483 -0.66468894
-1.9110332 4.688448 0.24484415
-1.9015455 4.6183729 -0.61028349
-1.908577 4.6856508 0.30290869
-2.0786195 5.0690269 -0.65384102
-1.2176142 2.9659245 -0.42365846
-2.0329864 4.9619017 -0.56261981
-1.1530704 2.8137414 -0.30671254
-2.4028485 5.8656483 -0.65576255
-1.1524014 2.8128808 -0.2925052
-2.4399948 5.9610577 -0.58058858
-2.4395564 5.9649334 -0.49039304
-1.1665187 2.847971 -0.28518632
-2.4315362 5.950264 -0.3986769
-1.1767251 2.8731055 -0.28428105
-2.4378121 5.9705591 -0.31004333
-1.1919341 2.9102814 -0.28782299
-2.3315852 5.7151365 -0.20790215
-1.1951706 2.9188492 -0.27665171
-2.4336615 5.9701986 -0.13095027
-1.2126448 2.961623 -0.27968743
-1.2194238 2.9787922 -0.27036089
-2.4301393 5.971386 0.048312549
-1.7973638 4.3719749 -0.76150334
-1.8331709 4.461319 -0.73687625
-2.5291123 6.2255344 0.24741882
-1.8931913 4.6094112 -0.72585046
-1.9275215 4.744215 0.19237062
-1.8897014 4.604187 -0.66482842
-1.9220293 4.68571 -0.6269381
-1.9185708 4.7286253 0.30894849
-1.9430153 4.7587032 -0.58252513
-1.2245269 2.9869318 -0.43744043
-2.0265296 4.9666424 -0.56314754
-1.1651776 2.8459878 -0.32709301
-2.427387 5.9536772 -0.67078972
-2.4270175 5.9577713 -0.57970846
-2.4258244 5.9597816 -0.48946711
-1.165256 2.848484 -0.2852143
-2.419353 5.9487524 -0.39834777
-1.1753933 2.873646 -0.28431049
-2.4233358 5.9635096 -0.30944416
-1.1918972 2.914242 -0.28947699
-2.3178346 5.7077742 -0.2075648
-1.1965358 2.9262655 -0.27975744
-2.4214611 5.9686747 -0.13103944
-1.207509 2.9536493 -0.2760964
-2.4103642 5.9461231 -0.04124479
-1.224251 2.9950967 -0.27653021
-2.4134779 5.958725 0.047650266
-1.7780678 4.3409338 -0.74951231
-2.4105809 5.9564276 0.13647658
-1.82008 4.4460211 -0.7310704
-2.5207324 6.2353916 0.24760853
-1.9110558 4.6706533 -0.74409568
-1.8820169 4.6031208 -0.66395891
-1.9015789 4.6540909 -0.61836362
-1.9599767 4.8507271 0.32706115
-1.9175906 4.7161999 -0.57234848
-1.2240524 2.990782 -0.43959501
-2.0137031 4.9569693 -0.56074262
-1.1796532 2.8846986 -0.35155094
-2.4079034 5.9359798 -0.6671592
-2.4134462 5.9546852 -0.57883894
-1.1505475 2.8159037 -0.28033853
-2.412257 5.9566698 -0.48878217
-1.1639137 2.8490252 -0.28524426
-2.4065707 5.9474497 -0.39803043
-1.1746647 2.8758872 -0.28519586
-2.4105189 5.9622059 -0.30926716
-1.1910532 2.9165499 -0.2903218
-2.3043041 5.7024479 -0.20732832
-1.1970651 2.9320219 -0.28209746
-2.4064255 5.9617891 -0.13100763
-1.2051489 2.9525912 -0.27540737
-2.4058161 5.9651918 -0.04145705
-1.2331491 3.0219176 -0.28679308
-2.4096415 5.979661 0.047857732
-1.7793956 4.3608322 -0.756019
-2.4045272 5.9717827 0.1368161
-1.8160965 4.4537916 -0.7329874
-2.5205045 6.2677355 0.24948777
-1.8875656 4.6324215 -0.73162413
-2.5090806 6.2444038 0.34414625
-1.8739579 4.6021929 -0.66309714
-1.9153302 4.707305 -0.63136351
-1.9564395 4.8628139 0.32830593
-1.9071019 4.7077398 -0.57000208
-1.2231216 2.992981 -0.44068724
-2.0421374 5.0472164 -0.57854939
-1.1803293 2.8899889 -0.3546333
-2.4037383 5.9525118 -0.66961896
-2.4018896 5.9528952 -0.57821679
-2.400702 5.9548616 -0.48829788
-1.1593428 2.841223 -0.28079301
-2.3935699 5.9419117 -0.3973158
-1.1761436 2.8830855 -0.28863785
-1.185549 2.9069369 -0.28548482
-2.293447 5.700325 -0.20724559
-1.1942699 2.9291625 -0.28059107
-2.3971183 5.9654961 -0.1312118
-1.2036941 2.9531705 -0.2754395
-2.3906052 5.9540319 -0.041680198
-1.239995 3.0434783 -0.29500905
-2.3966229 5.9740887 0.047409024
-1.7806001 4.3787146 -0.76187408
-2.3989086 5.9847813 0.1370879
-1.8056419 4.4435692 -0.72895133
-2.5148478 6.2828751 0.25011811
-1.8787756 4.6276436 -0.72955787
-2.5093365 6.2743149 0.34656039
-1.9267819 4.7498999 -0.7040571
-2.2850871 5.7112083 0.3726553
-1.9288752 4.7584858 -0.64389169
-1.9529693 4.8727264 0.32928854
-1.9142852 4.7469826 -0.57843196
-1.1949217 2.9292998 -0.39736199
-2.0395806 5.0651407 -0.58167613
-1.178766 2.8906083 -0.35466719
-2.3910525 5.9532843 -0.66921866
-2.3899436 5.9554873 -0.57818484
-1.1494579 2.820137 -0.28226516
-2.3872993 5.9537477 -0.48785204
-1.1626458 2.8533776 -0.28709215
-2.3802192 5.9407701 -0.3970069
-1.1759691 2.8870456 -0.29037866
-1.1791506 2.8957081 -0.27984107
-2.2816162 5.7007084 -0.20728955
-1.1905229 2.9246891 -0.27832159
-2.3800673 5.95504 -0.13109936
-1.2012484 2.9521317 -0.27475211
-2.3772728 5.9528522 -0.04192948
-1.2302432 3.0250936 -0.2875537
-2.3869011 5.982233 0.047262639
-1.769356 4.3688974 -0.75754535
-2.3877041 5.9892111 0.1368438
-1.7962997 4.4390497 -0.72671759
-2.510005 6.3062429 0.2512711
-1.8824177 4.6572247 -0.73794687
-2.50524 6.2994843 0.34836489
-1.9078302 4.7240973 -0.69615173
-2.2718861 5.7078886 0.37149417
-1.9134634 4.7415571 -0.6390034
-1.9496067 4.8868332 0.33080438
-1.9173362 4.7752094 -0.58437479
-1.1481171 2.818212 -0.32229105
-2.0330653 5.0719185 -0.58258438
-1.170841 2.8752253 -0.34451768
-2.0946672 5.2320385 -0.54208946
-2.3749938 5.9485865 -0.5767566
-2.3716357 5.9449549 -0.4864693
-1.1552877 2.838975 -0.2790609
-2.3660543 5.935626 -0.39631471
-1.1724916 2.8825817 -0.28784865
-2.0052674 5.0196114 -0.2393378
-1.1763089 2.892895 -0.27825063
-2.2674603 5.6933794 -0.20695493
-1.193069 2.9355855 -0.28296825
-2.368809 5.957303 -0.13128214
-1.202364 2.9597034 -0.27769035
-2.3602185 5.9402046 -0.042175736
-1.7442145 4.3200111 -0.79288769
-1.7697434 4.3870649 -0.76341641
-1.7993433 4.4645233 -0.73457122
-2.5071595 6.3330708 0.25272152
-1.8728075 4.6527281 -0.73589754
-2.5002394 6.3206892 0.34980747
-1.8880346 4.694438 -0.68722427
-2.2564223 5.6968794 0.36941212
-1.9086044 4.749733 -0.64053309
-1.9480276 4.9044704 0.33288968
-1.9237933 4.8125887 -0.59238875
-2.0093343 5.0347404 -0.57465339
-1.1636524 2.861398 -0.33538398
-2.0855019 5.2334805 -0.54194796
-2.3636978 5.9508476 -0.57670677
-1.1456306 2.8178394 -0.28044525
-2.3610814 5.9490538 -0.48669544
-1.1519899 2.8344991 -0.27640188
-2.3555429 5.9397097 -0.39654014
-1.168375 2.8764186 -0.2844635
-1.1775331 2.9002638 -0.28152791
-2.2555265 5.6915836 -0.20689081
-1.1873868 2.9259109 -0.27838919
-2.3568261 5.9576683 -0.1314185
-1.2006929 2.9603491 -0.27772611
-2.3490236 5.9424047 -0.042402249
-1.7349799 4.313509 -0.78960133
-1.7630732 4.3876209 -0.76290607
-2.3478146 5.9490175 0.13392286
-1.8057423 4.4989119 -0.74539661
-2.5005829 6.3506079 0.25346327
-1.868865 4.6625128 -0.73823905
-2.496558 6.3456173 0.35162541
-1.869132 4.6664839 -0.67879581
-2.2431693 5.6913748 0.36803496
-1.9044142 4.7597122 -0.64252138
-1.9420984 4.9110193 0.33329266
-1.9269242 4.8407402 -0.5983274
-2.1661212 5.4609613 -0.65990484
-2.358022 5.9657669 -0.5785774
-1.1444526 2.8182919 -0.28047007
-2.3561461 5.9658575 -0.48851988
-1.1494522 2.8316467 -0.27463624
-2.352803 5.9621086 -0.39859301
-1.1696866 2.8836651 -0.28790843
-1.9937568 5.0347576 -0.24034852
-1.1767957 2.9025064 -0.28236943
-2.244905 5.6913929 -0.20690368
-1.1865826 2.9281993 -0.27918956
-2.3497746 5.9689541 -0.13180895
-1.1977565 2.9574876 -0.27630761
-2.3413084 5.9518061 -0.042606495
-2.3457203 5.9682064 0.045918066
-1.7567565 4.3880253 -0.76238704
-2.3400974 5.9584131 0.13399716
-1.8109262 4.5296602 -0.75502944
-2.4974504 6.375329 0.25478527
-1.8533905 4.6416826 -0.73123336
-2.4948485 6.3740129 0.35383192
-1.8781919 4.708622 -0.69003224
-2.2326488 5.6911669 0.36737347
-1.8801277 4.7169228 -0.63117445
-1.9400928 4.926651 0.33510652
-1.9517031 4.9255266 -0.61710274
-2.0745368 5.2524843 -0.54454494
-2.3522737 5.9806871 -0.58044791
-2.3546829 5.9919348 -0.49149644
-1.1528029 2.8437662 -0.28093344
-2.3478153 5.9789381 -0.40009329
-1.1703012 2.8892393 -0.29049996
-1.1753819 2.9030473 -0.28239921
-2.2342958 5.6911716 -0.20691499
-1.1810749 2.9184449 -0.27460676
-2.3455184 5.9877033 -0.13237898
-1.1948383 2.954612 -0.27488899
-2.3363967 5.9686708 -0.042802714
-2.3357971 5.9719963 0.045708582
-1.7477033 4.3813343 -0.75931418
-2.3365905 5.9790001 0.13463971
-1.7938702 4.5034666 -0.74564803
-2.4934883 6.3981962 0.25596499
-1.8484492 4.6476889 -0.7324661
-2.4880612 6.3893986 0.35472444
-1.8730772 4.7147198 -0.69117916
-2.2200336 5.68536 0.36601278
-1.8862112 4.7521029 -0.63958585
-1.9366121 4.9385767 0.33635938
-1.9480879 4.9373598 -0.61932206
-1.1377344 2.8058386 -0.31286904
-2.1215832 5.3958826 -0.6458919
-1.1422 2.8180037 -0.3069472
-2.0637197 5.2481413 -0.54342115
-2.3499749 6.0048532 -0.58370137
-1.1433766 2.8224819 -0.28239453
-2.3502614 6.0106068 -0.49355206
-1.1483161 2.8359048 -0.27647954
-2.3469799 6.0069342 -0.40270102
-1.159116 2.864471 -0.2777141
-1.9868062 5.0608873 -0.24217398
-1.1733065 2.9018767 -0.28161725
-2.2258165 5.696517 -0.2071988
-1.1802838 2.920718 -0.27540639
-2.3425803 6.0101948 -0.13303937
-1.19328 2.9552033 -0.27492157
-2.3328102 5.9892759 -0.0429959
-1.7301865 4.3495541 -0.8015449
-2.3336155 5.9963408 0.046029337
-1.7427771 4.385231 -0.76006997
-2.3336825 6.001461 0.13537608
-1.7886083 4.5075016 -0.74636745
-2.491513 6.4266825 0.25756741
-1.8510563 4.6734352 -0.73974323
-2.4833002 6.4103642 0.35617957
-1.8700106 4.7262268 -0.69384015
-2.2081578 5.6813593 0.36488819
-1.885844 4.7709703 -0.64386225
-1.9344571 4.9542112 0.33817214
-1.9199796 4.8872995 -0.60747671
-2.0780706 5.3093328 -0.62802219
-1.1520457 2.8473973 -0.32531115
-2.0582068 5.2607527 -0.54522312
-2.3455801 6.0276651 -0.58670533
-1.1433067 2.8262823 -0.28429714
-2.3444731 6.0297565 -0.49563482
-1.1475768 2.8380919 -0.27740434
-2.3405247 6.0242481 -0.40422904
-1.1680186 2.89203 -0.29141513
-1.9833512 5.0771046 -0.24331342
-1.1723716 2.9041798 -0.28246218
-2.2161655 5.7022734 -0.20750561
-1.1812761 2.9282343 -0.27851766
-2.3368611 6.0294294 -0.13363643
-1.1915243 2.9558632 -0.27495825
-2.3285656 6.0122347 -0.043214057
-1.7273228 4.3606691 -0.80508637
-2.326556 6.0118055 0.046083231
-1.7337565 4.3805208 -0.75764668
-2.3301003 6.0262775 0.13618001
-1.7893763 4.5296535 -0.75304627
-2.4845083 6.4463539 0.25843447
-1.8322232 4.645586 -0.73054898
-2.4791157 6.4374552 0.35816726
-1.8777306 4.7688046 -0.70510077
-2.1951799 5.6777449 0.3637419
-1.8872938 4.7974606 -0.64999664
-1.9251459 4.9534817 0.33744746
-1.8926272 4.836937 -0.59561372
-2.1003914 5.3954096 -0.64479828
-1.1396136 2.818969 -0.30700102
-2.343385 6.0496607 -0.68271971
-2.3409998 6.0483875 -0.5894202
-2.3413005 6.0542498 -0.49839628
-1.1475403 2.8419213 -0.27922359
-2.3339183 6.0394545 -0.40555936
-1.1659021 2.890888 -0.29059124
-1.974015 5.0763187 -0.24320103
-1.1702156 2.9030335 -0.28168112
-2.2258418 5.7583561 -0.2102754
-1.1790431 2.9270952 -0.27778095
-2.3316689 6.0484266 -0.13422063
-1.1905255 2.9582231 -0.27571863
-2.3241255 6.0330887 -0.043421425
-1.7054608 4.3206654 -0.78882647
-2.3228161 6.0345287 0.046341766
-1.7291408 4.3862791 -0.75904727
-2.3235497 6.0415039 0.13652478
-1.7863469 4.5409622 -0.75615084
-2.4780982 6.4657679 0.259316
-1.8349714 4.6732864 -0.73838484
-2.473419 6.4586964 0.35960665
-1.8583741 4.738843 -0.69615674
-2.182802 5.673871 0.36261004
-1.8732774 4.7819004 -0.64554477
-1.9244785 4.9748583 0.34009019
-1.9062192 4.8944855 -0.60818732
-2.1234305 5.4832802 -0.66194117
-1.136596 2.8145812 -0.30396873
-2.3369508 6.0688782 -0.5921222
-2.3365705 6.072937 -0.50045323
-1.1500883 2.8524132 -0.28462741
-2.3299382 6.0600243 -0.40743035
-1.1645193 2.8913968 -0.2906197
-1.97137 5.0921812 -0.24432115
-1.1675103 2.9001346 -0.28008592
-2.2799528 5.9343052 -0.21891455
-1.177561 2.9276407 -0.27781117
-2.3270152 6.0671892 -0.13479219
-1.1902673 2.9622896 -0.27720347
-2.3215895 6.0574722 -0.043613844
-1.6953986 4.3103485 -0.78415918
-2.3250918 6.0720453 0.046994358
-1.7261779 4.3954515 -0.76171756
-2.3182392 6.0583677 0.13697679
-1.7863133 4.5592899 -0.76162696
-2.4736624 6.4886656 0.26049322
-1.8534324 4.7423077 -0.75886238
-2.4676332 6.477808 0.36087322
-1.8666468 4.7811613 -0.70740461
-2.1723819 5.6734734 0.3619583
-1.9086614 4.8974724 -0.6742065
-1.9241414 4.9960871 0.34274086
-1.9231036 4.9633036 -0.623263
-2.0504501 5.3132305 -0.62743866
-1.1347442 2.8134248 -0.30297482
-2.0038269 5.1903448 -0.53183401
-2.3314707 6.0877485 -0.59456086
-2.3311019 6.0918493 -0.50252354
-1.1493599 2.8545833 -0.2855511
-2.3279462 6.0883141 -0.41005442
-1.1605158 2.8851624 -0.28723028
-1.9674864 5.1063442 -0.24531303
-1.1717687 2.916091 -0.28742608
-2.3084874 6.0451269 -0.22436754
-1.1766295 2.9299452 -0.2786127
-2.3250449 6.0955839 -0.13560487
-1.1892383 2.9646492 -0.27796417
-2.3148704 6.0726967 -0.043826014
-1.6916127 4.3177366 -0.7863239
-2.3162889 6.081646 0.046917107
-1.7155643 4.3852081 -0.75736642
-2.3156161 6.0848475 0.137886
-1.7818189 4.5670328 -0.76354337
-2.4717982 6.5212049 0.2623592
-1.8283956 4.6961765 -0.74415457
-2.4610424 6.4971752 0.36212525
-1.8943722 4.8781652 -0.73382175
-2.1580374 5.6639147 0.36013106
-1.9449601 5.0189009 -0.70427084
-1.9171953 5.0007315 0.34286597
-1.9876831 5.1625729 -0.66777658
-2.0106215 5.2294006 -0.61025333
-1.1341782 2.8154597 -0.30401742
-2.3299212 6.1156969 -0.5983727
-2.3261805 6.1105366 -0.5045805
-1.1474576 2.8533704 -0.28468025
-2.3210185 6.1014109 -0.41118756
-1.1616633 2.8924389 -0.29067725
-1.9646845 5.1222143 -0.24643371
-1.1703162 2.9166155 -0.28745544
-2.3125758 6.0882664 -0.22650525
-1.1744998 2.9287543 -0.27787304
-2.320174 6.1143627 -0.1361773
-1.188941 2.9687204 -0.27944928
-2.3127832 6.0989809 -0.044018518
-1.6874785 4.3232307 -0.78779936
-2.3128228 6.1041651 0.047186259
-1.7073312 4.380127 -0.75492311
-2.3121386 6.1073542 0.13861911
-1.777009 4.5728359 -0.76485574
-2.4664302 6.5422459 0.26339459
-1.8212502 4.6967182 -0.74373507
-2.4590948 6.527524 0.36451289
-1.9020195 4.9206753 -0.7450794
-2.1469977 5.6615763 0.3592504
-1.9315672 5.0051193 -0.70027602
-1.9080141 4.9977388 0.34188297
-1.9860764 5.1839352 -0.67208934
-2.0322156 5.3156252 -0.62703872
-2.3215296 6.1271276 -0.59970331
-2.3218567 6.133194 -0.50711417
-1.1436327 2.8471472 -0.28112084
-2.3201082 6.1334791 -0.4141835
-1.1552033 2.8793881 -0.28386724
-1.961993 5.1401367 -0.24770299
-1.1700284 2.9206033 -0.28911123
-2.3103943 6.116642 -0.22792158
-1.1716516 2.9258537 -0.2763651
-2.3145564 6.1333675 -0.13676317
-1.1866033 2.9675798 -0.27875647
-2.3065474 6.1160936 -0.044230048
-1.6784678 4.3164797 -0.7845
-2.3106081 6.132576 0.047584075
-1.7169459 4.4249983 -0.77038264
-2.3065591 6.126339 0.13915104
-1.7750514 4.5877419 -0.76915133
-2.4615715 6.5673056 0.26469594
-1.8071396 4.6793156 -0.73782003
-2.4549401 6.5544043 0.36651108
-1.8687329 4.8524399 -0.72551823
-2.1354191 5.6594009 0.35836029
-1.9343739 5.0372 -0.70779896
-1.9155991 5.0434103 0.34815452
-2.0270991 5.3230104 -0.70294487
-2.0319693 5.3407421 -0.6316334
-1.9997463 5.2547178 -0.54202259
-1.1491139 2.864506 -0.31934828
-2.3210628 6.158823 -0.60407126
-2.319401 6.1593704 -0.51009738
-1.1460469 2.857671 -0.2865265
-2.3150041 6.1521978 -0.41587225
-1.1538539 2.879869 -0.28389403
-1.9543409 5.1428556 -0.24785435
-1.1648188 2.9108167 -0.2842651
-2.3080394 6.1429253 -0.2292341
-1.1663969 2.9159689 -0.27177507
-2.3121655 6.1596851 -0.13751963
-1.1856425 2.9698997 -0.27951482
-2.302206 6.1367435 -0.044426817
-1.6768749 4.3290186 -0.78870559
-2.3068917 6.1551199 0.0478516
-1.7092869 4.4216881 -0.76857805
-2.3021948 6.1469679 0.13978934
-1.766278 4.5827522 -0.76689315
-2.4559774 6.5883522 0.26573041
-1.8137319 4.7177868 -0.74895418
-2.4487162 6.5735235 0.36777639
-1.8277738 4.7602091 -0.69936645
-2.1224473 5.6513643 0.35678482
-1.9276028 5.0416727 -0.70840609
-2.0086806 5.3004599 -0.69731712
-2.0115073 5.3125248 -0.62553477
-1.9966557 5.2746382 -0.54511344
-2.3164573 6.1835432 -0.60735714
-2.3134992 6.1804028 -0.51241398
-1.1476307 2.8665915 -0.29103932
-2.3104725 6.1770201 -0.41814244
-1.1529469 2.8821049 -0.28477892
-1.9503582 5.1590681 -0.24899457
-1.1632016 2.911386 -0.28429696
-2.3035705 6.167799 -0.23048109
-1.1666367 2.9217551 -0.27411693
-2.3076553 6.1845961 -0.13825698
-1.1825831 2.9670258 -0.27809632
-2.299098 6.1654043 -0.044646595
-1.6700926 4.3294134 -0.78814352
-2.2964621 6.1630354 0.04771528
-1.709867 4.4435835 -0.77573752
-2.2970767 6.1699572 0.1404952
-1.7567682 4.5780039 -0.76464856
-2.4494748 6.6117964 0.26687634
-1.8102422 4.7312517 -0.75240135
-2.4448764 6.6044331 0.37013218
-1.815094 4.7482662 -0.69546831
-2.1116736 5.6530495 0.35635352
-1.8957634 4.9786053 -0.69198823
-2.4235153 6.5547771 0.57249999
-1.9718029 5.2200832 -0.67878735
-1.9816761 5.2521591 -0.61311853
-1.1658568 2.9196155 -0.35171545
-2.3130584 6.2057104 -0.61032689
-2.3081632 6.1969948 -0.51422799
-1.1439884 2.8602877 -0.28747553
-2.3064756 6.1973991 -0.42000443
-1.1522825 2.8842516 -0.28565916
-1.9424767 5.1597071 -0.24899645
-1.1630809 2.9152999 -0.28594834
-2.3016021 6.193882 -0.23178264
-1.1671195 2.9274509 -0.27645394
-2.3043349 6.2069292 -0.13891056
-1.176719 2.9552577 -0.27303624
-2.2951777 6.1858339 -0.044831861
-1.6222017 4.2107515 -0.74177969
-2.2932055 6.1853476 0.047995124
-1.7069802 4.4526186 -0.77840066
-2.2938008 6.1922607 0.14123882
-1.7573683 4.5980196 -0.77071428
-2.4470022 6.64013 0.26848522
-1.8079162 4.7442789 -0.7558248
-2.4417586 6.6308336 0.37215665
-1.8597655 4.8945799 -0.7355442
-2.0986993 5.6428518 0.35456097
-1.9154789 5.0562382 -0.71101058
-2.4217825 6.5847521 0.57619584
-1.9538627 5.1973076 -0.6731472
-1.9739485 5.2589903 -0.61403263
-1.9819472 5.2860155 -0.54640841
-1.1642015 2.9201891 -0.35174727
-1.9686749 5.2518024 -0.46835828
-2.3046472 6.2255411 -0.51747131
-1.1431277 2.8624783 -0.28840065
-2.2795441 6.1582499 -0.41596812
-1.1465282 2.8728502 -0.27970123
-1.9390173 5.1777887 -0.25027555
-1.1638832 2.9227583 -0.28923124
-2.2955494 6.2150002 -0.23284623
-1.1672928 2.9332511 -0.27879691
-2.2923915 6.2110615 -0.1391412
-1.1743455 2.9541068 -0.27234301
-2.2898221 6.2088499 -0.045055307
-1.4836743 3.8350413 -0.59632897
-2.287858 6.208354 0.048236113
-1.7142503 4.494215 -0.79259837
-2.2890809 6.2171469 0.1420369
-1.7478518 4.5932283 -0.7684679
-2.4402299 6.6635838 0.26963013
-1.8131697 4.7831478 -0.76698089
-2.4350126 6.6542358 0.37376481
-1.8703592 4.9502897 -0.75036681
-2.085392 5.6369467 0.35320345
-2.4145219 6.606122 0.57845414
-1.9198148 5.1241827 -0.65627038
-1.9287581 5.153965 -0.59273911
-1.1285393 2.8229084 -0.30722016
-1.949434 5.2178755 -0.53424859
-2.2881231 6.2122974 -0.51559043
-1.1412313 2.8612378 -0.28752849
-2.193469 5.9414558 -0.39445049
-1.1469915 2.8784244 -0.2822932
-1.9383671 5.2012091 -0.2519533
-1.1618083 2.9215364 -0.28844658
-2.2868407 6.2243176 -0.23332816
-1.1676207 2.9389911 -0.28113636
-1.1727881 2.9546409 -0.27237287
-2.2837346 6.2257318 -0.045255192
-1.4789975 3.8346574 -0.59572303
-2.2682431 6.1854849 0.047376923
-1.7145488 4.514142 -0.79910862
-2.2855515 6.2415867 0.14285982
-1.7416539 4.5953541 -0.76858652
-2.4354541 6.6884155 0.27094272
-1.7982526 4.7618361 -0.7599504
-2.4315336 6.6827898 0.37596002
-1.8397422 4.8850994 -0.73178375
-2.0757995 5.6381302 0.35279968
-1.8556907 4.9348001 -0.67951238
-2.4124067 6.6382446 0.58241308
-1.9039168 5.1027164 -0.65101647
-1.9165721 5.1435747 -0.59029651
-1.9122148 5.1346378 -0.51948678
-1.1267724 2.8224156 -0.29303348
-1.9635341 5.2891273 -0.47338793
-2.193634 5.9695549 -0.48541498
-1.1369951 2.8532357 -0.28306693
-2.1765149 5.9240742 -0.39259514
-1.1492045 2.8891275 -0.2874518
-1.9356711 5.2189798 -0.25321478
-1.1615369 2.925488 -0.29010046
-1.1673124 2.9429927 -0.28270593
-2.1795032 5.9474669 -0.13291213
-1.1724482 2.9586926 -0.27385691
-2.2551577 6.1762962 -0.045467895
-1.4755514 3.8378115 -0.59648407
-1.7067132 4.5107985 -0.7973032
-2.2825327 6.2679272 0.14377518
-1.7329643 4.5902367 -0.76632178
-2.4318221 6.7170343 0.27253491
-1.7728417 4.7095509 -0.74355185
-2.4234681 6.6981411 0.3768512
-1.8515708 4.9423857 -0.74709868
-2.0655766 5.6374063 0.35216489
-1.854857 4.9556332 -0.68425834
-2.4069803 6.6610003 0.58497739
-1.8972433 5.1111498 -0.6524241
-1.9060075 5.1409044 -0.58935022
-1.1237469 2.8172629 -0.30318928
-1.9042099 5.1394119 -0.51997411
-1.1385269 2.8607721 -0.31558961
-1.1287756 2.8332984 -0.28553361
-1.136723 2.8570995 -0.28488874
-1.1458912 2.8845217 -0.28491405
-1.9306219 5.233305 -0.25421706
-1.1592801 2.9243183 -0.28931886
-2.1669734 5.9421616 -0.21954413
-1.1667907 2.9470615 -0.28427932
-2.1645672 5.9398279 -0.13284278
-1.169476 2.95576 -0.27243537
-2.164053 5.9431715 -0.045722649
-1.4715829 3.8411274 -0.59725428
-2.1591058 5.9332142 0.040559851
-1.6963227 4.5022964 -0.79359007
-2.2773921 6.292841 0.14457114
-1.7315378 4.6088457 -0.7718147
-2.4252775 6.7423935 0.27381846
-1.7673631 4.7174797 -0.74534285
-2.4176025 6.7253294 0.378831
-1.862787 5.001894 -0.76294255
-2.056751 5.6445656 0.35243952
-1.843008 4.9473 -0.6816442
-2.3987114 6.6804943 0.58695579
-1.8889942 5.1118383 -0.65215063
-1.9107902 5.1807413 -0.59689558
-1.9002769 5.1531963 -0.52206409
-1.8942349 5.1389704 -0.45062515
-1.1304109 2.8420591 -0.29024974
-1.8907931 5.1324387 -0.38182843
-1.1365893 2.8609109 -0.28670755
-1.148607 2.8969524 -0.29092932
-1.9258561 5.2454062 -0.25506169
-1.1572168 2.9230776 -0.28853294
-2.1520483 5.9302893 -0.21898481
-1.1628799 2.9405856 -0.28122568
-2.1521809 5.9355211 -0.13284041
-1.1667192 2.9527488 -0.27100915
-2.1453836 5.9198771 -0.045908958
-1.4675064 3.8424847 -0.59732962
-2.1448846 5.9231977 0.04005051
-1.6915877 4.5078678 -0.79498148
-2.2734725 6.3173075 0.14539178
-1.7283454 4.6199646 -0.77491093
-2.4194758 6.7653484 0.27498999
-1.7657306 4.7342291 -0.74987376
-2.4143369 6.7557983 0.38120979
-1.8387918 4.9548225 -0.74940956
-2.0440497 5.6362286 0.35087946
-1.8135259 4.8832741 -0.66517353
-2.3924389 6.7013655 0.58924127
-1.8801301 5.1106377 -0.65146053
-1.9142759 5.2213163 -0.53356361
-1.885936 5.1396189 -0.45048904
-1.1314299 2.8491592 -0.29402763
-1.8843901 5.1387386 -0.38243487
-1.1324298 2.8528712 -0.28224412
-1.1460516 2.8939891 -0.28924358
-1.8860652 5.1513853 -0.24809752
-1.154578 2.9201014 -0.28693375
-1.8880413 5.1611624 -0.18127811
-1.1595945 2.9358382 -0.2789419
-1.1627948 2.9461975 -0.26812768
-2.1324649 5.9136047 -0.046090689
-1.4640234 3.8456118 -0.59808898
-2.1332202 5.9207277 0.039729662
-1.6850224 4.5080376 -0.79445159
-2.2688026 6.339879 0.146119
-1.7214663 4.6202278 -0.77443087
-2.4172771 6.7996864 0.27699834
-1.767662 4.7619362 -0.75771165
-2.4109135 6.7862797 0.38358763
-1.7838745 4.814023 -0.71004689
-2.0307863 5.6259584 0.34908992
-1.815135 4.9114304 -0.67176175
-2.3909674 6.7373056 0.5937531
-1.8922 5.1746082 -0.66533101
-1.9437351 5.3354101 -0.62681639
-1.9120119 5.2428179 -0.53696382
-1.1217737 2.8240736 -0.2931262
-1.1356943 2.8663437 -0.30344084
-1.8750081 5.137619 -0.38211983
-1.1327758 2.8584001 -0.2849617
-1.8711283 5.1295147 -0.31387931
-1.1457191 2.8978996 -0.29098272
-1.8729508 5.1388779 -0.24713099
-1.1536005 2.922343 -0.28777549
-1.8705745 5.1353397 -0.18003044
-1.1603253 2.9433634 -0.28205428
-1.1623399 2.9502654 -0.26961306
-1.8841577 5.1846762 -0.046264257
-1.4620471 3.8541658 -0.60090482
-2.1234324 5.9260254 0.039585155
-1.6810677 4.5173035 -0.79712832
-2.2645614 6.3664837 0.14701861
-1.7141991 4.6205893 -0.77395701
-2.4086015 6.8172102 0.27773634
-1.7599733 4.7624254 -0.75729001
-2.4059529 6.8151283 0.38576487
-1.8063452 4.9064188 -0.73499632
-2.0231318 5.6347294 0.3496114
-1.861202 5.0765448 -0.7125057
-2.3849039 6.7621984 0.59658027
-1.8874235 5.1864328 -0.66755199
-1.9665012 5.4333906 -0.64585626
-1.9192801 5.2923155 -0.54522634
-2.1194763 5.9133749 -0.56438398
-1.1354921 2.8701212 -0.30534229
-1.1309228 2.8571208 -0.28408763
-1.8647218 5.1357708 -0.31439045
-1.1454518 2.9017849 -0.29272017
-1.8659158 5.1432514 -0.24740992
-1.1486926 2.9124084 -0.28292146
-1.8598766 5.1283007 -0.1797028
-1.160531 2.9491155 -0.28439456
-1.1578822 2.9419167 -0.26600188
-1.4579332 3.8554952 -0.6009798
-1.8597658 5.139205 0.020203304
-1.678031 4.5282373 -0.80043828
-1.7108965 4.63169 -0.7770524
-2.4073024 6.8553724 0.28002152
-1.7574885 4.7773657 -0.76127112
-2.4009976 6.8418474 0.38776955
-1.8293259 5.0006542 -0.76045322
-2.0117662 5.6300526 0.34852147
-1.8500407 5.0678825 -0.70987391
-2.3788638 6.7849703 0.59914231
-1.8658826 5.148138 -0.65855026
-1.8995986 5.2567043 -0.61045277
-1.9221332 5.3307734 -0.5515523
-2.1083996 5.9148407 -0.56429422
-1.1440032 2.9007688 -0.32227042
-1.1295538 2.8575609 -0.28411224
-2.1056249 5.9159012 -0.39093918
-1.1411383 2.8936775 -0.28846693
-1.8863411 5.2351704 -0.2541241
-1.1465931 2.9111607 -0.28213558
-1.8530066 5.134697 -0.18003543
-1.1548824 2.9373605 -0.27902749
-1.8526316 5.1372671 -0.11355957
-1.1591516 2.9512908 -0.2696709
-1.843888 5.1135902 -0.046544138
-1.455302 3.8622575 -0.60311127
-1.6657779 4.51227 -0.79415083
-1.7047839 4.6356525 -0.77776921
-2.3989909 6.8747902 0.28089854
-1.7462099 4.7668514 -0.75753951
-2.3921225 6.8593235 0.38883215
-1.8233182 5.0086746 -0.76211405
-2.0004714 5.6274118 0.34765506
-1.8456442 5.0815496 -0.71278739
-2.3755264 6.819314 0.60335875
-1.8725395 5.1973343 -0.66910005
-1.8779356 5.2182102 -0.6024524
-1.9121947 5.3297815 -0.55105889
-2.0943248 5.9068394 -0.56280911
-1.1468697 2.9146798 -0.32981005
-2.0992587 5.9272337 -0.47862011
-1.1287374 2.8596923 -0.28503445
-2.0945709 5.9173136 -0.39093962
-1.1413326 2.8993046 -0.2910617
-1.9056249 5.3253298 -0.26070699
-1.1445031 2.9099071 -0.28134897
-1.8467097 5.1429777 -0.18046075
-1.1527104 2.9361122 -0.27828532
-1.8457325 5.1436472 -0.11379868
-1.1575062 2.951812 -0.2697002
-1.8364663 5.1180439 -0.046688024
-1.4514842 3.8654385 -0.60387409
-1.8387752 5.1291094 0.019544033
-1.6565273 4.5052614 -0.79106212
-1.6992373 4.6414146 -0.77908111
-1.8329806 5.1181936 0.15194966
-1.739697 4.7709322 -0.75821781
-2.389118 6.8957882 0.39174941
-1.8214004 5.0295763 -0.76732135
-1.9844546 5.6095629 0.34493804
-1.8429506 5.1007729 -0.71708667
-2.3696342 6.8461142 0.60646224
-1.8678069 5.213171 -0.67216992
-1.8648875 5.2078838 -0.60001516
-1.9124255 5.3627996 -0.55642247
-2.0826643 5.9084187 -0.56272626
-1.1441519 2.9118316 -0.32796058
-2.0821891 5.9117699 -0.47649008
-1.1278274 2.8618534 -0.28595841
-2.0805192 5.9112854 -0.39020327
-1.1408544 2.9032428 -0.29280236
-1.901201 5.3434458 -0.26198959
-1.1423318 2.9086735 -0.28056398
-2.0747933 5.9026651 -0.21777363
-1.1510148 2.9366448 -0.27831516
-2.072531 5.9002256 -0.13260035
-1.1568949 2.9559081 -0.27118734
-1.8351018 5.1436224 -0.04684408
-1.4456792 3.8633206 -0.60258782
-1.8326187 5.1394157 0.019576764
-1.6377664 4.469449 -0.77772832
-1.694422 4.6509266 -0.78159392
-1.822726 5.1151409 0.1513824
-1.7286806 4.7623005 -0.75504136
-1.8118887 5.0285025 -0.76645565
-1.8367386 5.110878 -0.71908522
-2.3628235 6.8731546 0.60955179
-1.1198232 2.8370378 -0.34306559
-1.8673964 5.237874 -0.67729568
-1.8539741 5.1989241 -0.5979203
-1.8993387 5.3482647 -0.55363429
-2.0704963 5.9018278 -0.56149411
-1.1385067 2.8987944 -0.32047027
-2.0723772 5.912734 -0.47641858
-1.1238985 2.8537164 -0.2814894
-2.0689476 5.906538 -0.38961816
-1.1378844 2.8984864 -0.29025674
-1.8999946 5.3667984 -0.26366526
-1.1409905 2.9090905 -0.28058761
-2.0679922 5.9131393 -0.21830924
-1.1496005 2.937084 -0.27833992
-2.0657475 5.9107037 -0.13295029
-1.1543093 2.9528103 -0.26975662
-1.4417977 3.8645244 -0.60265589
-1.8319652 5.1626453 0.019956173
-1.8237445 5.1397676 0.085836291
-1.6930413 4.667346 -0.78647029
-1.8156693 5.1173267 0.15125848
-1.7241564 4.7697401 -0.75680625
-1.814796 5.1182537 0.21755731
-1.8020427 5.021431 -0.76404262
-1.8122966 5.1138945 0.2835286
-1.8249254 5.0982418 -0.71551609
-2.3570304 6.89569 0.61212599
-1.8438711 5.1918974 -0.66661739
-1.8479388 5.2090054 -0.59954953
-1.8986945 5.3773661 -0.55833912
-1.1153281 2.8297617 -0.29522079
-2.058893 5.9012461 -0.56111813
-1.1311693 2.8807304 -0.31016314
-2.0590022 5.9064541 -0.47543618
-1.1295178 2.8762918 -0.29318914
-2.0567677 5.9040298 -0.38923901
-1.1315145 2.883426 -0.28257453
-1.8970451 5.3885775 -0.26521963
-1.1411097 2.9147873 -0.28305593
-2.0575745 5.9163446 -0.21849057
-1.1474445 2.9358163 -0.27759656
-2.0500822 5.8966942 -0.13270459
-1.1559951 2.963984 -0.27415526
-1.4379575 3.8676691 -0.6034174
-1.4923804 4.0444088 -0.62607586
-1.6856651 4.6676111 -0.78599203
-1.8094077 5.125515 0.15153584
-1.7176192 4.7737608 -0.75748169
-1.8091159 5.1283302 0.21815866
-1.7890253 5.0072155 -0.7596159
-1.8043215 5.1163454 0.28338978
-1.8151207 5.0951481 -0.71427047
-2.3541653 6.9338665 0.61689436
-1.8332336 5.1869535 -0.66509533
-1.8412769 5.2171936 -0.60080636
-1.8880849 5.3744049 -0.55751622
-1.1140399 2.8301528 -0.29524291
-2.0449936 5.893055 -0.55962324
-1.1181564 2.844089 -0.28951979
-2.0503008 5.9153252 -0.47631526
-1.1254342 2.868192 -0.28872225
-2.046351 5.9071989 -0.38941893
-1.1354363 2.9011252 -0.29116508
-1.8910742 5.4008207 -0.26607361
-1.1411955 2.9204888 -0.28552452
-2.0442474 5.909956 -0.21820088
-1.1474833 2.941591 -0.27993843
-2.0391459 5.8979282 -0.13283563
-1.1532102 2.9609377 -0.27272728
-1.4341011 3.8708074 -0.60417795
-2.0307128 5.8796701 0.036666784
-1.4556031 3.9427223 -0.58963323
-2.3620341 6.9828711 0.17403746
-1.6788557 4.6696806 -0.78610981
-1.7133257 4.7851133 -0.76036406
-1.8005149 5.1288691 0.21783528
-1.7778041 4.9984989 -0.75670695
-1.7980545 5.1244841 0.28394553
-1.8019176 5.0808592 -0.71025014
-2.3488107 6.9644775 0.62055075
-1.8248246 5.1874399 -0.66481268
-1.8424711 5.24967 -0.60687888
-1.8683133 5.3391399 -0.55115187
-1.1158624 2.8410921 -0.28766206
-2.0352924 5.9011765 -0.47438556
-1.1220088 2.8617611 -0.28515166
-2.0330939 5.8987093 -0.38846487
-1.1350889 2.9050043 -0.29290229
-1.8855636 5.4128933 -0.26691833
-1.1397312 2.9209304 -0.28554958
-2.0321519 5.9052534 -0.21799226
-1.143254 2.9332294 -0.27610704
-2.0259488 5.8893719 -0.13271664
-1.1483619 2.9507251 -0.26838332
-1.4310405 3.875653 -0.60561848
-2.0216105 5.8844995 0.036547136
-1.4540112 3.9530919 -0.59291244
-2.3744504 7.07094 0.177867
-1.6741114 4.6770926 -0.78800941
-2.3622384 7.0364914 0.28952289
-1.7037933 4.7779427 -0.75771952
-1.764847 4.9821968 -0.75176036
-1.9275458 5.5875683 0.33974412
-1.7983232 5.0961676 -0.71361446
-2.3401337 6.9815674 0.62227738
-1.8187392 5.1974182 -0.66662061
-1.8559546 5.3256264 -0.62149811
-1.8855598 5.4287148 -0.56627131
-1.9658377 5.7017584 -0.53092813
-2.0237362 5.9004698 -0.47409534
-1.1247985 2.8758442 -0.29236236
-2.0221252 5.8999004 -0.38845372
-1.1293659 2.8916242 -0.28607416
-1.8828778 5.4365931 -0.26861432
-1.1413636 2.9318807 -0.29046091
-2.0200505 5.9026022 -0.21788596
-1.1400528 2.9284074 -0.27381894
-2.0144761 5.8886147 -0.13279627
-1.1472595 2.952997 -0.2691398
-2.0128863 5.8880777 -0.047871605
-1.4260609 3.8751755 -0.6050092
-2.0249257 5.9335814 0.037464611
-1.450444 3.9581106 -0.59427309
-2.369714 7.1057014 0.17910382
-1.666723 4.6773005 -0.7875284
-2.3581617 7.0730982 0.2916474
-1.6977699 4.7837486 -0.75894415
-2.3487501 7.0476418 0.40278175
-1.7532091 4.9715252 -0.74834001
-1.91257 5.5712996 0.33727542
-1.7902551 5.0985699 -0.71375108
-2.3350465 7.014082 0.62621093
-1.8193376 5.2319069 -0.67385364
-1.8863158 5.4621372 -0.64801311
-1.8636844 5.389905 -0.55926931
-2.0014012 5.8605738 -0.55400753
-2.0149508 5.9113388 -0.47521347
-1.1232896 2.8762896 -0.29238749
-2.0094218 5.8974142 -0.38807705
-1.1252029 2.8834295 -0.28181624
-1.8778355 5.4547148 -0.26989824
-1.1407306 2.9358747 -0.29211783
-2.0084898 5.9039249 -0.21797606
-1.1394434 2.9324329 -0.27539062
-2.0018473 5.8860855 -0.1328363
-1.1492534 2.9660008 -0.27426973
-1.9991505 5.8817015 -0.048049644
-1.4208283 3.8747566 -0.60440254
-2.0772769 6.1537037 0.042408831
-1.4471173 3.9650145 -0.5962795
-2.3628387 7.1368847 0.18014209
-1.6534798 4.6593132 -0.78108287
-2.3536208 7.1118736 0.29389504
-1.6912963 4.7896605 -0.76017559
-2.3448315 7.0882425 0.40604874
-1.7417414 4.9628029 -0.74543214
-1.9010341 5.5684814 0.33641729
-1.7789333 5.0917616 -0.71158266
-2.329525 7.0487394 0.63040709
-1.8162763 5.2490988 -0.67731237
-1.9130824 5.5832996 -0.67154193
-1.8907504 5.5115032 -0.57991469
-1.9534018 5.7301674 -0.53459966
-2.003504 5.9064026 -0.47443315
-1.1204977 2.8715191 -0.28971261
-1.9985778 5.894352 -0.38766775
-1.1265094 2.8924599 -0.28612155
-1.8754139 5.4761982 -0.27143729
-1.1372321 2.9292829 -0.28888392
-1.9976504 5.9008408 -0.21784566
-1.1406689 2.9416845 -0.27927271
-1.9905088 5.8810606 -0.13279596
-1.147233 2.9646502 -0.27356559
-1.987278 5.8747473 -0.048194993
-1.4190528 3.8831043 -0.60720754
-2.0802801 6.2007313 0.04328844
-1.4424353 3.9644029 -0.59570706
-2.3593781 7.1711903 0.18140443
-1.6453333 4.6537352 -0.77879417
-2.348556 7.1403685 0.29549062
-1.684973 4.791503 -0.76028037
-2.3381641 7.1109295 0.40769288
-1.7366078 4.9703445 -0.74706721
-1.8724763 5.5002422 0.32774019
-1.7679834 5.0807638 -0.70846355
-2.3245902 7.0770054 0.63381064
-1.800669 5.2271366 -0.67203212
-1.8913481 5.548295 -0.58593082
-1.9748328 5.841466 -0.5506947
-1.1071444 2.8307679 -0.28116995
-1.9886613 5.894146 -0.47273725
-1.1165562 2.8633587 -0.28524262
-1.9870861 5.8935204 -0.38746417
-1.1260591 2.8963511 -0.28786001
-1.8706985 5.4941711 -0.27271304
-1.137713 2.9367487 -0.29216793
-1.986716 5.9019108 -0.21792217
-1.1395707 2.9439235 -0.2800712
-1.9779899 5.8763418 -0.13277383
-1.1502674 2.9812198 -0.28015289
-1.9753451 5.8719378 -0.048360664
-1.4151237 3.8861926 -0.60796607
-2.0789578 6.2385702 0.043917578
-1.4393344 3.9712126 -0.59770846
-2.3507817 7.1944609 0.1820887
-1.6396353 4.6593485 -0.78009963
-2.3411474 7.1674204 0.29692012
-1.6777995 4.7935734 -0.76039851
-2.3324783 7.1436605 0.41023332
-1.7267435 4.9651375 -0.74516332
-1.8519375 5.4627447 0.3227447
-1.7583306 5.0774698 -0.70720792
-2.3178897 7.1057348 0.63718712
-1.8019335 5.2633867 -0.67967713
-1.8826852 5.549078 -0.66405129
-1.8906472 5.5813274 -0.59129691
-1.9406345 5.7653198 -0.45679143
-1.1156704 2.8654697 -0.2861639
-1.9717867 5.8792458 -0.3859469
-1.1245749 2.8967745 -0.28788403
-1.8686166 5.5217314 -0.27469286
-1.1330445 2.9266844 -0.28730667
-1.9746921 5.8991041 -0.21780811
-1.1364024 2.9390709 -0.27778167
-1.9671471 5.8773546 -0.13289368
-1.143342 2.96383 -0.272892
-1.9645281 5.8729448 -0.048526727
-1.4101334 3.8856604 -0.60735345
-1.8589771 5.5049629 0.026450187
-1.4325111 3.9652781 -0.59521925
-2.3447781 7.2273369 0.18323071
-1.6323214 4.6594515 -0.77961278
-2.3363042 7.2040739 0.29904053
-1.6727502 4.8030128 -0.76272547
-2.3271532 7.1783142 0.41295704
-1.7244103 4.985918 -0.75036561
-1.8337786 5.4328041 0.31867713
-1.7433267 5.0554419 -0.70132375
-2.3126402 7.1401854 0.64139438
-1.7890668 5.2487221 -0.67605293
-1.8743706 5.5534725 -0.66456497
-1.8860192 5.5990362 -0.59404826
-1.8794537 5.5803318 -0.51186264
-1.1095481 2.8484366 -0.29061106
-1.8804524 5.588295 -0.43498087
-1.1143594 2.8658407 -0.28618526
-1.1231759 2.8971698 -0.28790686
-1.8658471 5.5453176 -0.27638319
-1.1305511 2.9235923 -0.28570127
-1.9627628 5.8941698 -0.21758759
-1.135906 2.943043 -0.27935016
-1.9574544 5.8800888 -0.13305008
-1.1422729 2.9660659 -0.27364656
-1.9532382 5.8698921 -0.048678651
-1.4069672 3.8904586 -0.60879207
-2.0191715 6.1100359 0.040407564
-1.4296522 3.9719906 -0.59721541
-2.3405139 7.2638264 0.18456845
-1.6248875 4.6575823 -0.77852142
-2.327801 7.2251263 0.30006832
-1.6659684 4.8049212 -0.76283443
-2.3208632 7.2069817 0.41514024
-1.7107582 4.9656515 -0.74439025
-1.8216581 5.4217768 0.3169277
-1.7342517 5.0519352 -0.70005608
-2.3085544 7.176321 0.64589071
-1.7763195 5.2360344 -0.67285085
-1.8835251 5.6223221 -0.67772567
-1.9408667 5.8316164 -0.63364661
-1.8699784 5.5829735 -0.51201475
-1.8666897 5.575634 -0.43326262
-1.1134553 2.8679464 -0.28710645
-1.8677247 5.5837564 -0.35682017
-1.1231751 2.9027975 -0.29050204
-1.8607914 5.5632925 -0.2776601
-1.1304874 2.9292994 -0.28817043
-1.9443715 5.8681917 -0.21633376
-1.133276 2.9399471 -0.27783191
-1.9423313 5.8656273 -0.13278066
-1.1431251 2.9754958 -0.27731889
-1.9445775 5.8785372 -0.048847232
-1.4014642 3.8880918 -0.6074928
-1.4244173 3.9714844 -0.59664965
-2.3325396 7.2909412 0.18543485
-1.6222596 4.6741686 -0.78340924
-2.3241925 7.267561 0.3026014
-1.6603208 4.8124828 -0.76460803
-2.3157036 7.2435694 0.4180468
-1.6941552 4.936141 -0.7358793
-1.8138301 5.4280825 0.31724671
-1.7373779 5.0934868 -0.70990264
-2.3008225 7.2031593 0.64898849
-1.7940047 5.3326092 -0.69385052
-1.8697016 5.6098289 -0.67490339
-1.9406319 5.8705692 -0.64000428
-1.8816011 5.6619377 -0.52335858
-1.8646407 5.6050463 -0.43668586
-1.1115704 2.8666124 -0.28622976
-1.8556166 5.5767679 -0.35603172
-1.1231411 2.9084289 -0.29309785
-1.8466365 5.5485725 -0.27653956
-1.1274199 2.9244614 -0.28575096
-1.1321623 2.9421663 -0.2786296
-1.1404018 2.9723818 -0.27588791
-1.9300561 5.8659439 -0.048997652
-1.399018 3.8965638 -0.61030555
-1.8979764 5.7535582 0.031625755
-1.4196992 3.9727845 -0.59672415
-2.3260021 7.3238316 0.18657503
-1.6123519 4.6650171 -0.77993202
-2.316669 7.2965403 0.30416742
-1.6536007 4.816329 -0.76527548
-2.3071969 7.2686424 0.4198471
-1.6860387 4.9363689 -0.73549175
-1.8075385 5.4401255 0.31825754
-1.7293172 5.0957117 -0.7100302
-2.2934625 7.2318954 0.65236342
-1.8002613 5.3856392 -0.70524096
-1.8555243 5.5912876 -0.67094541
-1.9367106 5.8920908 -0.64340949
-1.8709362 5.656641 -0.52237332
-1.8750722 5.6763201 -0.44523847
-1.1108179 2.8686712 -0.28714815
-1.8588181 5.6213017 -0.36029255
-1.1208279 2.905314 -0.29140404
-1.8373418 5.5469713 -0.27638623
-1.1255472 2.9230766 -0.28495789
-1.8442314 5.5766439 -0.20204072
-1.1312277 2.9443336 -0.27942446
-1.8464587 5.5892248 -0.12601833
-1.1403887 2.9781768 -0.27809909
-1.3960543 3.9012659 -0.61173809
-1.8630872 5.6594467 0.029249851
-1.4170492 3.9793968 -0.59871447
-2.3209984 7.3562555 0.18774137
-2.3106904 7.3250542 0.30575976
-1.6482301 4.8217793 -0.76648068
-2.3018057 7.2990093 0.42222661
-1.6808758 4.9437933 -0.73712075
-1.8043048 5.4595375 0.3202067
-1.7201347 5.090147 -0.70828938
-2.2871106 7.2582655 0.65548682
-1.779541 5.3466587 -0.69620323
-1.8546844 5.6281481 -0.67779768
-1.9241333 5.8893509 -0.64260232
-1.8554986 5.6402903 -0.51973271
-1.8600929 5.6618462 -0.44329226
-1.1088583 2.8673482 -0.28627187
-1.9077425 5.8432083 -0.38186377
-1.1206675 2.9109721 -0.29400137
-1.8279691 5.5515661 -0.27668127
-1.1263137 2.9323289 -0.28905854
-1.8352954 5.583189 -0.20238537
-1.1304836 2.9483569 -0.28099564
-1.8343875 5.584197 -0.12597942
-1.1375773 2.9750764 -0.27666882
-1.8293869 5.5699778 -0.049037568
-1.389293 3.8953052 -0.60907006
-1.8316994 5.5829992 0.027259536
-1.410531 3.9752686 -0.59686673
-2.3132393 7.3893909 0.18886691
-2.3050852 7.3658323 0.30813864
-1.6370006 4.8108721 -0.76273024
-2.2942178 7.3319921 0.42474991
-1.6672184 4.925436 -0.73165691
-1.7973373 5.4717054 0.32120997
-1.7100806 5.0868149 -0.70703256
-2.279624 7.2910585 0.6594013
-1.7646527 5.3263369 -0.69132781
-1.8526685 5.6591883 -0.68352652
-1.9076064 5.8692541 -0.6388458
-1.8402252 5.6218157 -0.51679957
-1.8514109 5.6682711 -0.44390979
-1.1088696 2.8728917 -0.28899086
-1.9026308 5.8651743 -0.38389972
-1.116765 2.9026632 -0.28973734
-1.8201535 5.5598402 -0.27724901
-1.1218467 2.9221783 -0.28419244
-1.868926 5.7478914 -0.21050842
-1.1278796 2.9452305 -0.27947596
-1.8290579 5.6021709 -0.12651305
-1.1363473 2.9773324 -0.27742472
-1.8169408 5.560873 -0.04917058
-1.3867619 3.9037583 -0.61188149
-1.8187182 5.5719757 0.026802938
-1.4077785 3.9838436 -0.59950721
-1.4342692 4.0844288 -0.59015656
-2.296036 7.3909521 0.30942801
-1.6287696 4.8090858 -0.7617358
-2.2878027 7.3666763 0.42746997
-1.6681952 4.9592085 -0.74041259
-1.7933602 5.4933233 0.32337257
-1.7045646 5.0983515 -0.70947254
-2.2722945 7.3217077 0.66305184
-1.8179083 5.5626764 -0.66430628
-1.096746 2.8306854 -0.306734
-1.8610938 5.7350922 -0.53317988
-1.8240819 5.5994692 -0.4353765
-1.1057591 2.8663199 -0.28541279
-1.8940487 5.8694925 -0.38422629
-1.1196692 2.9187138 -0.29747576
-1.8128929 5.5658779 -0.27765754
-1.1233172 2.9331229 -0.28910422
-1.8875797 5.8545361 -0.21577458
-1.1293135 2.9562991 -0.2841329
-1.875998 5.8151751 -0.13194473
-1.1338632 2.9741349 -0.27598873
-1.8173075 5.5959311 -0.049328465
-1.3822892 3.902992 -0.61125696
-1.8114622 5.578022 0.026766097
-1.4055402 3.9922698 -0.6021384
-1.4298129 4.0856009 -0.59022462
-1.6219001 4.8089085 -0.76127946
-1.8064191 5.5720043 0.25572002
-1.6639168 4.9703341 -0.74305642
-1.7888389 5.5088921 0.32486078
-1.6944404 5.0889454 -0.70680082
-2.268496 7.3595762 0.66783321
-1.7793832 5.4518728 -0.7183193
-1.807411 5.5633726 -0.66408515
-1.0935969 2.8243964 -0.30266786
-1.8067265 5.5652332 -0.58625412
-1.8415766 5.7033434 -0.52829325
-1.8119988 5.5944033 -0.43459132
-1.103822 2.864979 -0.28453565
-1.8786182 5.854991 -0.38269788
-1.1198831 2.9261258 -0.30093142
-1.8034441 5.5703993 -0.27794886
-1.1220975 2.9353287 -0.28994489
-1.8787408 5.865099 -0.21631853
-1.1261349 2.9514093 -0.28184167
-1.8763177 5.860548 -0.13317855
-1.133954 2.9818082 -0.2789343
-1.8623908 5.8115282 -0.049698167
-1.3770268 3.9024215 -0.61064303
-1.8080235 5.6057787 0.027194034
-1.4009631 3.9954181 -0.60285723
-1.8023057 5.5880661 0.10310902
-1.4254324 4.0906849 -0.59150136
-1.7956498 5.5667057 0.17863387
-1.6137624 4.8090391 -0.76084185
-1.6498668 4.9500113 -0.7370795
-1.7836087 5.5287304 0.32678446
-1.6814775 5.0742264 -0.70275867
-2.2619226 7.3981276 0.67257524
-1.7452717 5.357645 -0.69714725
-1.8028805 5.5848331 -0.6679486
-1.0918839 2.8230629 -0.30166453
-1.79827 5.5714808 -0.58704793
-1.7951739 5.5639668 -0.5076921
-1.7921011 5.5564537 -0.42981184
-1.1033401 2.8687923 -0.28635535
-1.8158286 5.6532116 -0.36290383
-1.1173899 2.9230354 -0.29923934
-1.7960162 5.5805473 -0.27865532
-1.1242042 2.9498725 -0.296491
-1.8689616 5.8696728 -0.21656691
-1.1221511 2.9429109 -0.27800289
-1.8655725 5.8612423 -0.13328256
-1.1364563 2.9984679 -0.28552732
-1.8622003 5.8528767 -0.049889985
-1.3739347 3.9090354 -0.61276817
-1.7985518 5.6082096 0.027052883
-1.395695 3.9948163 -0.60228634
-1.4222853 4.0993776 -0.59396827
-1.7877932 5.5749035 0.17890708
-1.6041198 4.8015976 -0.758183
-1.7857175 5.571188 0.25488088
-1.6446562 4.9613361 -0.73973501
-1.7788079 5.5484295 0.32871631
-1.6759162 5.0857 -0.70519531
-2.2540448 7.4287853 0.67622387
-1.7641413 5.4638443 -0.72024596
-1.8431437 5.7773447 -0.70531023
-1.0925055 2.8299994 -0.30576897
-1.832859 5.741847 -0.61591876
-1.7853911 5.5603228 -0.50697362
-1.7843034 5.5604849 -0.43016803
-1.1021025 2.869107 -0.28637356
-1.7808139 5.5511703 -0.3528643
-1.1164625 2.9251368 -0.30011755
-1.7827783 5.5633307 -0.27736178
-1.1200006 2.9396343 -0.29162019
-1.8530109 5.8448658 -0.21536651
-1.1207209 2.9432745 -0.27802408
-1.8555467 5.8596649 -0.13331813
-1.1269534 2.968219 -0.27314502
-1.853677 5.8571072 -0.050025236
-1.3708725 3.9136896 -0.6141994
-1.3914702 3.9958889 -0.60234857
-2.0438402 6.6213446 0.15098685
-1.4182634 4.1023674 -0.59463263
-1.5982425 4.8050718 -0.75882995
-1.7784517 5.5771446 0.25512654
-1.6359618 4.9555607 -0.73780131
-1.7716081 5.5543556 0.3290554
-1.6668923 5.0799646 -0.70344627
-2.2496688 7.4666853 0.68100286
-1.7636092 5.5002747 -0.72790289
-1.8465204 5.83323 -0.71588647
-1.092936 2.836982 -0.30987591
-1.8498945 5.8514967 -0.6343627
-1.7832258 5.5914927 -0.51131892
-1.7782896 5.5763302 -0.43194729
-1.1015875 2.87292 -0.28819326
-1.7709661 5.55159 -0.35281241
-1.1139927 2.9220304 -0.29842436
-1.7709653 5.5560122 -0.27679017
-1.1197484 2.9453456 -0.29409021
-1.120013 2.9472554 -0.27959338
-1.8302727 5.8021097 -0.13194872
-1.1340127 3.0029254 -0.28703609
-1.8400607 5.8460951 -0.050158862
-1.3658602 3.9130123 -0.61357951
-2.0084393 6.5265417 0.047600973
-1.3876145 4.000761 -0.60370338
-2.0323431 6.6283503 0.15098593
-1.4122183 4.0999508 -0.59351099
-2.2610118 7.5544748 0.31866345
-1.5910308 4.8068867 -0.75893521
-1.627831 4.9556122 -0.73740435
-1.761857 5.554759 0.32869041
-1.6478934 5.0385981 -0.69290113
-2.242393 7.501193 0.68520308
