# .PCD v0.7 - Point Cloud Data file format
VERSION 0.7
FIELDS x y z
SIZE 4 4 4
TYPE F F F
COUNT 1 1 1
WIDTH 1471
HEIGHT 1
VIEWPOINT 0 0 0 1 0 0 0
POINTS 1471
DATA ascii
14.717092 -13.705158 0.20865385
0.91307521 0.38489619 -1.0078268
6.2429647 -5.0111003 0.31189871
1.1292446 0.161686 -1.0378904
5.9676628 -4.7175131 0.52882582
1.3132899 -0.027079914 -1.0390785
1.5961647 -0.31855127 -1.0665436
6.5795493 -5.3159509 1.0837619
1.9605875 -0.69419372 -1.104811
6.1663256 -4.8830314 1.2606435
2.3334863 -1.0773826 -1.1210392
5.9909801 -4.6926417 1.4640529
2.87081 -1.6302805 -1.158874
38.099945 -37.183426 9.7287292
38.201813 -37.217255 11.083257
4.4343748 -3.2374406 -1.2357368
6.446146 -5.1146712 2.3203261
0.18378037 1.1267542 -0.97662389
14.708932 -13.963681 -2.9632802
0.28092077 1.0254096 -0.99803448
1.3072612 -0.0019077091 -0.39148748
0.34378287 0.96105874 -0.98828232
1.6821356 -0.38696823 -0.35836059
0.37726191 0.92826211 -0.95481575
5.942656 -4.7969003 -0.62684095
0.54380602 0.75389528 -1.0032897
5.9979119 -4.8419576 -0.39760804
0.57422566 0.72478211 -0.95969534
6.0926809 -4.9276667 -0.16614759
0.78510976 0.5043515 -1.0142236
14.835003 -13.92801 0.21396697
0.89919811 0.38719442 -1.0035443
6.2099514 -5.023684 0.3125951
1.1302917 0.14678891 -1.0412548
6.3268647 -5.1313181 0.56159168
1.3151264 -0.043996565 -1.0427217
7.3427925 -6.1605716 0.92517459
1.6622581 -0.40492809 -1.0957487
6.4329071 -5.2143836 1.0666685
1.9417448 -0.69356841 -1.1009407
6.1363735 -4.8983111 1.2605388
2.1558444 -0.91265374 -1.0660589
37.833382 -37.230915 8.3874083
2.9816532 -1.7713853 -1.1940351
37.932671 -37.263603 9.7247171
3.8182607 -2.6384928 -1.2690113
38.050896 -37.314735 11.082601
4.5304756 -3.3728712 -1.2599132
6.5345354 -5.2519112 2.3574326
0.1927751 1.1110461 -0.98606908
14.609075 -13.938828 -2.9500437
0.2777411 1.0223351 -0.99787378
1.2959964 -0.0017335061 -0.39035916
0.33676919 0.96177804 -0.98548329
1.6726661 -0.39057699 -0.35769561
0.37631869 0.92229438 -0.95631254
6.0081849 -4.9001718 -0.63295507
0.54247087 0.7474966 -1.0046799
5.9733949 -4.8517623 -0.39636955
0.66791666 0.61677784 -1.0171826
6.1039991 -4.9751415 -0.16574921
0.78834206 0.49186093 -1.018235
0.88282448 0.39498788 -0.99734789
6.201561 -5.051259 0.31399384
1.1497502 0.11533803 -1.0527306
14.631928 -13.743093 1.2553139
1.335638 -0.077460043 -1.0539055
1.6794479 -0.43659857 -1.1049318
6.397594 -5.2153254 1.0651095
1.918364 -0.68378603 -1.0947611
6.1129122 -4.9099641 1.2604253
2.3091087 -1.0901539 -1.1183221
37.701077 -37.290115 8.3848248
2.9230275 -1.7298757 -1.1793787
37.796078 -37.318954 9.719964
3.0319893 -1.8371617 -1.0703027
37.907314 -37.363556 11.074616
4.48383 -3.3519692 -1.2519696
6.5852795 -5.3412838 2.3807204
0.18300639 1.1138241 -0.98108143
14.498159 -13.924389 -2.9362636
0.26399761 1.0288372 -0.99032563
1.2830982 -0.0030973325 -0.38915053
0.33491877 0.95501167 -0.98702103
1.6599 -0.39455667 -0.35677314
0.37560454 0.91404462 -0.95859408
0.54875845 0.73061436 -1.0115571
5.9189734 -4.8403115 -0.39362267
0.67770678 0.5953235 -1.025902
6.3132906 -5.2399893 -0.16855992
0.80172253 0.46579102 -1.028532
14.230137 -13.480527 0.20997912
0.89092618 0.37398079 -1.0043228
6.1850882 -5.0809641 0.31551528
1.1389079 0.1128291 -1.050528
14.434307 -13.639503 1.2455857
1.1734271 0.080189511 -0.98584396
1.532094 -0.2973333 -1.0489893
6.6374812 -5.5117145 1.1061714
1.9049289 -0.68862844 -1.0928364
6.0911918 -4.9335985 1.2618387
2.3827276 -1.1899 -1.1454184
37.535194 -37.37006 8.3824139
3.0059175 -1.8433217 -1.2066379
37.627293 -37.396545 9.7155418
37.739643 -37.443115 11.069195
4.4469833 -3.3489988 -1.2468548
6.3495989 -5.1483016 2.314045
0.17605916 1.1144654 -0.97803569
14.394487 -13.905492 -2.9230456
0.25315928 1.0332247 -0.98463875
1.2683051 -0.00072770659 -0.38756779
0.32134625 0.96193206 -0.97982025
1.6453552 -0.39467132 -0.35557559
0.38397411 0.89690471 -0.96673965
6.4351892 -5.4367518 -0.67052275
0.53931665 0.73175144 -1.0081682
5.8148656 -4.7711577 -0.38836199
0.64263827 0.62336791 -1.0076897
6.2961793 -5.2646451 -0.16757014
0.80289209 0.45396653 -1.031801
14.631675 -13.990289 0.21972258
0.90859884 0.34388211 -1.01596
6.2594938 -5.2006254 0.32136604
1.1353242 0.10414184 -1.0514557
14.389399 -13.682423 1.2478254
1.2625537 -0.028094273 -1.0273879
14.428927 -13.696475 1.7729247
1.4839458 -0.26064068 -1.0322404
6.5546727 -5.4697905 1.0980883
1.7638958 -0.55498832 -1.0440588
37.245388 -37.361118 7.0423794
2.4463396 -1.2775544 -1.1690431
37.387348 -37.440216 8.3801765
2.8909113 -1.7443669 -1.1758189
37.487503 -37.475651 9.7142124
3.8023088 -2.7057316 -1.2735186
37.587372 -37.509995 11.063434
4.4230304 -3.3554857 -1.2442572
6.3581223 -5.1995296 2.3247538
0.1620304 1.1229212 -0.96923852
14.293757 -13.889028 -2.9103618
0.27710685 0.99960595 -1.0055618
1.2576301 -0.0026406376 -0.38661468
0.31146324 0.9649384 -0.9752509
1.6390321 -0.40343171 -0.35535651
0.38488978 0.8877458 -0.96987778
6.4093533 -5.4530468 -0.66909701
0.50752306 0.75727463 -0.99053681
5.7565126 -4.749414 -0.38542533
0.63913804 0.6174832 -1.0082021
5.7000732 -4.6779265 -0.15680575
0.79512757 0.4517509 -1.0301306
14.594193 -14.042469 0.22213331
0.91202962 0.3289178 -1.0203152
6.3429213 -5.3309035 0.32773107
1.1265388 0.10104076 -1.0499127
14.400815 -13.784509 1.2548263
1.2755258 -0.055414371 -1.0356603
14.376921 -13.732162 1.7743504
1.5384393 -0.33391806 -1.0567117
6.5902977 -5.5511823 1.1079633
1.6765125 -0.47740334 -1.0146568
37.107395 -37.440289 7.043087
2.4269807 -1.2771089 -1.1654768
37.239437 -37.509884 8.3779125
2.938472 -1.8182065 -1.1925266
37.325706 -37.531582 9.707305
3.8030958 -2.7348735 -1.2766404
37.441803 -37.583408 11.059612
4.2949586 -3.2508073 -1.2184763
6.4259858 -5.3127036 2.354763
0.14666741 1.1325489 -0.95947582
14.191766 -13.876234 -2.8978133
0.27077928 0.99851614 -1.0035317
1.2424743 -0.00054327538 -0.38501772
0.30741751 0.96111542 -0.97505069
1.6281056 -0.40826932 -0.35462725
0.3487722 0.918634 -0.94798476
6.3493261 -5.4355984 -0.66483045
0.51401246 0.74066502 -0.99742717
6.0611997 -5.115993 -0.40089947
0.66411883 0.57985389 -1.025913
0.80221647 0.43270215 -1.0369081
15.022887 -14.594885 0.23279925
0.92653602 0.30107746 -1.0306029
6.3913622 -5.4281287 0.3325083
1.0954633 0.12139915 -1.0378585
14.32522 -13.800995 1.2548723
1.2606671 -0.053637773 -1.0318735
7.3935232 -6.459487 0.95181096
1.3630016 -0.16000311 -0.98872972
6.6706781 -5.6832051 1.1250391
1.910744 -0.74735266 -1.1031516
7.4331164 -6.4714384 1.5274901
2.3804877 -1.2485547 -1.1531241
37.076141 -37.577133 8.3741674
2.7713888 -1.663107 -1.1464131
37.162342 -37.599228 9.7020998
3.7290792 -2.6855748 -1.2606452
37.282276 -37.65593 11.054152
4.3579698 -3.3517594 -1.2354162
6.3690834 -5.2993679 2.3449378
0.1264645 1.1472825 -0.94587409
14.084493 -13.862694 -2.8846455
0.25946122 1.002514 -0.9978255
1.2296469 -0.00167401 -0.38382047
0.2934745 0.96775126 -0.96783471
1.6139798 -0.41059935 -0.35355198
0.39072108 0.86327434 -0.97944862
0.51273143 0.73190314 -0.99955618
6.1536837 -5.2622166 -0.40562698
0.62868083 0.60763198 -1.007688
0.79626995 0.42711735 -1.0366163
6.5967765 -5.7096624 0.088714764
0.91126543 0.3048619 -1.0256636
6.4132938 -5.5007644 0.33610561
1.0975273 0.10506987 -1.0418384
14.293344 -13.869285 1.2590106
1.2117622 -0.01545045 -1.0131781
7.406601 -6.5292339 0.95807934
1.5104358 -0.33644947 -1.0511618
1.9076674 -0.76355219 -1.105094
7.4718275 -6.5684257 1.5413902
2.3917556 -1.2834821 -1.1600173
36.915295 -37.6604 8.3728447
2.8027716 -1.7224216 -1.1587384
37.013527 -37.695778 9.702774
3.5208187 -2.4920521 -1.2099786
37.120991 -37.740162 11.050577
4.3213568 -3.3481755 -1.2303333
6.2961745 -5.2714763 2.3303349
0.14562356 1.119547 -0.96392983
13.980475 -13.834963 -2.8708942
0.25599498 0.9992767 -0.99765575
1.2167201 -0.0001375284 -0.38247842
0.30434307 0.94838172 -0.978167
1.606729 -0.41736937 -0.35319838
0.38688773 0.85969466 -0.9792614
6.6004581 -5.7967601 -0.68777621
0.49008864 0.74845421 -0.98749059
6.0371509 -5.1768656 -0.39975637
0.63289368 0.59380388 -1.0127046
5.9299517 -5.0491705 -0.15861544
0.78250241 0.43218553 -1.03144
6.5606012 -5.7133479 0.089482352
0.93516749 0.26778504 -1.0406055
6.2766886 -5.3958755 0.33111876
1.0481818 0.14748575 -1.0205801
14.388387 -14.056437 1.2728961
1.2676034 -0.08914756 -1.040364
1.4657426 -0.30164263 -1.0355182
1.9153132 -0.78827643 -1.1104929
2.4337518 -1.3483948 -1.1766248
36.778286 -37.726143 8.3710575
2.7842331 -1.7236292 -1.1558707
36.858738 -37.743362 9.6954327
3.5362358 -2.534251 -1.2166381
36.983547 -37.806759 11.046716
4.3293061 -3.386739 -1.234719
6.244997 -5.2578626 2.3212273
0.13248485 1.1265092 -0.9560805
13.879013 -13.826283 -2.8587906
0.22105628 1.0298895 -0.97361779
1.2052715 -0.0026233764 -0.38149518
0.30000612 0.94435596 -0.97795612
1.5845017 -0.41080275 -0.35115752
0.38105935 0.85676438 -0.97820401
6.6019416 -5.8498769 -0.68883699
0.45935696 0.77255768 -0.97064632
5.8927979 -5.0681419 -0.39248803
0.57907522 0.64253944 -0.98327595
5.8523254 -5.0120859 -0.15658911
0.73645866 0.47116065 -1.0086045
6.5365176 -5.7384343 0.090741158
0.94388157 0.24496719 -1.0482192
6.2209396 -5.3849039 0.33067933
1.0808938 0.097384937 -1.0393651
14.340616 -14.108953 1.2757638
1.2625895 -0.099032708 -1.0411406
1.4017339 -0.2478812 -1.0124371
6.0732908 -5.1879115 1.0473356
1.8350308 -0.71980333 -1.0839596
6.1606135 -5.2687588 1.305846
2.334182 -1.2624253 -1.1467586
36.610382 -37.801079 8.3681736
2.7424445 -1.7035524 -1.1466365
36.704178 -37.833092 9.6946592
3.4904273 -2.5149624 -1.2079387
36.816612 -37.884182 11.041513
1.6542902 -0.50111037 -0.63623202
6.2166281 -5.2762184 2.3210917
0.12002417 1.1341181 -0.94826525
0.21529822 1.029411 -0.97162074
1.1910415 0.00048287888 -0.37995034
0.31072545 0.92488652 -0.98828357
1.5759048 -0.41602644 -0.35064608
0.39051303 0.83827716 -0.98718333
6.5413618 -5.8269911 -0.68446922
0.46017838 0.76331663 -0.97361153
6.0558872 -5.2848296 -0.40080753
0.51529634 0.70482785 -0.94717568
5.833005 -5.029922 -0.15565692
0.71161187 0.48897949 -0.99709916
14.063495 -13.949844 0.22853503
0.94222182 0.23572831 -1.0499382
6.2995353 -5.5109215 0.33684027
1.0279794 0.14433627 -1.0162728
1.2164695 -0.060759827 -1.0230951
7.3801451 -6.6517177 0.96762943
1.3949957 -0.25410163 -1.0121117
1.7124894 -0.60048234 -1.0411248
1.6315913 -0.50601733 -0.91500407
7.3976016 -6.625227 1.8370163
1.6391397 -0.50933093 -0.82156414
7.418848 -6.6328034 2.1335404
1.6397676 -0.50509816 -0.7275452
1.6401837 -0.50067914 -0.6343714
6.2176108 -5.3177881 2.3291061
0.11763736 1.1295441 -0.94905305
1.6347179 -0.50684184 -0.54138374
0.20085824 1.0378706 -0.96318865
1.1773582 0.0014238171 -0.37857726
0.30060682 0.9278031 -0.98370874
1.5609612 -0.41621372 -0.34944403
0.37765428 0.84374803 -0.98114061
0.47626859 0.73569572 -0.98682302
5.8243203 -5.0768347 -0.38912284
0.55609 0.64911431 -0.97460067
5.8231955 -5.0633478 -0.15480106
0.69121408 0.50074422 -0.9883877
0.91087842 0.25820556 -1.0364351
6.3166184 -5.5766349 0.34010014
0.99867511 0.163922 -1.004868
6.0044212 -5.2238307 0.56328887
1.2579877 -0.12149858 -1.0444927
7.2857156 -6.6031117 0.96071649
1.4427555 -0.32286638 -1.0344086
6.0522652 -5.2505131 1.0527499
1.6233447 -0.51896304 -1.0108125
6.0502014 -5.2355852 1.2951007
1.6140301 -0.50359368 -0.91154063
1.6201863 -0.50543141 -0.81802869
1.6220782 -0.50261873 -0.72471976
1.6317399 -0.50843132 -0.63396639
6.1838031 -5.3276324 2.3267
0.11176312 1.1289377 -0.94696826
1.630224 -0.51899815 -0.5417397
0.21578379 1.012991 -0.97766531
1.1663647 -0.00052837143 -0.37762162
0.28932822 0.93211752 -0.97826201
1.5513856 -0.42225096 -0.34888983
0.38646999 0.82471865 -0.99009091
6.2461276 -5.5991602 -0.66107762
0.44115236 0.76582605 -0.96684533
0.56462377 0.62927938 -0.98258269
0.67710501 0.50560606 -0.98320049
0.82830095 0.33874306 -0.99587631
6.0114684 -5.2895703 0.32631567
1.0491483 0.09407676 -1.0322883
5.9790874 -5.24154 0.56413364
1.2124836 -0.085189119 -1.0269914
7.2548852 -6.6231475 0.9615019
1.4901311 -0.39193875 -1.0566902
6.0375328 -5.2801046 1.0551007
1.6032586 -0.51364392 -1.0060711
5.9724188 -5.1964726 1.2856679
1.6030135 -0.50836277 -0.91026592
1.605206 -0.50582451 -0.81567049
1.6136398 -0.51031846 -0.72431719
1.6166568 -0.50880933 -0.63206422
7.3961749 -6.6855268 2.7382908
0.10222893 1.132141 -0.94200248
1.6198847 -0.52569586 -0.54105866
0.20113772 1.0213053 -0.96922451
1.1536405 -0.0013269107 -0.37644136
0.28020966 0.93355834 -0.97455579
1.5333166 -0.41979933 -0.34734881
0.36378378 0.84096193 -0.97737747
6.2318606 -5.6336684 -0.66080785
0.45804858 0.73650682 -0.98083055
0.61071885 0.56590486 -1.013706
5.5256968 -4.8257155 -0.14858603
0.67632711 0.49479333 -0.98574483
7.1710911 -6.6323552 0.10900682
0.87075824 0.27785456 -1.0213156
5.9806142 -5.3040566 0.32710299
1.0370979 0.093422778 -1.0294914
5.9859252 -5.2973289 0.56798595
1.2049084 -0.092058353 -1.0266325
7.2331591 -6.6563034 0.96367341
1.5225601 -0.44587192 -1.0731387
1.5866001 -0.5130288 -1.0027571
5.9577785 -5.2284927 1.2886038
1.5876031 -0.50916332 -0.90765923
7.3094916 -6.6949062 1.8397534
1.5936654 -0.51099521 -0.81446522
7.3371921 -6.7099576 2.1378498
1.6033704 -0.51697242 -0.72354698
1.6142805 -0.5243116 -0.63313556
0.10734739 1.1202075 -0.94856453
1.6207809 -0.54091656 -0.54224521
0.20726448 1.0076807 -0.97640049
1.1425741 -0.00059121056 -0.37534148
0.27562174 0.93184304 -0.97352016
1.5158937 -0.414038 -0.34574232
0.35776114 0.84042764 -0.97554183
6.2296882 -5.6705747 -0.66137236
0.48919803 0.69285268 -1.0035491
5.4388251 -4.7761583 -0.36976576
0.60519642 0.56342292 -1.0127559
5.5067816 -4.8400831 -0.14773513
0.64964259 0.51610237 -0.97286648
7.1637821 -6.668571 0.1103252
0.89066321 0.24496202 -1.0342741
5.9832244 -5.344769 0.32913825
1.0153108 0.10708187 -1.0212283
6.0152864 -5.3676362 0.57312518
1.1508615 -0.042733561 -1.0046384
1.460897 -0.38976583 -1.0501797
1.575803 -0.51492369 -1.0009849
5.9443703 -5.251265 1.2905159
1.5832484 -0.51834595 -0.90820509
1.5932174 -0.52460545 -0.8160907
1.5963869 -0.52326936 -0.72321761
36.044933 -38.203419 11.011971
1.6151574 -0.53949749 -0.63460088
36.140007 -38.237797 12.374601
0.11406958 1.10501 -0.95700878
1.6214151 -0.5590024 -0.54361266
0.21147527 0.99474132 -0.98262691
1.1302948 -0.00091701141 -0.37418637
0.27971154 0.91860026 -0.9794457
1.4957414 -0.40800962 -0.34391138
0.35334653 0.83646917 -0.97533488
6.2510629 -5.7426 -0.6641283
0.4903715 0.6815654 -1.0072691
5.4176579 -4.7951393 -0.36877218
0.59022772 0.56993479 -1.0065365
5.5600104 -4.9427757 -0.14791691
0.68853068 0.46045393 -0.99794
0.8956638 0.2266223 -1.0399208
5.9669414 -5.372797 0.33057564
1.0412891 0.063926667 -1.0369251
5.9868841 -5.3823791 0.57373422
1.0945871 0.0071983933 -0.98202896
7.3545766 -6.8902197 0.98709804
1.3688653 -0.3012546 -1.0150642
1.5763426 -0.53269178 -1.0039597
7.4031229 -6.9135585 1.5783582
1.5825326 -0.53471971 -0.91042531
35.700661 -38.203781 8.3531761
1.5925124 -0.54104435 -0.81803507
35.796009 -38.241306 9.6731701
1.5957155 -0.53974968 -0.72488832
35.904472 -38.29253 11.012175
1.6079085 -0.54865474 -0.63449818
36.00061 -38.328758 12.374615
0.12642038 1.0830879 -0.97023576
1.6245866 -0.58009768 -0.54548329
0.19825986 1.0020132 -0.97511882
1.1193428 -0.0026848 -0.37323961
0.27318385 0.91759944 -0.97750252
1.4862072 -0.41384017 -0.34336764
0.33824086 0.84492719 -0.96763802
0.48308805 0.67999506 -1.0054631
5.3937707 -4.8110814 -0.36764655
0.58258754 0.56809366 -1.0048008
5.74018 -5.1893983 -0.15009092
0.71485245 0.41871211 -1.0159669
14.087465 -14.55917 0.24815384
0.88819778 0.22249626 -1.0389705
14.387765 -14.868645 0.78987473
1.0183523 0.076616906 -1.0286121
5.9983382 -5.4417167 0.57789463
1.1581743 -0.079901963 -1.0136869
7.3375506 -6.9267564 0.98970944
1.3978448 -0.35038114 -1.0299582
14.329639 -14.719267 2.3942239
1.5767951 -0.55049282 -1.0069313
5.9436793 -5.3423457 1.3014069
1.5817387 -0.55111682 -0.91264445
35.559158 -38.290215 8.3542986
1.5826812 -0.54718316 -0.81724638
35.641056 -38.31348 9.6701298
1.5962641 -0.55773497 -0.72690225
35.751934 -38.368126 11.008796
4.1173277 -3.4192216 -1.2104242
35.840069 -38.396126 12.367558
0.12863396 1.0733172 -0.97485727
13.113606 -13.710795 -2.7650211
0.1645609 1.0339139 -0.95114642
1.1061904 -0.0010523838 -0.37190199
0.26574075 0.91821253 -0.97469759
1.4758315 -0.4177098 -0.34268802
0.33173338 0.84401888 -0.96578312
0.46413395 0.69265836 -0.99577916
5.562808 -5.0432105 -0.37632102
0.57767832 0.56374151 -1.0045726
5.6250787 -5.1016822 -0.14763649
0.72174346 0.39980292 -1.0227504
14.119657 -14.690982 0.2519083
0.8342284 0.2730557 -1.0129905
14.397831 -14.977244 0.79529816
0.98345554 0.10416937 -1.0141711
6.0254641 -5.5163827 0.58330345
1.2242208 -0.16991085 -1.0464869
13.882684 -14.341234 1.8112705
1.451057 -0.42697755 -1.0548561
14.550068 -15.063365 2.4393923
1.6387846 -0.63821679 -1.0330155
5.9087443 -5.3468084 1.29984
1.5775368 -0.56266773 -0.91357869
35.411533 -38.355042 8.352025
35.49984 -38.386036 9.6684713
35.601318 -38.430901 11.003479
35.695824 -38.466599 12.363221
0.13625382 1.056625 -0.98425066
13.019376 -13.698639 -2.7537575
0.17796452 1.0101776 -0.96469766
1.0965736 -0.0042228457 -0.37116677
0.25922754 0.91726792 -0.97275764
1.451849 -0.40695745 -0.3403883
0.32497069 0.84290671 -0.96391606
5.4899206 -5.0164399 -0.6013605
0.437821 0.71355677 -0.9813537
5.6383481 -5.1737967 -0.38026217
0.56883132 0.56336403 -1.0020919
5.5250583 -5.032548 -0.14539997
0.70385379 0.40899166 -1.0154574
0.82199061 0.27485457 -1.0094144
13.007937 -13.503431 0.72417623
0.99794245 0.07381776 -1.0243216
5.9887519 -5.5221291 0.58319902
1.2143183 -0.17352685 -1.0450039
35.036491 -38.311855 5.7406244
1.72262 -0.75322431 -1.0677106
5.8974805 -5.3805304 1.3032269
35.257938 -38.427158 8.3503618
35.34343 -38.455605 9.6650209
3.2364557 -2.4813995 -1.1678991
35.455124 -38.512703 11.002024
4.1270747 -3.4977016 -1.2187464
35.542908 -38.541565 12.358751
0.12886786 1.0571597 -0.98119843
12.917356 -13.682495 -2.7413771
0.19902579 0.97662342 -0.98463708
1.0787246 0.0012995561 -0.3691783
0.22578172 0.94775599 -0.95071638
1.4366179 -0.40704727 -0.33919072
0.32147577 0.83742797 -0.96453363
5.4982243 -5.0728707 -0.6030125
0.36858764 0.78483117 -0.93852502
5.6159949 -5.1960349 -0.3792429
0.58850932 0.52880287 -1.0175033
5.5109982 -5.0634775 -0.14447486
0.70389438 0.39658222 -1.0186944
13.409818 -14.090087 0.24457571
0.81064314 0.27495643 -1.0064831
12.928949 -13.514161 0.72487044
1.0094006 0.045907542 -1.0332186
5.9467235 -5.5244346 0.58279383
1.1840415 -0.15418124 -1.0343747
13.931093 -14.603808 1.8350623
1.3689408 -0.36555892 -1.0267537
34.882744 -38.396259 5.7425056
1.4992802 -0.51271045 -0.98604107
34.976025 -38.435562 7.0317216
1.5840077 -0.60634756 -0.92103779
35.096966 -38.50507 8.3490038
1.5774274 -0.59363675 -0.82229471
35.194019 -38.547211 9.6657324
1.5896988 -0.60290259 -0.73087031
35.28846 -38.585686 10.996924
1.6005735 -0.61055315 -0.63916701
35.378719 -38.617954 12.353259
0.12328757 1.0569581 -0.97913396
0.17721303 0.99535453 -0.9698379
1.0699553 -0.0010608812 -0.36848548
0.2094388 0.95976436 -0.94094408
1.4254639 -0.40882748 -0.33838147
0.31171682 0.84098864 -0.9601984
5.4801126 -5.0912943 -0.60223919
0.3526971 0.79536116 -0.93045431
14.049586 -14.969238 -0.80817312
0.57662034 0.5332126 -1.0128138
5.3761878 -4.9474998 -0.14181192
0.64925361 0.45079452 -0.98965901
0.79061991 0.28756621 -0.99833524
12.895129 -13.559507 0.7272107
0.99481064 0.050866883 -1.0286448
5.9102173 -5.5244565 0.58230948
1.1837633 -0.16713317 -1.0369301
1.4244821 -0.44513127 -1.0527003
14.302119 -15.090251 2.431174
1.5573919 -0.59596604 -1.010685
34.835602 -38.492111 7.0301814
1.5649004 -0.59968919 -0.91676927
34.961468 -38.568008 8.3475428
1.5659297 -0.59584445 -0.82077622
35.054417 -38.606136 9.6622658
1.5742958 -0.60063964 -0.72845513
35.159069 -38.656754 10.995549
1.5838137 -0.60679066 -0.63672727
35.246559 -38.686489 12.350286
0.12086152 1.0525339 -0.97992927
0.16551965 1.0016952 -0.96326619
1.0543008 0.0038035517 -0.36674756
0.25289437 0.89982259 -0.97657079
1.4060414 -0.40191278 -0.33659619
0.30405968 0.84157503 -0.95751572
5.4515233 -5.1002016 -0.60061997
0.43814769 0.68459588 -0.99018377
0.5119369 0.5999313 -0.97530586
5.2930331 -4.8925261 -0.13992524
0.68982649 0.39180654 -1.0161111
13.613495 -14.506499 0.25463307
0.8056162 0.25808674 -1.0092697
0.97372311 0.062815621 -1.0209827
5.890687 -5.5466533 0.58355397
1.1668968 -0.16145217 -1.0320532
13.935329 -14.795453 1.8515632
1.2919815 -0.3046039 -0.99983281
1.5404363 -0.59267431 -1.0069532
34.695747 -38.5634 7.0304971
1.5491285 -0.59785473 -0.91378736
13.986217 -14.769886 3.4635649
1.5513818 -0.59546959 -0.8184576
34.899723 -38.661938 9.657012
1.5584095 -0.59875989 -0.72601998
35.008076 -38.717518 10.990124
1.5807087 -0.61994368 -0.63754511
35.096722 -38.749161 12.344083
0.12267447 1.0425057 -0.9845373
1.5787833 -0.63064522 -0.54415756
0.14683264 1.0161127 -0.95120001
1.0447342 0.00081741717 -0.36602131
0.25210583 0.89202088 -0.97899908
1.388788 -0.39835483 -0.33511242
0.29615685 0.8419714 -0.95482314
5.4488959 -5.1419878 -0.60131007
0.41444686 0.70299309 -0.97735071
13.848372 -14.936989 -0.79849511
0.52465141 0.57414746 -0.98625594
5.276701 -4.9171457 -0.13903193
0.68529004 0.38542923 -1.0165553
13.524268 -14.504154 0.25608674
0.81282306 0.23688059 -1.0162334
12.950349 -13.810219 0.73966825
0.96700889 0.057034548 -1.0206792
5.8397183 -5.5352106 0.58210522
1.1545849 -0.16193488 -1.0294404
14.12638 -15.120151 1.8848126
1.3935924 -0.44120827 -1.0456779
14.438739 -15.453104 2.4746544
1.5280194 -0.59567994 -1.0051217
34.547264 -38.638901 7.0308561
1.5353971 -0.59937388 -0.91165578
13.995722 -14.884299 3.4802129
1.5388832 -0.59846514 -0.81689769
14.885944 -15.880284 4.2628164
1.5445924 -0.60025793 -0.72425234
34.863941 -38.800213 10.989367
1.5629499 -0.61696738 -0.63506377
34.938267 -38.816086 12.337742
0.12131769 1.0367194 -0.98628712
1.5704625 -0.63777012 -0.5437842
0.1601298 0.99237967 -0.96475089
1.0304317 0.0042870496 -0.36449474
0.24924091 0.88720077 -0.97969186
1.3797944 -0.40342829 -0.33460763
0.28156856 0.85103416 -0.94715935
5.4254036 -5.1568441 -0.60014743
0.36064884 0.75855362 -0.9440462
0.5742901 0.50426948 -1.0203185
5.2797103 -4.9619498 -0.13847107
0.64993119 0.41678545 -0.99876171
13.679753 -14.781717 0.26244074
0.80698919 0.23188648 -1.0159719
13.456032 -14.492849 0.77288347
0.9594543 0.053073149 -1.0197809
5.7967548 -5.5299425 0.58118206
1.1390305 -0.15758626 -1.02514
14.2006 -15.305863 1.9028344
1.354887 -0.41083422 -1.0322115
1.493649 -0.57143033 -0.99467778
34.405861 -38.707687 7.0308638
1.533494 -0.61384976 -0.91346186
13.861822 -14.827198 3.4622655
1.5332143 -0.60848111 -0.81730795
14.802181 -15.887186 4.2563605
1.5414598 -0.61331278 -0.7252571
34.715351 -38.8629 10.984683
1.5534024 -0.62253553 -0.63439471
34.785721 -38.874763 12.330604
0.12504213 1.0237434 -0.99279481
1.5661814 -0.65183276 -0.54436898
0.16719873 0.97504234 -0.97370487
1.0217524 -0.00048593758 -0.3639594
0.22645298 0.9056102 -0.96552795
1.364682 -0.40319714 -0.33342639
0.27230266 0.85270315 -0.94362938
5.4095545 -5.1860604 -0.5997678
0.41413927 0.68340105 -0.98322189
15.268158 -16.823559 -0.87143517
0.56384122 0.5051257 -1.0170817
5.8657336 -5.70012 -0.14656818
0.6427359 0.41312134 -0.99779207
13.634855 -14.838301 0.26504046
0.81124967 0.21319552 -1.0215983
0.95352751 0.045531068 -1.0200763
5.7821779 -5.5633206 0.58325595
1.130002 -0.16275096 -1.0242221
14.248213 -15.474692 1.9186668
1.3129487 -0.3781001 -1.0176635
1.5106544 -0.6104964 -1.0043452
34.247314 -38.785328 7.0309768
1.5304973 -0.62921655 -0.91522157
1.5327761 -0.62688619 -0.8196165
14.73257 -15.923149 4.2557931
1.5423026 -0.63329113 -0.72758788
34.546978 -38.931538 10.97904
1.5504344 -0.63804525 -0.63546497
34.635075 -38.96455 12.329846
0.12006593 1.0218364 -0.99166805
1.5623653 -0.66545355 -0.54497761
0.15756942 0.97854537 -0.96895695
1.0070884 0.0027458202 -0.36242044
0.2279164 0.89506596 -0.96970254
1.3449526 -0.39638278 -0.33163545
0.27367529 0.84195179 -0.94758731
0.44186392 0.63944459 -1.0050619
14.243667 -15.721317 -0.81961036
0.55490696 0.50486159 -1.0146079
5.826323 -5.7020168 -0.14527555
0.68104935 0.35477701 -1.0235
13.172306 -14.393996 0.25851306
0.80858135 0.20351909 -1.0232928
13.328076 -14.551601 0.77608192
0.96129268 0.022185436 -1.0271409
5.7546587 -5.5787463 0.5839442
1.1348281 -0.1837766 -1.0295887
13.81986 -15.077386 1.8724537
1.3049252 -0.38488597 -1.0173082
1.510613 -0.62833095 -1.0073137
34.098415 -38.859318 7.0312619
1.5291963 -0.64565694 -0.91743749
13.718338 -14.873744 3.4581375
1.5327647 -0.64488018 -0.82194602
34.293846 -38.953777 9.6485949
1.5435674 -0.65286452 -0.72993976
34.394726 -39.003815 10.975825
1.544117 -0.64856774 -0.63566685
34.482674 -39.037266 12.325625
0.11421289 1.0215052 -0.98959714
1.5615559 -0.68168718 -0.54610986
0.1605145 0.96707875 -0.97427326
0.99796414 0.0002740887 -0.36172086
0.23184896 0.88191539 -0.97563267
1.3270414 -0.39060384 -0.33002874
0.26722679 0.84128392 -0.94574338
14.325997 -15.951573 -1.3799279
0.44527721 0.62550324 -1.0103664
0.54395592 0.50777876 -1.0106597
13.999102 -15.503149 -0.26542723
0.67554539 0.35015023 -1.0232575
12.9699 -14.248033 0.25722167
0.82179803 0.17515071 -1.0335529
13.182976 -14.475147 0.77253711
0.95003378 0.022665931 -1.0244024
5.7220802 -5.5852733 0.58396429
1.1375582 -0.20151941 -1.0338328
13.927597 -15.304464 1.895005
1.2850921 -0.3763465 -1.0117316
14.693752 -16.183365 2.5614614
1.503597 -0.6367659 -1.0074301
14.315577 -15.706452 3.053431
13.765509 -15.027757 3.4832079
13.44869 -14.626073 3.9358044
2.9895453 -2.4155176 -1.1261628
34.253567 -39.073841 10.973444
34.332417 -39.097294 12.3193
0.10176372 1.0294185 -0.9817968
12.205091 -13.578189 -2.6565671
0.15671402 0.96390182 -0.97410691
0.98503566 0.0024312227 -0.36040998
0.23571911 0.86873198 -0.98155898
1.3142705 -0.39088657 -0.32905906
0.2539227 0.84913278 -0.93892008
14.221441 -15.929673 -1.3730061
0.40813965 0.66154522 -0.98811203
14.150376 -15.815167 -0.81555957
0.52952397 0.51506811 -1.0044804
14.068255 -15.687753 -0.26498613
0.82533413 0.15841253 -1.038547
13.078139 -14.445559 0.77126187
0.93277615 0.030568724 -1.0186005
5.6972017 -5.6008611 0.58470231
1.0601537 -0.12128997 -1.0005209
1.3056586 -0.41701165 -1.0234532
14.569947 -16.141712 2.5517955
1.4891682 -0.63617325 -1.0046709
14.44591 -15.964525 3.0925241
1.9498663 -1.1922705 -1.0698922
13.859049 -15.238075 3.5196164
13.447639 -14.721891 3.9509196
34.108437 -39.138973 10.969853
34.193447 -39.170242 12.316923
0.097911738 1.0262172 -0.98162901
12.11532 -13.565075 -2.6460087
0.16489157 0.94525498 -0.98397768
0.97298765 0.0027665785 -0.35928833
0.22463591 0.87356085 -0.97613895
1.2997675 -0.38997775 -0.32791284
0.254087 0.83980638 -0.94204777
14.112666 -15.908433 -1.3658574
0.39051795 0.67319387 -0.97923642
14.085059 -15.846048 -0.81262428
0.52065277 0.51493663 -1.002013
13.819547 -15.496584 -0.25980332
0.58765686 0.43537393 -0.97718722
13.101206 -14.601978 0.26642984
0.80940133 0.16481875 -1.0330091
13.001294 -14.454844 0.77187943
0.8900044 0.069276311 -0.99990845
5.6772804 -5.6252112 0.58610153
1.1254063 -0.21663871 -1.0343325
13.487 -14.984158 1.8551009
1.3072639 -0.43575439 -1.0272896
1.4742458 -0.63595182 -1.0018923
13.760164 -15.255498 2.9660764
2.1134889 -1.4142187 -1.1305978
13.873512 -15.36227 3.5381393
13.384939 -14.750966 3.9499936
3.0046804 -2.4901159 -1.1366093
33.954609 -39.208134 10.966163
34.03949 -39.239876 12.312196
0.089905396 1.0287192 -0.97765261
12.039791 -13.563123 -2.6378403
0.15992276 0.94345707 -0.9828974
0.96136832 0.0034886845 -0.35818648
0.21720803 0.87442726 -0.97334743
1.2845037 -0.38707104 -0.32663277
0.24651845 0.84063405 -0.93937796
14.007317 -15.884083 -1.3588698
0.41231713 0.63635564 -0.99713868
0.52139896 0.50351369 -1.0055137
13.543396 -15.262982 -0.25436172
0.65743774 0.33753619 -1.0218172
13.088112 -14.682842 0.26925409
0.71810883 0.2658039 -0.98544705
12.949092 -14.48761 0.7736252
0.90161884 0.041833106 -1.0088301
5.6573925 -5.6468172 0.58731675
1.095422 -0.19415721 -1.0232203
13.419191 -15.001413 1.8547013
1.2813466 -0.41961351 -1.0190992
13.567119 -15.152037 2.4056933
1.4671931 -0.64429653 -1.0020127
2.132587 -1.459221 -1.1405516
13.73749 -15.300323 3.5194871
2.4059634 -1.789162 -1.1047432
13.38699 -14.851425 3.9661713
3.0559425 -2.5806732 -1.1538215
33.81308 -39.276772 10.963716
33.897774 -39.308891 12.308894
0.091266088 1.0184675 -0.9822489
11.943863 -13.546902 -2.6264513
0.15778139 0.93709362 -0.98453563
0.950203 0.0020434419 -0.35725603
0.22158135 0.85938787 -0.98012269
1.2607641 -0.37560612 -0.32436919
0.24636495 0.83109021 -0.94249511
13.903464 -15.873761 -1.352299
0.40929428 0.62911582 -0.99848247
13.903682 -15.845236 -0.80420411
0.513358 0.50171441 -1.0037794
13.284136 -15.059241 -0.2490416
0.6570335 0.32508552 -1.0250516
13.285433 -15.033161 0.27722004
0.79538518 0.15572245 -1.0317976
0.882541 0.050799433 -1.0023928
13.159473 -14.825084 1.3085158
1.0371077 -0.13784027 -0.99900413
13.461834 -15.164956 1.8699968
1.236445 -0.38155794 -1.0030229
1.4602935 -0.65498739 -1.0025661
13.939912 -15.688051 3.0294421
1.4858673 -0.68165296 -0.91554785
13.79478 -15.483442 3.5494862
2.4509943 -1.8715069 -1.1224036
13.410122 -14.990364 3.9903729
3.0046089 -2.5488894 -1.1432397
33.651718 -39.350975 10.960282
3.8764923 -3.6168923 -1.1989274
33.734951 -39.382057 12.303986
0.085439846 1.0182484 -0.98018342
11.854902 -13.527303 -2.6155684
0.14290099 0.94791359 -0.97524005
0.93986845 0.001312033 -0.35636285
0.2119114 0.86311144 -0.97558981
1.24685 -0.37409672 -0.32325444
0.25007159 0.81767267 -0.94812137
13.840106 -15.899695 -1.3490129
0.34182987 0.70457852 -0.95501089
13.902057 -15.947187 -0.80453795
0.51517802 0.48882234 -1.0080235
13.321303 -15.204449 -0.24817963
0.60137504 0.38362396 -0.9946878
0.77639484 0.16704392 -1.0243154
13.205001 -15.006514 0.79912847
0.91532451 -0.0035368656 -1.0223355
13.022813 -14.756252 1.3020823
1.0947993 -0.22440611 -1.0293953
13.153803 -14.88903 1.8376529
1.2240608 -0.38169947 -1.0006051
12.918868 -14.575162 2.3178575
1.4495404 -0.6587528 -1.0012527
13.808499 -15.6315 3.0149636
13.601284 -15.350555 3.5166936
2.4442012 -1.8871826 -1.1234517
13.421159 -15.103354 4.0093904
3.0614164 -2.6475062 -1.1621408
33.514942 -39.424694 10.95938
33.595497 -39.453087 12.301517
0.076378219 1.0222105 -0.97525692
11.771124 -13.513525 -2.6057072
0.14671804 0.93497169 -0.98146486
0.9270525 0.0037228195 -0.35506454
0.1989408 0.87112999 -0.96844512
1.2292125 -0.36786881 -0.3216708
0.26045597 0.79563302 -0.95872182
13.820612 -15.979816 -1.3496089
0.27592397 0.77895951 -0.91234505
13.887431 -16.033718 -0.8042227
0.47903043 0.5240379 -0.98772639
13.350226 -15.340676 -0.2471922
0.6400466 0.3233346 -1.0210702
13.60342 -15.625233 0.29092976
0.75396585 0.18290113 -1.0148685
0.87217909 0.037455719 -1.0030735
12.960946 -14.778187 1.3027923
1.070996 -0.20915201 -1.0211387
12.974492 -14.767618 1.8222215
1.2188993 -0.39086023 -1.0013285
12.759384 -14.476676 2.3008029
1.442414 -0.66703737 -1.001375
13.838065 -15.770947 3.0337992
1.8974798 -1.2327752 -1.067251
13.551301 -15.391121 3.5188258
2.3981676 -1.8537878 -1.112107
13.425435 -15.208904 4.0266576
3.0721707 -2.6895397 -1.1683824
13.798335 -15.634882 4.68822
3.6627488 -3.4185197 -1.1543145
33.457188 -39.525188 12.299473
0.066267043 1.0276018 -0.96937841
11.687518 -13.499398 -2.5958588
0.14829001 0.92480761 -0.9858638
0.9155066 0.0046330295 -0.35397273
0.18823449 0.87636811 -0.9630456
1.2166088 -0.3677915 -0.32071942
0.26849002 0.77639401 -0.96766078
13.809517 -16.070892 -1.3509746
0.34860373 0.67694521 -0.96563351
13.869942 -16.117199 -0.80377519
0.50375932 0.48196942 -1.0068431
13.919957 -16.150433 -0.25381351
0.64254946 0.30850545 -1.0257354
13.081437 -15.080264 0.28212279
0.69777858 0.24194136 -0.98639578
12.542878 -14.385377 0.76930565
0.90465742 -0.017067952 -1.0230055
12.815002 -14.695872 1.29533
1.0591674 -0.20884044 -1.0185668
13.143268 -15.074445 1.8534048
1.2256732 -0.41516057 -1.0072823
1.4304414 -0.66921479 -0.99958646
13.845716 -15.884528 3.0482206
1.7735252 -1.0969573 -1.0261419
13.754315 -15.742817 3.5832689
2.3584485 -1.8278517 -1.1027095
13.301178 -15.157404 4.007597
3.0213859 -2.6545517 -1.1575441
13.736238 -15.662322 4.6867971
4.301177 -4.2529716 -1.3106313
33.307598 -39.583237 12.293406
0.060487386 1.0274708 -0.96731728
11.60778 -13.489605 -2.5867772
0.13566545 0.9329294 -0.97839808
0.90893137 -0.00064386334 -0.35369527
0.19079261 0.8645727 -0.96809983
1.207747 -0.37234581 -0.32024109
0.24853539 0.7930488 -0.95587212
13.795526 -16.15892 -1.352114
0.34399113 0.67324424 -0.9654392
13.815906 -16.15543 -0.80147278
0.50887591 0.46465176 -1.0133152
13.911968 -16.24659 -0.25224277
0.63691622 0.30398533 -1.0254979
12.962643 -15.031991 0.28254193
0.74896306 0.16432644 -1.0182974
12.413433 -14.320138 0.7662915
0.89107138 -0.013322333 -1.0190575
12.699627 -14.65024 1.2907615
1.0497217 -0.21150237 -1.0171325
12.874379 -14.840495 1.825793
1.1130672 -0.28771695 -0.96095473
12.856673 -14.791436 2.3378997
1.3728321 -0.61335462 -0.97964156
13.68593 -15.791569 3.0276935
1.6056168 -0.90373671 -0.96905982
2.2933578 -1.7693877 -1.0851963
13.242978 -15.18643 4.0072174
3.062505 -2.7352552 -1.1723161
13.559272 -15.548021 4.6483026
3.9536867 -3.8521302 -1.2306681
33.169037 -39.654404 12.291318
0.06090549 1.0188107 -0.97096974
11.518082 -13.472304 -2.5761037
0.12068417 0.94374162 -0.96910125
0.89206326 0.0062623313 -0.35177827
0.18644935 0.86110789 -0.96791828
1.1761341 -0.34910455 -0.31692401
0.24286625 0.79085493 -0.95485276
13.781665 -16.254265 -1.353446
0.32446262 0.68824524 -0.95501435
13.811996 -16.263386 -0.8017804
0.50221616 0.46171406 -1.0123408
13.814446 -16.237396 -0.24933846
0.62862217 0.30216172 -1.0238464
13.608427 -15.949365 0.30121842
0.70777589 0.20397219 -0.99835187
12.296505 -14.275357 0.76427877
0.87009925 -0.00082664518 -1.0114233
12.663867 -14.709406 1.2943563
1.0398355 -0.21448243 -1.015681
12.813071 -14.869006 1.8265979
1.1706548 -0.37759557 -0.98937178
13.380979 -15.550874 2.4396033
1.4059849 -0.6738565 -0.99599433
13.585668 -15.777702 3.0203145
1.6140928 -0.93444067 -0.97514433
13.593087 -15.757908 3.573878
2.3042355 -1.8084018 -1.0920346
13.251998 -15.305142 4.0270872
3.1023159 -2.8169346 -1.1870368
13.538623 -15.632191 4.6613307
33.006989 -39.711342 12.283742
0.055725355 1.0169474 -0.96984464
11.434427 -13.467719 -2.5670779
0.11849282 0.93746328 -0.97074425
0.88098544 0.0050973189 -0.35086194
0.18402617 0.85459256 -0.96946669
1.1639228 -0.35115215 -0.31609944
0.24246149 0.78124368 -0.95796508
13.66405 -16.225185 -1.345741
0.32714641 0.67394602 -0.96030062
13.92931 -16.532623 -0.80835384
0.490697 0.4644292 -1.0083807
0.62798268 0.28970134 -1.0270793
12.686127 -14.90184 0.28293353
0.70803273 0.18971059 -1.0020075
12.369394 -14.475152 0.77414924
0.86511624 -0.0096352706 -1.012342
12.658367 -14.813112 1.3013775
1.013063 -0.19655214 -1.0062709
4.0128093 -3.9064882 0.63650894
1.1728072 -0.39806047 -0.99371922
12.895829 -15.057521 2.3675056
1.378679 -0.65832931 -0.98843825
13.575116 -15.882202 3.0326438
1.7549839 -1.1367154 -1.0291839
13.628023 -15.919333 3.5993452
2.3141823 -1.8480901 -1.0988371
13.891683 -16.219826 4.2294111
2.890883 -2.579663 -1.131479
13.531537 -15.740331 4.6800756
3.9671571 -3.9475589 -1.2414849
32.847198 -39.785809 12.279998
0.053354874 1.0128413 -0.97065514
11.355469 -13.451609 -2.5576642
0.13422774 0.90907699 -0.98700875
0.87115002 0.004946453 -0.34999883
0.17580776 0.8572852 -0.9658249
1.1396303 -0.33475357 -0.31361684
0.24723883 0.76646966 -0.96442449
13.928257 -16.662785 -1.3715792
0.29155919 0.71146125 -0.93812156
13.490103 -16.074467 -0.78630674
0.49146533 0.45321473 -1.011893
13.520652 -16.084702 -0.24232447
0.61581415 0.29442489 -1.022661
12.6792 -14.986223 0.28573665
0.70934343 0.17631011 -1.0057085
12.258392 -14.425215 0.77186626
0.86016375 -0.015962316 -1.0126996
0.9900704 -0.18048614 -0.99805582
1.177469 -0.41896501 -0.99864531
12.190845 -14.261228 2.2543929
1.3340397 -0.61685276 -0.97331816
13.072113 -15.318311 3.4742594
2.2695942 -1.8132741 -1.0875661
13.229756 -15.488333 4.054708
2.9046569 -2.6240087 -1.1384432
13.515251 -15.818037 4.6924429
3.7236044 -3.6685297 -1.1856546
32.716999 -39.85112 12.277976
0.04816439 1.0110086 -0.96953249
11.268479 -13.441604 -2.547931
0.12012278 0.91837525 -0.97861862
0.86131519 0.0022965553 -0.34928921
0.161413 0.86659271 -0.95780212
1.1140373 -0.31934378 -0.31108221
0.24013254 0.76552755 -0.96256602
13.396565 -16.10265 -1.326987
0.30648676 0.68110424 -0.95205069
13.937247 -16.767857 -0.80984759
0.37432224 0.59496194 -0.93813175
13.47254 -16.142712 -0.24006753
0.61965036 0.27601007 -1.0286915
12.554407 -14.939184 0.2862753
0.7220726 0.14547946 -1.0165713
12.242451 -14.513878 0.77634168
0.84818065 -0.015674835 -1.0099502
12.567514 -14.902244 1.3063514
1.0055101 -0.2171158 -1.0090709
1.2217112 -0.49466628 -1.02178
1.2194893 -0.48701152 -0.93047476
13.178186 -15.596439 2.9750168
1.8993528 -1.3659811 -1.0879629
2.2254572 -1.7830379 -1.0769901
13.400004 -15.820075 4.1228366
2.9746232 -2.7469425 -1.1619799
13.478032 -15.889513 4.7016196
3.7096393 -3.6895206 -1.1860578
0.05080834 0.999699 -0.97509944
11.187145 -13.426968 -2.5384393
0.11511882 0.91673499 -0.97754496
0.84987438 0.0034753236 -0.34821072
0.18762562 0.82310718 -0.98199791
1.0980213 -0.3141256 -0.3096841
0.23905383 0.75776649 -0.96487117
0.30188522 0.67752069 -0.95186162
14.571958 -17.697498 -0.84301221
0.48705772 0.43563434 -1.0158901
13.444166 -16.212967 -0.23826206
0.61392844 0.27155459 -1.0284579
0.66345221 0.20999193 -0.98618251
12.443153 -14.869253 0.79375726
0.85201216 -0.034412745 -1.0151837
12.478585 -14.887999 1.3042793
0.99840903 -0.22264494 -1.0087793
1.1576462 -0.42710078 -0.99640882
12.020312 -14.248103 2.2459712
1.3295116 -0.64749861 -0.97784495
13.446686 -16.043236 3.0454342
1.9068522 -1.3972672 -1.0940173
12.917169 -15.339038 3.4663002
2.2271223 -1.8091 -1.0807655
13.098103 -15.541229 4.0520444
2.5513179 -2.2248142 -1.0453393
12.997352 -15.384577 4.5623331
3.6241465 -3.6131818 -1.1685805
13.785848 -16.35601 5.4008741
0.044767763 0.99946982 -0.97303277
11.110487 -13.423554 -2.5303402
0.11093169 0.91349423 -0.9773742
0.83683139 0.0059618126 -0.34691602
0.18639456 0.81532347 -0.98442549
1.0888689 -0.31868702 -0.30920476
0.24093919 0.7454142 -0.96964854
25.717958 -32.349586 -2.4362481
0.26498091 0.71640414 -0.92889333
14.472274 -17.691231 -0.83851922
0.47921813 0.43426317 -1.0141771
13.36218 -16.220783 -0.23565568
0.59769374 0.28031361 -1.0219181
12.525398 -15.108533 0.29212531
0.72201508 0.11912345 -1.0232623
14.220034 -17.272156 0.91068268
0.85533738 -0.05350918 -1.0203962
12.21933 -14.659527 1.2854395
0.9584443 -0.18566896 -0.99260491
3.9080617 -3.9225445 0.63509595
1.1984541 -0.49805468 -1.0179856
11.857178 -14.140526 2.2279108
1.2161639 -0.51663679 -0.93505454
13.564538 -16.308064 3.0848899
1.7764368 -1.2487959 -1.0499792
12.915129 -15.445567 3.4814129
2.2814491 -1.9060153 -1.1018708
13.104926 -15.660409 4.0719399
12.942776 -15.424346 4.5641088
0.041057508 0.99661523 -0.97288239
11.030669 -13.409853 -2.521132
0.10380103 0.91474497 -0.97448027
0.82664162 0.0056528579 -0.34604415
0.18754129 0.80484617 -0.98860294
1.0644486 -0.30225432 -0.30672371
0.2321703 0.74785537 -0.96615815
0.27696735 0.69081646 -0.94048458
12.763715 -15.57556 -0.75120705
0.44837126 0.46442032 -0.99689448
0.59198159 0.27591839 -1.0216863
12.671412 -15.399893 0.29900384
0.70905238 0.12345516 -1.0190833
0.82810825 -0.031210147 -1.0091324
12.148433 -14.66623 1.285032
0.99178344 -0.24471709 -1.0121474
3.8891654 -3.9345708 0.63564318
1.1708157 -0.47790724 -1.0088007
11.793723 -14.154231 2.2267675
1.2456601 -0.57236654 -0.94998276
13.592014 -16.452026 3.1043286
1.8159215 -1.3219025 -1.067693
12.815238 -15.420203 3.4708033
2.2352881 -1.8697276 -1.0902092
13.087782 -15.743126 4.0839243
2.9371643 -2.7883956 -1.1619101
12.898442 -15.470804 4.5681515
3.7155967 -3.8049765 -1.1980793
13.576837 -16.312912 5.3683538
0.041273881 0.98792577 -0.97653329
10.944706 -13.393153 -2.5110846
0.10700025 0.90150428 -0.9806897
0.8184551 0.0018973851 -0.34556085
0.18088429 0.80428892 -0.98668182
1.0432894 -0.29082435 -0.30469611
0.2188179 0.75597847 -0.95934844
0.26115039 0.70187658 -0.93244034
12.429731 -15.247133 -0.73460019
0.45502272 0.44378993 -1.0048323
13.17744 -16.201191 -0.23030239
0.58142579 0.27728105 -1.0186462
12.673235 -15.511807 0.30251795
0.66977316 0.16240376 -0.99983448
14.237562 -17.53072 0.92360973
0.83022672 -0.04877042 -1.0137358
12.101318 -14.709801 1.2874496
0.97611493 -0.23979804 -1.0078759
3.8764045 -3.9568717 0.63725269
1.2134211 -0.55227321 -1.0314026
1.216069 -0.55098188 -0.94106048
12.488842 -15.134122 2.8793597
1.8719776 -1.4191703 -1.0918355
12.755886 -15.453154 3.4714098
2.2794945 -1.9545083 -1.1082091
2.9125226 -2.787395 -1.158581
13.515852 -16.380104 4.794312
3.4685681 -3.5157359 -1.1409004
10.677769 -12.683474 4.3089962
0.039843362 0.98242003 -0.97829783
10.869167 -13.378284 -2.502264
0.1053723 0.89579409 -0.9823615
0.80749524 0.0035629089 -0.3445082
0.17369895 0.80561179 -0.98391348
1.0267406 -0.28336924 -0.30317619
0.21901712 0.74698168 -0.96249276
0.29945979 0.64088398 -0.96287155
0.45230147 0.43705493 -1.0061188
12.310997 -15.159102 -0.21766788
0.57049078 0.28073677 -1.0149388
12.004872 -14.728728 0.28848106
0.67986107 0.13683872 -1.00877
12.068623 -14.786334 0.79034323
0.81833452 -0.045850463 -1.0104327
12.002007 -14.672468 1.2836826
0.97626585 -0.25414026 -1.0110033
3.8718297 -3.9853833 0.639624
1.1989706 -0.54870862 -1.0279739
11.419492 -13.857036 2.1800652
1.322366 -0.70928931 -0.98742872
12.437817 -15.162963 2.8801639
1.5441842 -1.0010978 -0.97420007
13.215953 -16.150871 3.6036274
2.2612462 -1.9535908 -1.1054475
13.106376 -15.978971 4.1238556
2.8211257 -2.6934788 -1.135628
13.503156 -16.466084 4.8087096
3.2216561 -3.2188694 -1.0829914
10.629458 -12.703061 4.307477
0.036650345 0.97780234 -0.97908127
10.788005 -13.372473 -2.4936299
0.098777696 0.89527273 -0.9803611
0.79770964 0.0011541513 -0.3438105
0.16679433 0.80490786 -0.98198414
1.0016866 -0.26731208 -0.30067533
0.22694379 0.72558546 -0.97222251
12.799708 -15.979076 -1.2890284
0.30720195 0.61906564 -0.97207499
12.299506 -15.285637 -0.72905988
0.45845255 0.4160949 -1.0140395
0.5707249 0.26681972 -1.0188725
12.265375 -15.186092 0.29875875
0.69315308 0.10424563 -1.0202742
11.888113 -14.659738 0.78435481
0.74644202 0.035885964 -0.97534931
11.903697 -14.6542 1.2812421
0.96474099 -0.25563869 -1.0089817
3.8445237 -3.9910371 0.63940167
1.1956835 -0.56329334 -1.0302186
11.413825 -13.956023 2.1903462
1.3914878 -0.82261539 -1.0194187
11.190969 -13.63749 2.6214552
1.6024165 -1.1015188 -0.99920285
11.673087 -14.245683 3.222769
2.2525017 -1.9700425 -1.1064529
13.204397 -16.228077 4.1726599
2.8301027 -2.7385759 -1.1421285
13.470554 -16.547207 4.8203073
3.3130822 -3.3779085 -1.1093113
10.590884 -12.751767 4.3129611
0.026699489 0.98352379 -0.97321939
10.710052 -13.359038 -2.4847341
0.078068964 0.91534352 -0.96563131
0.78518569 0.0041892244 -0.34254447
0.14984907 0.81920993 -0.97138625
0.97409207 -0.24564607 -0.29775271
0.20426798 0.74726462 -0.95798379
30.660437 -40.016193 -2.9088757
0.31650889 0.5961464 -0.98208219
12.267056 -15.34502 -0.72797495
0.45311975 0.41208893 -1.0138285
12.235668 -15.275975 -0.21389885
0.57492876 0.24888216 -1.0249283
11.928374 -14.838961 0.29318237
0.6880672 0.098061197 -1.0206821
0.75919002 0.004966618 -0.98546785
11.818772 -14.640599 1.2792878
0.95639735 -0.25950879 -1.008131
3.8050716 -3.9758098 0.63703746
1.1429873 -0.50869405 -1.0095882
11.395457 -14.02702 2.1971529
1.4138167 -0.87144142 -1.0319185
11.17099 -13.704575 2.6287644
1.7366805 -1.3035523 -1.0522275
11.594034 -14.238345 3.2162783
2.2230179 -1.9553707 -1.1002045
13.081726 -16.174988 4.1537986
2.73387 -2.6383066 -1.1178191
11.76657 -14.413385 4.2644854
3.3419578 -3.4502409 -1.119832
9.5544405 -11.47726 3.9389372
0.014500096 0.9919734 -0.96544701
10.631899 -13.35052 -2.4762406
0.078035787 0.90643024 -0.96910757
0.77464569 0.0037691344 -0.3416664
0.14115693 0.82171017 -0.96773386
0.94499195 -0.22258182 -0.29466441
0.21663639 0.72014147 -0.97102982
13.82336 -17.580235 -1.3873277
0.32000029 0.58038592 -0.98815244
12.151396 -15.299161 -0.72264069
0.44416839 0.41235879 -1.0113807
12.204809 -15.343952 -0.21210973
0.56986713 0.24276359 -1.0253832
11.884418 -14.886767 0.29538667
0.67589676 0.10076579 -1.0171516
11.72152 -14.642179 0.78380471
0.72088444 0.042918921 -0.96811777
11.81708 -14.743997 1.2863803
0.94645995 -0.2621403 -1.0066965
3.787317 -3.9915531 0.63795459
1.2109456 -0.61941135 -1.044138
12.314906 -15.355284 2.3753388
1.3917019 -0.86128533 -1.0263124
1.4509401 -0.93680137 -0.94934583
13.101312 -16.345753 3.6238556
2.2591374 -2.0312712 -1.1158631
13.062769 -16.265297 4.1670012
2.7518673 -2.6937449 -1.126734
3.3753107 -3.531503 -1.1317677
9.5644503 -11.576833 3.9602242
0.012812407 0.98634064 -0.96720409
1.5956168 -1.132152 -0.58495611
0.085464232 0.88755333 -0.97896683
0.76217365 0.0069034789 -0.34040514
0.14324674 0.80980337 -0.97278184
0.91885799 -0.2022468 -0.29191047
0.21639588 0.71089256 -0.97416061
13.753609 -17.602161 -1.383858
0.31619686 0.57527143 -0.98874575
12.062956 -15.282645 -0.71868384
0.40949589 0.44907913 -0.99116188
12.198174 -15.438541 -0.21071371
0.54100883 0.270358 -1.0105009
12.49567 -15.812756 0.31484076
0.62869334 0.15281686 -0.99271733
11.66676 -14.667892 0.78520221
0.73238629 0.013505371 -0.97762471
0.93697941 -0.26439926 -1.0052838
3.7718298 -4.0080137 0.63899696
0.98469067 -0.32562739 -0.94388896
1.3256238 -0.78937221 -1.0021873
11.926734 -14.911668 2.8209603
1.7744668 -1.3996021 -1.0733526
11.426316 -14.215414 3.2015059
2.2481446 -2.0418749 -1.1157713
12.817824 -16.047573 4.1111493
10.914893 -13.481623 4.0113683
1.5813057 -1.1181333 -0.68561566
9.5261116 -11.607717 3.962218
0.019012615 0.9690575 -0.97656459
0.078094631 0.88875443 -0.97606939
0.75167131 0.0065735197 -0.33953196
0.13247038 0.81528294 -0.96739399
0.89358622 -0.18372224 -0.28930008
0.20948187 0.71031702 -0.97232103
0.32277271 0.55497295 -0.99716544
12.000031 -15.306705 -0.71609533
0.42664319 0.41325551 -1.0065038
12.219992 -15.579012 -0.209592
0.49337921 0.32372344 -0.98375297
12.200981 -15.525706 0.31047133
0.63107014 0.13578014 -0.99769485
11.852106 -15.025366 0.80275363
0.71661431 0.020804685 -0.97248006
11.908933 -15.075822 1.3103135
0.92704773 -0.26695883 -1.0038533
3.7634571 -4.0364785 0.64128011
0.96437293 -0.31422034 -0.93785828
10.581218 -13.229994 2.0797522
1.2879031 -0.75684768 -0.9899438
11.860853 -14.930717 2.8198125
1.5478964 -1.1048542 -0.88618058
12.759038 -16.083618 4.1122351
10.855541 -13.501062 4.0092154
1.5698764 -1.1241089 -0.68492317
12.987586 -16.331318 5.3059292
0.0071041211 0.97777385 -0.96880639
0.063794717 0.90034902 -0.96681404
0.74159211 0.0065843007 -0.33867648
0.12616268 0.81512463 -0.9654938
0.8571493 -0.14862369 -0.28517228
0.20707275 0.70403397 -0.97379923
12.347501 -15.914314 -1.2614288
0.30929485 0.56334233 -0.99070472
11.957833 -15.352532 -0.71455318
0.40944639 0.42598265 -0.99814796
12.142746 -15.578613 -0.20731328
0.53351188 0.25553611 -1.0128305
12.094259 -15.484924 0.31087056
0.64254028 0.10669009 -1.0079131
0.7423324 -0.028835017 -0.98990446
11.661565 -14.84137 1.2912436
0.91645187 -0.26759198 -1.0018775
3.7419202 -4.044858 0.64146322
1.0843143 -0.49686557 -0.99634516
10.578611 -13.318184 2.0890667
1.2736211 -0.75527793 -0.98723453
11.248435 -14.202205 2.6954074
1.5188873 -1.0905529 -0.98437309
11.292171 -14.2356 3.1953411
1.5279586 -1.0975698 -0.88235098
10.725069 -13.443296 3.5120862
1.5366561 -1.1041306 -0.78141612
1.5555565 -1.1247964 -0.68337685
9.3688383 -11.566108 3.9363468
-0.01306547 0.99789858 -0.95343131
1.5535829 -1.1383665 -0.58131516
0.063653037 0.89143163 -0.97028983
0.73111534 0.0063349158 -0.33780715
0.11337483 0.82363677 -0.95837402
0.82048982 -0.11365613 -0.28103757
0.20330408 0.69903237 -0.97444057
0.26052213 0.62114173 -0.95837891
11.895953 -15.37785 -0.71204394
0.4080998 0.415806 -1.0008936
0.46989939 0.33209649 -0.97563589
12.064749 -15.555927 0.3135584
